# .PCD v0.7 - Point Cloud Data file format
VERSION 0.7
FIELDS x y z noise intensity gray
SIZE 4 4 4 4 2 1
TYPE F F F F U U
COUNT 1 1 1 1 1 1
WIDTH 868
HEIGHT 1
VIEWPOINT 0 0 0 1 0 0 0
POINTS 868
DATA ascii
-0.13007185 -0.14033078 0.58790797 0.0010931924 1170 255
-0.12724215 -0.14024436 0.58801293 0.0010901423 1140 254
-0.12429199 -0.14001845 0.58751124 0.001083495 1097 244
-0.1210181 -0.13940939 0.58537918 0.0011165602 1073 238
-0.11798914 -0.13906087 0.58431888 0.0010928572 1108 246
-0.11499932 -0.13874307 0.58336711 0.0010741575 1102 245
-0.1120438 -0.13845226 0.5825091 0.0011317414 1069 237
-0.10914019 -0.13821276 0.58184808 0.0011776629 1037 230
-0.10639377 -0.13816518 0.58197743 0.0011650571 965 213
-0.10323406 -0.13756441 0.57975906 0.0010876899 1086 241
-0.10033762 -0.13729158 0.57890505 0.0010730935 1114 248
-0.097447626 -0.13701281 0.57801002 0.0010697163 1113 248
-0.094947681 -0.13728221 0.57941294 0.001072842 1106 246
-0.092309751 -0.13736197 0.58000219 0.0010536759 1150 255
-0.089657247 -0.13742419 0.58050424 0.0010715021 1104 246
-0.087059706 -0.13757713 0.58137697 0.001078177 1094 243
-0.084469251 -0.1377514 0.58232802 0.0010808922 1097 244
-0.081828482 -0.13785243 0.58295786 0.0010658352 1119 249
-0.079063825 -0.13774453 0.58269268 0.001047223 1148 255
-0.076390721 -0.13779414 0.58308274 0.001027221 1191 255
-0.073664479 -0.137748 0.58305717 0.0010241093 1199 255
-0.071008116 -0.13783401 0.58358085 0.0010302239 1212 255
-0.068453819 -0.13813277 0.58499593 0.0010218708 1210 255
-0.065561987 -0.13774699 0.58350283 0.0010792387 1187 255
-0.062887572 -0.13780446 0.5838781 0.0010791983 1161 255
-0.060316168 -0.13810298 0.58526641 0.0010568929 1160 255
-0.057709023 -0.13834389 0.58640289 0.0010591539 1190 255
-0.054993745 -0.13833652 0.58647966 0.0010954604 1171 255
-0.052240744 -0.1382286 0.58612239 0.0010468656 1215 255
-0.049496707 -0.13813385 0.58581382 0.0010314449 1197 255
-0.046810322 -0.13819838 0.58617383 0.0010213786 1208 255
-0.044082373 -0.13814054 0.58600849 0.0010888892 1182 255
-0.041381851 -0.13816674 0.58619326 0.0010374256 1179 255
-0.038614858 -0.13795914 0.58538008 0.0010443289 1165 255
-0.03590541 -0.13794132 0.58536643 0.001047449 1154 255
-0.033175062 -0.13783374 0.58496636 0.0010841371 1127 251
-0.030479278 -0.13786346 0.58514363 0.0011290868 1014 224
-0.027629869 -0.13713646 0.58210391 0.0012508921 958 211
-0.024736198 -0.13600934 0.57736039 0.0011566674 979 216
-0.022119012 -0.13631375 0.5786888 0.001169053 962 212
-0.019506551 -0.13673496 0.58050877 0.0012378724 915 201
-0.016807452 -0.13658634 0.57990515 0.0011905316 932 205
-0.014152919 -0.13681217 0.58088708 0.00115356 980 216
-0.011399174 -0.1359603 0.57728916 0.0011769212 1015 224
-0.0087241661 -0.13581418 0.57668358 0.0011047464 1054 234
-0.0060458649 -0.13546585 0.57521534 0.0010874943 1088 242
-0.0033848623 -0.13526304 0.57436103 0.0011027289 1108 246
-0.00073341723 -0.13535625 0.5747599 0.0010950246 1079 240
0.0019195984 -0.13530251 0.57453078 0.0010980152 1072 238
0.0045792204 -0.13550662 0.57539278 0.0011029297 1071 238
0.0072539179 -0.13584316 0.57681316 0.0011626643 1050 233
0.0099635534 -0.13647753 0.57949406 0.0011180901 1035 229
0.01265559 -0.13665324 0.58022338 0.001187383 1046 232
0.015341646 -0.13671428 0.58046174 0.0011788224 976 215
0.017712187 -0.13436368 0.57045686 0.0011770162 948 209
0.020485327 -0.13528043 0.57432002 0.001265666 840 183
0.023613703 -0.13806398 0.58610314 0.0014752819 662 141
0.026641235 -0.13974604 0.59320456 0.0015377775 649 138
0.029136609 -0.13858326 0.58822501 0.0014271815 690 148
0.031861085 -0.13861558 0.58831352 0.0014241805 691 148
0.034756288 -0.13932721 0.59127986 0.001482962 686 147
0.037570316 -0.13963345 0.59251982 0.0014799647 677 145
0.040323254 -0.13968644 0.59267938 0.0014411026 676 144
0.043010894 -0.1395209 0.59190595 0.001455928 669 143
0.045716505 -0.13942996 0.59144312 0.0014812618 687 147
0.048418973 -0.13934024 0.59097898 0.0014468209 682 146
0.05115515 -0.13935193 0.59093839 0.0015650205 679 145
0.054108266 -0.13992341 0.59326428 0.001501382 672 143
0.05678064 -0.13974881 0.59241921 0.0014421369 678 145
0.059580173 -0.13988882 0.59290028 0.0015858134 669 143
0.06235769 -0.1399671 0.5931114 0.0014581013 672 143
0.065036125 -0.13982575 0.59238356 0.0014511362 669 143
0.067555249 -0.13936718 0.59030348 0.0014667965 660 140
0.070285164 -0.13936223 0.59013617 0.0015867014 665 142
0.072996169 -0.13932154 0.58980799 0.0014699255 658 140
0.075727604 -0.13932137 0.58964145 0.0015760729 648 138
0.078578733 -0.13953376 0.5903638 0.0014963822 636 135
0.081200726 -0.13933869 0.58935124 0.0015076059 640 136
0.083767384 -0.13906443 0.5879932 0.0015873506 649 138
0.086452156 -0.13899738 0.58749992 0.0015271301 647 137
0.089110486 -0.1388932 0.58683771 0.0015951141 629 133
0.09148819 -0.13837078 0.58439672 0.0014850651 652 139
0.094339989 -0.13857484 0.58501118 0.0014963064 639 136
0.097146466 -0.13870275 0.5852899 0.0014982771 640 136
0.099751249 -0.13854358 0.58434278 0.0016034959 630 133
0.10232729 -0.13835397 0.58325338 0.0015069444 630 133
0.10478902 -0.13802361 0.5815562 0.0015096879 628 133
0.10774949 -0.13835025 0.58261138 0.0015852279 617 130
0.11011923 -0.13792099 0.58046722 0.0016535006 618 131
0.11254659 -0.13758273 0.57869077 0.0016285533 625 132
0.1140729 -0.1361846 0.57244349 0.0015410972 629 133
0.11687873 -0.13634303 0.57272428 0.0015263066 619 131
0.12009535 -0.13696286 0.5749225 0.0015463064 604 127
0.12278648 -0.13696939 0.57452494 0.001571325 596 125
0.12461203 -0.13603075 0.57014602 0.0017244851 574 120
0.12652113 -0.13522072 0.56629151 0.0016524364 549 114
0.12893201 -0.13496925 0.56475902 0.0017253525 511 105
0.13098662 -0.1343624 0.56172109 0.001730996 520 107
0.1330318 -0.13377002 0.55872631 0.0016606521 541 112
0.13402487 -0.13216306 0.55148 0.0016636327 550 114
0.13364065 -0.12928465 0.53892428 0.0016360498 558 116
nan nan nan 0 626 132
0.12422471 -0.11578353 0.48160672 0.0014004576 808 175
0.12342368 -0.11297251 0.46937668 0.001183612 944 208
nan nan nan 0 309 57
0.16120414 -0.14244141 0.59037697 0.0029179733 242 42
0.16395243 -0.14240283 0.58945715 0.0016994722 522 108
0.16734134 -0.14291266 0.59077638 0.0017072022 588 123
0.17069665 -0.14337748 0.59187526 0.001699799 574 120
0.17400073 -0.14378491 0.59270263 0.0015941679 577 121
0.17668666 -0.14367667 0.59137291 0.0016168234 600 126
0.17930228 -0.14351556 0.58979744 0.0015453279 599 126
0.18231267 -0.14367053 0.58949071 0.0015517285 604 127
0.18614562 -0.14445911 0.5917474 0.0015118531 627 133
0.18933241 -0.14473014 0.59184682 0.0015092776 627 133
0.19234404 -0.14486124 0.59134126 0.0016044243 611 129
0.19577594 -0.14530043 0.59205973 0.0016391447 628 133
0.19891734 -0.14551452 0.59182709 0.001490987 645 137
0.20183229 -0.14555924 0.59087563 0.0015066091 678 145
0.20487674 -0.14569481 0.59026432 0.0014537821 669 143
0.2083827 -0.14615034 0.59091884 0.0015006006 633 134
0.21155752 -0.14636439 0.59056741 0.0015139425 659 140
0.2153683 -0.14700684 0.59191507 0.001490923 638 135
0.21845002 -0.14714122 0.59119046 0.0014897615 640 136
0.22179915 -0.14744988 0.5911451 0.0015901526 629 133
0.22519928 -0.14778407 0.59118247 0.0015707422 644 137
0.22852813 -0.14806359 0.59098536 0.0015098427 630 133
0.23201481 -0.14843704 0.59115112 0.0015564715 608 128
0.23566292 -0.14890328 0.59167725 0.0015529776 592 124
0.23904009 -0.14918901 0.59148306 0.0015587329 593 125
0.24252984 -0.14953721 0.5915401 0.0016193137 567 118
0.24529044 -0.14943291 0.5898205 0.001770956 564 118
0.24834773 -0.1495097 0.58883786 0.0016692609 538 112
0.25172511 -0.14977512 0.58862442 0.0018545551 522 108
0.25527322 -0.15013485 0.58881259 0.0018203009 528 109
0.25922713 -0.15072231 0.58993024 0.0017430341 492 101
0.26235601 -0.15082224 0.58918595 0.0016867081 524 108
0.2655988 -0.1509847 0.58874333 0.0017588512 498 102
0.26877794 -0.15110779 0.58821189 0.0019174734 503 103
0.27219462 -0.1513603 0.58825576 0.0018421672 491 101
0.27536023 -0.15146928 0.58782017 0.0020020851 447 90
0.27869523 -0.15166806 0.58781844 0.0019888382 407 81
0.28243133 -0.15207866 0.58872706 0.0020467041 394 78
0.28584552 -0.15230912 0.58903295 0.0020617114 388 76
0.28905538 -0.15242708 0.5890038 0.0023641875 353 68
0.29632881 -0.15466356 0.59725934 0.0021994836 350 67
0.30676436 -0.15848839 0.61174428 0.0023468279 323 61
0.31167561 -0.15941103 0.6151312 0.0022823669 400 79
0.31449202 -0.15925461 0.61446661 0.0016858048 587 123
0.31776741 -0.15933134 0.61481488 0.0014699519 714 153
0.32121491 -0.15949205 0.61559939 0.0012231156 913 200
0.32372516 -0.15918879 0.61470342 0.0011826298 931 205
0.32691237 -0.15922099 0.61521083 0.0012347484 863 189
-0.35465229 -0.14994058 0.60402006 0.0040208553 159 22
-0.35126764 -0.14977594 0.60190469 0.0040849708 149 20
-0.34982368 -0.15044308 0.60318977 0.0044370536 166 24
-0.34750357 -0.15074168 0.60305446 0.0037685232 168 24
-0.34489852 -0.15092088 0.60250711 0.0039258096 177 26
-0.34150523 -0.15075526 0.60065591 0.0040644668 188 29
-0.3388148 -0.15089969 0.60011691 0.0033442394 200 32
-0.33653083 -0.15122943 0.60039139 0.0032042612 210 34
-0.33404359 -0.15147297 0.60040355 0.0031987743 217 36
-0.33093145 -0.15143496 0.5993858 0.0034991165 214 35
-0.32801053 -0.15148461 0.59880555 0.003187807 206 33
-0.3257125 -0.15182553 0.59946918 0.0031538499 232 39
-0.3230927 -0.15202142 0.59965593 0.0029577082 231 39
-0.32055956 -0.15226226 0.60011917 0.0031600287 253 44
-0.31737936 -0.15219738 0.59948105 0.0026916899 262 46
-0.31478894 -0.15241683 0.60006905 0.0026641262 265 47
-0.31194493 -0.15251656 0.60029405 0.0025350091 284 52
-0.30873072 -0.15243551 0.59991783 0.0027283637 292 53
-0.30563247 -0.15241064 0.59987402 0.0028512252 293 54
-0.30242202 -0.15232877 0.59971756 0.002435457 298 55
-0.29907012 -0.15217327 0.59938186 0.0023277593 325 61
-0.29588574 -0.15210067 0.59948194 0.0022870048 339 65
-0.29233855 -0.15183811 0.59893996 0.0022422448 342 65
-0.28938204 -0.15188009 0.59970278 0.0023945917 364 70
-0.28477347 -0.15104663 0.59710562 0.0021375676 366 71
-0.28193909 -0.1511465 0.59828979 0.0022025078 383 75
-0.27886769 -0.15112007 0.59906381 0.0020238028 395 78
-0.27551672 -0.15093988 0.59931058 0.0021536732 420 84
-0.2717168 -0.15050706 0.59862626 0.0019052875 444 89
-0.26764756 -0.14991364 0.5973646 0.0019160651 502 103
-0.2642988 -0.14971492 0.59773099 0.0017849609 519 107
-0.26097545 -0.14952624 0.59818709 0.001729942 502 103
-0.25701538 -0.14896411 0.59718817 0.0018667481 517 107
-0.25325447 -0.1485056 0.59663343 0.0017929549 523 108
-0.24970163 -0.14815967 0.59655344 0.0016455686 551 115
nan nan nan 0 563 118
-0.19606988 -0.11916541 0.48196632 0.0011754639 964 212
-0.18992971 -0.11685384 0.47368789 0.0010491421 1224 255
nan nan nan 0 948 209
-0.20284265 -0.12794694 0.52100497 0.0013330443 779 169
-0.20480266 -0.13083361 0.5339542 0.0013904514 722 155
-0.20378712 -0.13186952 0.5393762 0.0013948133 720 155
-0.20268303 -0.13287455 0.54467726 0.0013666033 740 159
-0.20158663 -0.13391137 0.55011076 0.0014368093 729 157
-0.19999276 -0.13464122 0.55427974 0.0014924915 729 157
-0.19849797 -0.13545859 0.55880117 0.0014443202 731 157
-0.19794098 -0.13694739 0.56608874 0.0013802935 733 158
-0.19560319 -0.13722864 0.56837428 0.0014150871 739 159
-0.19383559 -0.13792361 0.57235497 0.0014725393 742 160
-0.19199859 -0.13858853 0.57619405 0.001332472 767 166
-0.18975064 -0.13897197 0.57884246 0.0013673493 787 171
-0.18786596 -0.13963683 0.58264142 0.0013727506 834 182
-0.18548355 -0.13994619 0.58493447 0.0013245393 846 184
-0.1828616 -0.14008155 0.58647335 0.0013073219 860 188
-0.18015032 -0.14015162 0.58770996 0.0012371005 868 190
-0.1760208 -0.1391031 0.58421928 0.00110815 1156 255
-0.1733133 -0.13916275 0.58534646 0.0010378853 1268 255
-0.17052975 -0.13916229 0.58619148 0.001001154 1326 255
-0.1664204 -0.1380619 0.58236736 0.0010050392 1281 255
-0.16116598 -0.13595845 0.57426494 0.0010009344 1252 255
-0.15483302 -0.13285732 0.56189173 0.0011300282 1083 241
-0.15440576 -0.13480389 0.57083315 0.0011310348 1021 226
-0.15281063 -0.13578191 0.57566154 0.0011435422 1005 222
-0.150526 -0.13617156 0.57797587 0.001118236 1028 228
-0.14940965 -0.13765194 0.58490252 0.0010944264 1069 237
-0.14672709 -0.13771781 0.58580041 0.0010774251 1122 250
-0.14385003 -0.13760017 0.58589238 0.00098703674 1292 255
-0.14108586 -0.13758802 0.58640856 0.00096929871 1318 255
-0.13815163 -0.13740627 0.58617735 0.00097340625 1315 255
-0.13523979 -0.13723984 0.58598697 0.0010330027 1264 255
-0.13269061 -0.13744216 0.58734864 0.0010463418 1211 255
-0.13008673 -0.13759521 0.58847934 0.0010372731 1178 255
-0.12730114 -0.1375585 0.58877754 0.0010669157 1159 255
-0.12410992 -0.13707218 0.58712906 0.0011095786 1086 241
-0.12156314 -0.1372917 0.58848315 0.0011323745 1019 225
-0.11823871 -0.13662282 0.58600873 0.0010935426 1070 237
-0.11477443 -0.13575689 0.58266622 0.0010875983 1078 239
-0.11187012 -0.13552739 0.58203441 0.0011051595 1057 234
-0.10879133 -0.13506985 0.58040422 0.0011027744 1053 233
-0.10607577 -0.13505146 0.58064359 0.001150524 980 216
-0.1031032 -0.13469636 0.57941824 0.0011053849 1062 236
-0.10044395 -0.13474248 0.57990295 0.001084868 1094 243
-0.097445317 -0.13432337 0.57836968 0.0010680455 1122 250
-0.094856799 -0.13446182 0.5792225 0.0010577119 1126 251
-0.092284121 -0.13463147 0.58019662 0.0011196773 1128 251
-0.089731038 -0.13484074 0.58132881 0.0010582419 1133 252
-0.08716248 -0.13503903 0.58240175 0.0010959815 1069 237
-0.084634364 -0.13531466 0.5837968 0.0011408024 1086 241
-0.081906058 -0.13527784 0.58383244 0.0011187735 1119 249
-0.079176009 -0.13523552 0.58383298 0.0010448135 1153 255
-0.076510176 -0.13530381 0.58430028 0.0010225889 1198 255
-0.073734611 -0.1351759 0.58390999 0.0010205155 1202 255
-0.071029678 -0.13517267 0.58404833 0.0010634172 1229 255
-0.068518668 -0.13555285 0.58583432 0.00101758 1211 255
-0.06589397 -0.13573015 0.58673483 0.0010395928 1184 255
-0.063224867 -0.13582732 0.58728069 0.0010419766 1169 255
-0.060419302 -0.13562685 0.58653134 0.0010328512 1184 255
-0.05778785 -0.13581678 0.58746225 0.0010751254 1177 255
-0.055067193 -0.13580546 0.58751529 0.0010336264 1177 255
-0.052298822 -0.13566916 0.5870204 0.0010187647 1220 255
-0.049565438 -0.13561366 0.58686835 0.0010094708 1223 255
-0.046847358 -0.13559608 0.58687359 0.0010216044 1212 255
-0.044193659 -0.13577409 0.58771932 0.0010322008 1183 255
-0.041338768 -0.1353168 0.58580905 0.0010450745 1177 255
-0.038619999 -0.13527232 0.58567977 0.0010518632 1143 255
-0.035902701 -0.13522665 0.58554006 0.0011020363 1061 235
-0.033197414 -0.13522245 0.58557469 0.0011649225 960 211
-0.029972572 -0.13291353 0.57562292 0.001177161 964 212
-0.027336752 -0.13302146 0.57613271 0.0011609786 969 214
-0.024863895 -0.13403112 0.58054376 0.0011883612 935 206
-0.022210434 -0.13419357 0.5812813 0.0011975883 918 202
-0.019514039 -0.13410561 0.58092988 0.0012083284 966 213
-0.016810602 -0.13393351 0.58020985 0.0011137101 1046 232
-0.014070055 -0.13334453 0.57767969 0.0010886599 1091 242
-0.01141297 -0.13345598 0.57818013 0.0011528149 1087 241
-0.0087465476 -0.13349301 0.5783543 0.0010833234 1093 243
-0.006051051 -0.13292384 0.57589841 0.0011399525 1081 240
-0.0033905644 -0.13283445 0.57551759 0.0010771293 1107 246
-0.00073365925 -0.13274628 0.57513833 0.0010769075 1103 245
0.0019234281 -0.13291442 0.57586604 0.0010909019 1072 238
0.0045773769 -0.13279641 0.57535028 0.0011262761 1108 246
0.0072502145 -0.13311183 0.57670885 0.0011012313 1094 243
0.0099799065 -0.13402136 0.58063763 0.0011096958 1073 238
0.012669357 -0.13411978 0.58104849 0.001093241 1095 243
0.015372129 -0.13430019 0.58181071 0.0011098222 1041 231
0.017817458 -0.13251229 0.5740422 0.0011659265 963 212
0.020475371 -0.1325637 0.57423788 0.0012265798 885 194
0.023317853 -0.13366127 0.57896107 0.0013191698 793 172
0.026444536 -0.13599463 0.58903188 0.0013614245 753 162
0.029125046 -0.1358123 0.5882014 0.0013049487 866 189
0.031796876 -0.13562402 0.58734077 0.0012650128 917 201
0.034412134 -0.13524303 0.58564073 0.0012371044 929 204
0.037114158 -0.1352337 0.58554524 0.0012380015 892 195
0.039831854 -0.13527884 0.58568031 0.0012833067 826 180
0.042606432 -0.13549919 0.5865683 0.0013380585 762 165
0.045427371 -0.13583179 0.58793616 0.0013750772 734 158
0.048284732 -0.1362296 0.58957976 0.00142412 700 150
0.051063754 -0.13637571 0.59012735 0.0014449459 676 144
0.053858887 -0.13654785 0.59078068 0.0014257919 692 148
0.056705043 -0.13682649 0.59188735 0.0014296389 679 145
0.059590165 -0.13716918 0.59326327 0.0015082306 679 145
0.062297855 -0.13709125 0.59281206 0.0014880829 688 147
0.064903729 -0.13680527 0.59145343 0.0014221208 694 149
0.067595109 -0.13671538 0.59093434 0.0015186701 683 146
0.07033889 -0.13673435 0.59087694 0.0015226234 677 145
0.073092878 -0.13677096 0.59088653 0.0015557386 676 144
0.075884216 -0.13687234 0.59116596 0.0015508698 657 140
0.078601792 -0.13683824 0.59085 0.0014547833 665 142
0.081412047 -0.13696234 0.59120625 0.001548496 658 140
0.084020302 -0.1367496 0.59009773 0.0014546296 669 143
0.086696468 -0.13665731 0.58949775 0.0014708446 658 140
0.089511499 -0.13678285 0.58982539 0.0014772918 652 139
0.091855921 -0.13620318 0.58710015 0.001571308 662 141
0.094916694 -0.13668844 0.5889523 0.0015160355 650 138
0.097433209 -0.13638476 0.58739126 0.0015192096 647 137
0.10006135 -0.13624956 0.58654261 0.0015872152 645 137
0.10270072 -0.13613643 0.58577478 0.001526023 639 136
0.10545725 -0.13618045 0.58566797 0.0014962537 645 137
0.10808286 -0.13605742 0.58482718 0.001522245 650 138
0.1107696 -0.13601553 0.58431923 0.0016285044 629 133
0.11294133 -0.13535839 0.58115304 0.001572901 645 137
0.11577668 -0.13550875 0.58143747 0.0016123004 631 134
0.1177576 -0.13467504 0.57748342 0.0016416797 640 136
0.12058645 -0.13482669 0.57773775 0.001552404 609 128
0.12311133 -0.13463923 0.57652009 0.0016365488 590 124
0.12564068 -0.13446464 0.5753386 0.0016238486 564 118
0.12797824 -0.13409635 0.57330996 0.0016941264 529 109
0.12962636 -0.13303566 0.56830496 0.001798192 515 106
0.13225526 -0.13300392 0.56767797 0.00168803 532 110
0.13271032 -0.13083042 0.55789608 0.0017409874 557 116
0.13442262 -0.12995641 0.55364513 0.0016907651 545 113
0.13356191 -0.12667522 0.53913367 0.0016572124 549 114
nan nan nan 0 659 140
0.1223748 -0.11182308 0.47492102 0.0012414377 863 189
0.1231541 -0.11051567 0.46884239 0.0012638143 877 192
nan nan nan 0 242 42
0.16094959 -0.1394282 0.59009051 0.0028541379 255 45
0.16359492 -0.13930647 0.58883041 0.0018112714 549 114
0.1667645 -0.13962775 0.58941323 0.0016107325 590 124
0.17064404 -0.14052312 0.59238362 0.0015889563 621 131
0.17366296 -0.14069225 0.59225684 0.0015967626 576 121
0.17655516 -0.14075492 0.59165061 0.0015791219 593 125
0.17929715 -0.14069779 0.59051061 0.0015300044 613 129
0.18233198 -0.14086866 0.59029645 0.0015472294 608 128
0.18576775 -0.14133938 0.591304 0.0015095687 625 132
0.18908423 -0.14170657 0.59184229 0.0016214781 632 134
0.19228083 -0.14197442 0.59193063 0.0015003579 636 135
0.195153 -0.14199843 0.59096998 0.0015355226 647 137
0.19882429 -0.14259486 0.5923574 0.0014706028 657 140
0.2016584 -0.14258248 0.59118211 0.0014951791 640 136
0.20443068 -0.14252736 0.58980221 0.001509964 662 141
0.20745116 -0.14264441 0.58910733 0.0015819648 642 136
0.21073867 -0.14293939 0.58911842 0.0014420444 668 142
0.21472916 -0.1436969 0.59100318 0.0015105538 654 139
0.21789452 -0.14388956 0.59053499 0.0014725381 653 139
0.22103319 -0.14405976 0.58995229 0.0015232645 629 133
0.2245097 -0.14444298 0.59022093 0.0015735817 641 136
0.22828798 -0.14500812 0.59121162 0.0015493206 628 133
0.23164767 -0.14529653 0.59105742 0.0015559641 633 134
0.23521762 -0.14570804 0.59139323 0.001523297 618 131
0.23852018 -0.14594589 0.59101886 0.0016738957 591 124
0.24168757 -0.14609626 0.59029251 0.0016827523 585 123
0.24518742 -0.14644164 0.5903616 0.0016466302 549 114
0.24801357 -0.14638117 0.5888105 0.0017767614 555 116
0.25137308 -0.1466333 0.58854049 0.0016147512 552 115
0.25508511 -0.14708285 0.58908939 0.0017296976 539 112
0.25772753 -0.14691244 0.58719301 0.0018049324 534 111
0.26195213 -0.14763761 0.58891958 0.0016405765 540 112
0.26509696 -0.14774482 0.58823049 0.001675719 530 110
0.26846758 -0.14797412 0.58808815 0.0018196184 522 108
0.27156281 -0.14804831 0.58739823 0.0017550741 489 100
0.27510825 -0.14836368 0.58774078 0.0018574147 463 94
0.27880737 -0.1487543 0.58846188 0.0018733873 450 91
0.28227371 -0.1490138 0.58875155 0.0019719277 411 82
0.28603503 -0.14942195 0.5897215 0.0021385462 367 71
0.29056725 -0.15022025 0.59232712 0.0025463719 318 60
0.29876956 -0.15288018 0.60236728 0.0025390112 298 55
0.3095282 -0.15678102 0.6173895 0.0023034334 329 62
0.31310946 -0.15700464 0.61803591 0.0018504929 552 115
0.31603989 -0.15690069 0.6175074 0.0015087872 629 133
0.31857929 -0.1566066 0.61634552 0.0014369963 746 161
0.32113963 -0.15632842 0.6153602 0.0011902933 978 216
0.32393926 -0.15617096 0.61496216 0.0010611685 1179 255
0.32574955 -0.1555441 0.61282474 0.0011167681 1096 244
-0.35613891 -0.14755802 0.60593241 0.0047495612 148 19
-0.3522369 -0.14718574 0.60296828 0.0038500165 173 25
-0.35018417 -0.14758644 0.60323513 0.003648099 178 26
-0.3482427 -0.14804138 0.60378408 0.0037561676 172 25
-0.34487653 -0.14789334 0.60194242 0.0039616111 186 28
-0.34192744 -0.14792311 0.60090071 0.0034054941 192 30
-0.33900294 -0.14796415 0.5999828 0.0037666082 200 32
-0.33667824 -0.14827007 0.60021877 0.0035881856 214 35
-0.3338148 -0.14834213 0.59959137 0.0036134114 220 36
-0.33110133 -0.14848275 0.59932935 0.0029657497 231 39
-0.32829335 -0.14858323 0.598997 0.0030837855 220 36
-0.3255159 -0.14869952 0.59882414 0.0031035191 220 36
-0.3234041 -0.14912492 0.59999406 0.0032047152 244 42
-0.32124096 -0.14953449 0.60120088 0.0032779439 244 42
-0.31815723 -0.14951932 0.60080528 0.0029711842 273 49
-0.31440014 -0.14918433 0.59923381 0.0027950997 269 48
-0.31129646 -0.14915586 0.59900457 0.0026783431 272 49
-0.30838832 -0.14922144 0.59926504 0.0024687753 294 54
-0.30642131 -0.14974827 0.6014908 0.0024084584 312 58
-0.30293888 -0.14953765 0.60086727 0.0024373077 303 56
-0.29942521 -0.14930718 0.60027522 0.0025145048 327 62
-0.29480612 -0.14851508 0.59753239 0.0022904186 334 63
-0.29139787 -0.14832285 0.59730679 0.002410874 347 66
-0.2896145 -0.14896235 0.60053593 0.0022063926 355 68
-0.28617319 -0.14875361 0.60044646 0.002235166 394 78
-0.28123498 -0.14775395 0.59725142 0.0022306445 407 81
-0.27833953 -0.14781749 0.59843606 0.0020988281 403 80
-0.27506873 -0.14768088 0.59889042 0.0021793398 429 86
-0.27189562 -0.14759427 0.59961921 0.0018383652 457 92
-0.26823175 -0.14723636 0.59930795 0.0017775327 481 98
-0.26386553 -0.14648043 0.59742522 0.0018094262 495 101
-0.2605249 -0.14628305 0.59786218 0.0017327274 502 103
-0.25638634 -0.14562783 0.59646189 0.0016744944 537 111
-0.25291398 -0.14534013 0.59659189 0.0016287074 557 116
-0.24794702 -0.1441765 0.59313929 0.0016355045 547 114
nan nan nan 0 592 124
-0.19238468 -0.11458738 0.47355404 0.0010888766 1131 252
-0.19006237 -0.11459701 0.47467557 0.0010966389 1167 255
nan nan nan 0 931 205
-0.20397413 -0.12608771 0.52464867 0.0013944983 777 168
-0.20648649 -0.12927137 0.53910416 0.0014026891 717 154
-0.20449382 -0.12968056 0.5420109 0.0014762583 712 153
-0.20261537 -0.13017386 0.54526252 0.0013713682 751 162
-0.20128858 -0.1310394 0.55006766 0.00137043 735 158
-0.20092693 -0.13256499 0.55764455 0.0013825854 727 156
-0.19940907 -0.13335901 0.56214154 0.0014195684 735 158
-0.19798426 -0.13423808 0.5669868 0.0014586413 733 158
-0.19568053 -0.13453752 0.56936765 0.0013893186 747 161
-0.1933253 -0.13480958 0.57160991 0.0014513488 772 167
-0.19175424 -0.13564421 0.57621783 0.0013212272 778 168
-0.18956725 -0.13606119 0.57903224 0.001320028 798 173
-0.18719395 -0.13635488 0.5812974 0.0013186262 842 184
-0.18499757 -0.13678822 0.58413309 0.0012421767 861 188
-0.18232043 -0.13687393 0.58545756 0.0012592043 896 196
-0.1791036 -0.13655083 0.58500105 0.0010925772 1070 237
-0.17588051 -0.13621269 0.58444548 0.0010365434 1169 255
-0.17312279 -0.13622987 0.58538234 0.0010145605 1214 255
-0.17056046 -0.13640389 0.58696431 0.0010636004 1215 255
-0.16787891 -0.13648675 0.58812588 0.00099742692 1258 255
-0.16135471 -0.1333956 0.57556444 0.0010220946 1197 255
-0.15376051 -0.12929857 0.55859488 0.0010884024 1104 246
-0.15495656 -0.13257937 0.57346708 0.0011455565 992 219
-0.15247479 -0.1327741 0.57498193 0.0011027677 1061 235
-0.15056254 -0.1334808 0.57869208 0.0011113118 1034 229
-0.14915104 -0.13466568 0.58445823 0.0010874526 1087 241
-0.14642461 -0.13468552 0.58514816 0.0011306436 1110 247
-0.14366275 -0.1346729 0.58567226 0.0010524408 1238 255
-0.14091939 -0.13467745 0.58624667 0.00097623351 1308 255
-0.13780347 -0.13431907 0.58521622 0.00098167197 1303 255
-0.13509864 -0.13435496 0.58587933 0.0010058014 1233 255
-0.13261633 -0.13461821 0.58751261 0.0010208947 1209 255
-0.13011022 -0.13486792 0.5890671 0.00110202 1135 253
-0.12728463 -0.13479012 0.58917058 0.0010636009 1131 252
-0.12393551 -0.13414226 0.58675951 0.001099568 1084 241
-0.12124626 -0.13419543 0.5873934 0.0011364711 1009 223
-0.11799651 -0.13361639 0.58523941 0.001152329 1055 234
-0.11457077 -0.13280597 0.58204985 0.0010955259 1070 237
-0.11141911 -0.13228166 0.58009303 0.0011017979 1065 236
-0.10845597 -0.13196069 0.57900882 0.0010998957 1057 234
-0.10563043 -0.13179506 0.57858872 0.0012104458 987 218
-0.1028028 -0.13161811 0.57810247 0.0011224122 1055 234
-0.10006423 -0.13154873 0.57807302 0.0011028231 1085 241
-0.097460933 -0.13165827 0.5788154 0.0010741372 1110 247
-0.094924927 -0.13186751 0.5799827 0.0010767864 1105 246
-0.092131719 -0.13172124 0.57957298 0.0010578036 1160 255
-0.089615278 -0.13197374 0.58090508 0.0010803522 1148 255
-0.087269448 -0.13250095 0.58343524 0.0010797174 1099 244
-0.08459609 -0.13254867 0.58384305 0.0010947607 1114 248
-0.081918105 -0.13259207 0.58422047 0.0010676431 1119 249
-0.079241581 -0.13264087 0.5846107 0.0010810302 1142 255
-0.076516002 -0.1326081 0.58463103 0.0010622515 1181 255
-0.073782884 -0.1325594 0.584571 0.0010661476 1200 255
-0.071141087 -0.13267729 0.58523589 0.0010231464 1206 255
-0.068514392 -0.13283378 0.58606225 0.001019151 1209 255
-0.065872014 -0.13297154 0.58679748 0.0010986169 1180 255
-0.063224837 -0.13311099 0.5875321 0.001082561 1171 255
-0.06054255 -0.13318574 0.58797318 0.0010627864 1200 255
-0.057819352 -0.1331733 0.58802193 0.0010702969 1192 255
-0.055117801 -0.13321193 0.58828884 0.0010705816 1194 255
-0.05234028 -0.13306145 0.58771366 0.001027649 1191 255
-0.049591474 -0.1329715 0.58739901 0.0010900219 1169 255
-0.046898969 -0.13303083 0.5877375 0.0010418835 1177 255
-0.044114977 -0.13282199 0.58688527 0.0010341493 1176 255
-0.041381855 -0.13274899 0.58662748 0.0010720417 1107 246
-0.038567498 -0.13238694 0.58508658 0.0011276292 1017 225
-0.035817519 -0.13220797 0.58434957 0.0012366438 959 211
-0.032603465 -0.13014735 0.57529008 0.0011388521 1006 222
-0.030051451 -0.13059835 0.57732737 0.0011501925 986 218
-0.027538517 -0.13132346 0.58057249 0.0011469668 989 218
-0.024842946 -0.1312401 0.58023918 0.0011053942 1061 235
-0.022147084 -0.13113488 0.57980531 0.0011076446 1077 239
-0.01944913 -0.13098663 0.57917708 0.0010870184 1086 241
-0.016767122 -0.13091566 0.57888675 0.0010824506 1094 243
-0.014114565 -0.1310913 0.57968324 0.0011117032 1072 238
-0.011441633 -0.13111562 0.57980698 0.0010993215 1071 238
-0.0087590367 -0.13101022 0.57935363 0.0011304658 1080 240
-0.0060795159 -0.13087842 0.57878017 0.0011127705 1046 232
-0.003406977 -0.13080822 0.57847559 0.0011632775 1055 234
-0.00073770451 -0.1308089 0.57848132 0.0011372236 1052 233
0.0019411953 -0.13145964 0.58135819 0.0011157232 1057 234
0.0046261125 -0.13152638 0.5816493 0.0011348256 1057 234
0.0073176725 -0.13166361 0.58224875 0.0011610113 1041 231
0.010042394 -0.13216358 0.5844487 0.0010970046 1072 238
0.012742793 -0.13219953 0.5845933 0.0011025531 1057 234
0.015379677 -0.13167907 0.58227396 0.0011173555 1028 228
0.017840046 -0.13002697 0.57494718 0.0011743414 952 210
0.02048452 -0.12997074 0.57467359 0.0012170698 902 198
0.023246681 -0.1305885 0.57737613 0.0013575073 853 186
0.026449718 -0.13330115 0.58933604 0.0013061694 801 174
0.029294074 -0.13386875 0.59180748 0.0013617509 799 173
0.031698685 -0.13250138 0.58572072 0.0011998158 917 201
0.034470748 -0.13276421 0.5868358 0.0011588883 962 212
0.037172776 -0.13273862 0.58667135 0.0011612646 972 214
0.039900564 -0.13280223 0.58689612 0.0011749783 942 207
0.042575173 -0.13269205 0.58634758 0.0011863158 930 204
0.045246799 -0.1325863 0.58581322 0.0012264337 936 206
0.047906093 -0.13245837 0.5851751 0.0011894943 927 204
0.050516762 -0.13221684 0.58402932 0.0012315289 901 197
0.053211901 -0.13220969 0.58391261 0.0012746196 847 185
0.056053262 -0.13254897 0.58531916 0.0013070139 823 179
0.058873486 -0.13280936 0.58636969 0.0013209237 793 172
0.061722528 -0.13310897 0.58758563 0.0013370201 788 171
0.064460702 -0.13315432 0.58767092 0.0014950359 722 155
0.067432888 -0.13365982 0.58977866 0.0014421701 707 152
0.070299558 -0.13392501 0.59081662 0.001426061 682 146
0.073157251 -0.1341539 0.59168476 0.0014406978 686 147
0.075713195 -0.13383289 0.59011817 0.001429311 689 147
0.078566179 -0.13404101 0.59087509 0.0014487648 693 148
0.08148364 -0.1343414 0.59202772 0.0014333238 685 146
0.084136985 -0.13420102 0.59122682 0.0015343296 688 147
0.086923167 -0.13427466 0.59135753 0.0014333542 687 147
0.089677759 -0.13429648 0.59124792 0.0015853299 677 145
0.092392705 -0.13425942 0.59086686 0.0014454209 680 145
0.095068701 -0.13416949 0.59024048 0.0014423253 681 145
0.097788893 -0.13414524 0.58988976 0.0014437685 679 145
0.1005639 -0.13419548 0.58985263 0.0014589156 664 141
0.10328107 -0.13416791 0.58945888 0.0014530064 670 143
0.10589065 -0.13400559 0.58845848 0.0015556574 658 140
0.10844575 -0.13378423 0.58718413 0.0014694635 672 143
0.1110641 -0.13364989 0.58627617 0.0014915363 643 136
0.11376169 -0.13361502 0.58578825 0.0015690884 653 139
0.11653133 -0.13366444 0.58565235 0.0014979542 638 135
0.11886871 -0.13322712 0.58336699 0.0015160337 622 131
0.12165942 -0.13330612 0.58332485 0.0015366443 612 129
0.1239378 -0.13283254 0.58084667 0.0015912945 580 122
0.12593578 -0.13208513 0.57715517 0.0016603849 541 112
0.12818669 -0.13162877 0.57471907 0.0018255914 531 110
0.1301571 -0.13090903 0.57111627 0.0017674919 529 109
0.13245519 -0.13054118 0.56903112 0.0017824627 543 113
0.13226148 -0.12778047 0.55650544 0.0016320102 558 116
0.13405679 -0.12701097 0.55264354 0.0016480982 557 116
0.13352478 -0.12410747 0.53948903 0.0016636093 543 113
nan nan nan 0 647 137
0.12220319 -0.10943318 0.47472131 0.0012432975 880 193
0.12423904 -0.10925972 0.47344881 0.0013044636 792 172
nan nan nan 0 206 33
0.16050422 -0.13626182 0.58907771 0.0027330804 295 54
0.16341753 -0.13637261 0.5888257 0.0016891451 546 114
0.16621719 -0.13638641 0.58812577 0.0015644453 598 126
0.17037833 -0.13749851 0.59212643 0.0017548578 544 113
0.17340051 -0.13767032 0.59204096 0.0016311646 569 119
0.1764238 -0.1378375 0.59190339 0.0016534126 590 124
0.17937596 -0.13794473 0.59147638 0.0015628875 597 126
0.18235879 -0.13807188 0.59110266 0.0015507893 596 125
0.18543753 -0.13826665 0.59098548 0.0015113313 625 132
0.18852049 -0.1384587 0.59082299 0.0015022729 633 134
0.19161926 -0.13865653 0.59065157 0.0015798105 632 134
0.19490623 -0.1389828 0.59099281 0.0014820358 641 136
0.19799642 -0.13916139 0.59067208 0.0015040296 636 135
0.20095882 -0.13924637 0.58992207 0.0015647844 670 143
0.2039983 -0.13938166 0.58935452 0.0015842073 668 142
0.207196 -0.13961986 0.58919102 0.0014270329 686 147
0.21037126 -0.13983667 0.58890694 0.0014369794 677 145
0.21415512 -0.14044681 0.59024704 0.001493017 655 139
0.21766165 -0.14086136 0.59073299 0.0015209782 638 135
0.22072579 -0.14098252 0.5899629 0.0014837049 645 137
0.22379594 -0.14110439 0.58917552 0.0014716836 687 147
0.22798409 -0.14191909 0.59125733 0.0015737589 645 137
0.23115453 -0.14208779 0.59062737 0.0016102155 623 132
0.2345427 -0.14238447 0.59051806 0.0016554011 595 125
0.23810445 -0.14277799 0.59080154 0.0015667679 589 124
0.24130841 -0.14295003 0.59016615 0.0016762582 569 119
0.24407212 -0.14286029 0.58845794 0.0016067151 564 118
0.24731156 -0.14304782 0.58790576 0.0015522314 597 126
0.25088128 -0.14341979 0.58812827 0.0017370016 545 113
0.25421283 -0.14364859 0.58778721 0.0017758018 552 115
0.2576184 -0.14391354 0.58762598 0.0017782724 540 112
0.26060009 -0.14393838 0.5865261 0.0016367112 555 116
0.26489621 -0.1446806 0.58839536 0.0016395014 545 113
0.26790732 -0.14471231 0.58742887 0.0016811115 529 109
0.27105477 -0.14481622 0.58682215 0.0017613306 493 101
0.27477902 -0.14522272 0.58751333 0.0018458096 456 92
0.27842695 -0.1455806 0.58808517 0.0020120796 437 88
0.28208509 -0.14593625 0.58873242 0.0020220808 395 78
0.28560495 -0.14621365 0.58915532 0.0023025332 349 67
0.2916348 -0.14775701 0.59477109 0.0028505495 259 46
0.30310801 -0.15199846 0.61133134 0.003033557 223 37
0.3094129 -0.15358849 0.61732006 0.002855252 285 52
0.31384411 -0.15422589 0.61958843 0.0016663331 548 114
0.31692183 -0.15419212 0.61927521 0.0014410747 776 168
0.31891111 -0.15363464 0.61697531 0.001423873 746 161
0.32144082 -0.15334585 0.61587024 0.0011909006 978 216
0.32347387 -0.15282799 0.61395884 0.00094646483 1364 255
0.32676554 -0.15290895 0.61456513 0.00091387826 1527 255
-0.35298711 -0.14326772 0.59997666 0.0039888122 157 21
-0.35234511 -0.14422657 0.60257745 0.0045984387 160 22
-0.35052401 -0.14471509 0.60326552 0.0038207951 165 23
-0.34775797 -0.14481857 0.60241306 0.0037038592 174 26
-0.3446531 -0.14478154 0.60104901 0.0034037184 194 30
-0.34216568 -0.14500555 0.6008442 0.004106564 191 30
-0.33951592 -0.14516412 0.60044587 0.0035828233 201 32
-0.33696967 -0.14537019 0.60032594 0.0032010167 201 32
-0.33417028 -0.14546981 0.59985256 0.003776771 209 34
-0.33140877 -0.14558788 0.5995459 0.0033648657 233 39
-0.32816598 -0.14549474 0.59846479 0.0029510208 230 39
-0.32533795 -0.14558552 0.59823895 0.00326388 235 40
-0.32344735 -0.1461014 0.59986007 0.002904501 234 40
-0.32151124 -0.14660634 0.60153872 0.0028262662 243 42
-0.31771001 -0.14626233 0.59984201 0.0026947232 264 47
-0.31457558 -0.14622161 0.59950036 0.0026005867 275 49
-0.31088033 -0.14591685 0.59818852 0.0025500681 284 52
-0.30840233 -0.14618306 0.59933084 0.002480462 293 54
-0.30607387 -0.14652616 0.60090244 0.0025870146 296 54
-0.30373397 -0.14687063 0.60259461 0.0024222741 321 60
-0.29988918 -0.14648704 0.60141176 0.0021858304 357 69
-0.29489827 -0.14552996 0.59798026 0.002187964 351 67
-0.29070991 -0.14495315 0.59621209 0.002410928 360 70
-0.28812742 -0.14517336 0.59782279 0.002180316 377 74
-0.28377828 -0.14449868 0.5958429 0.002008155 397 78
-0.28129238 -0.14476842 0.59784657 0.0021101274 404 80
-0.27790603 -0.14457558 0.59802508 0.002060181 408 81
-0.27491787 -0.14458796 0.5991289 0.0018856445 442 89
-0.27189806 -0.14458376 0.60023439 0.0018685797 453 92
-0.26690513 -0.14351851 0.59698826 0.001991597 483 99
-0.2639015 -0.14351089 0.59818661 0.0017364443 498 102
-0.25966752 -0.14282639 0.59660316 0.0018071609 486 99
-0.25589454 -0.14238252 0.59605223 0.0016258692 563 118
-0.25211126 -0.14192243 0.59545481 0.001613233 560 117
-0.24775329 -0.14112407 0.59344876 0.0015955613 575 120
nan nan nan 0 700 150
-0.19165005 -0.11182048 0.47238299 0.0010565369 1149 255
-0.19159482 -0.11316366 0.47915637 0.0010869413 1084 241
-0.20126539 -0.12035631 0.51077843 0.0013624391 812 176
-0.20505111 -0.12416691 0.52814776 0.0013591349 747 161
-0.20624508 -0.12648541 0.53921902 0.0015225594 727 156
-0.20397101 -0.12670952 0.5413723 0.001376531 728 157
-0.20204856 -0.1271608 0.54448557 0.0014423232 742 160
-0.20137431 -0.12842005 0.55105501 0.0013796567 731 157
-0.1998824 -0.12918478 0.55549866 0.0013700408 738 159
-0.19919819 -0.13049953 0.56230205 0.0014492966 744 160
-0.19795083 -0.1314766 0.56764472 0.0013696031 738 159
-0.19542722 -0.13162154 0.56937712 0.0013504137 758 164
-0.1930922 -0.13189943 0.57165986 0.0014195746 773 167
-0.19124153 -0.13252097 0.57541013 0.001312845 791 171
-0.18933813 -0.13312365 0.57905817 0.0013438879 821 179
-0.18677071 -0.13327041 0.58069861 0.0012919712 863 189
-0.18424609 -0.13345259 0.58246523 0.0012574771 880 193
-0.18164085 -0.13358112 0.583969 0.0012091472 1018 225
-0.17782582 -0.13281006 0.581505 0.0010798322 1188 255
-0.17537208 -0.13304739 0.58342224 0.0010627336 1209 255
-0.17292462 -0.13329722 0.58536702 0.0010436473 1210 255
-0.17036031 -0.13346361 0.58691812 0.0010250912 1205 255
-0.16621338 -0.13237512 0.58291566 0.0010738231 1182 255
-0.15897374 -0.12874529 0.56766629 0.0010543248 1150 255
-0.15357687 -0.12650883 0.55849999 0.0011065337 1111 247
-0.15476176 -0.12971066 0.57331997 0.0011771419 1020 226
-0.15198082 -0.12964335 0.57368022 0.0011124122 1067 237
-0.15035589 -0.13057753 0.57845014 0.0011120063 1069 237
-0.14859228 -0.13142349 0.58281189 0.0010872709 1076 239
-0.14607662 -0.13162355 0.5842889 0.0010739258 1105 246
-0.14358383 -0.13185227 0.58587015 0.0010209463 1213 255
-0.14037214 -0.13141689 0.58447552 0.0010292396 1291 255
-0.13754299 -0.13132943 0.58460289 0.0010019124 1282 255
-0.13507755 -0.13159277 0.58626962 0.001035988 1271 255
-0.13263755 -0.13189229 0.58807749 0.0010877417 1173 255
-0.12999542 -0.13199924 0.58900672 0.0010766916 1105 246
-0.1270742 -0.13182132 0.58864355 0.0010806595 1099 244
-0.12351855 -0.13096285 0.58521807 0.0011566139 1082 240
-0.12138759 -0.13161027 0.58850157 0.0012137755 987 218
-0.11766461 -0.13052164 0.58400214 0.001111301 1045 232
-0.11415459 -0.12962334 0.58033079 0.0011485524 1070 237
-0.11085402 -0.12892511 0.57753354 0.0010770032 1098 244
-0.10787642 -0.12857713 0.57628602 0.0011348083 1097 244
-0.10539216 -0.12881441 0.57764548 0.0011130249 1041 231
-0.10274237 -0.12885651 0.57811469 0.0011353883 1042 231
-0.1000452 -0.12883984 0.57830542 0.0010840702 1095 243
-0.09739279 -0.12888148 0.57874376 0.001096352 1112 247
-0.094891272 -0.12913083 0.58010131 0.0010719668 1117 249
-0.092290483 -0.12925568 0.58088732 0.0010736531 1147 255
-0.089486055 -0.12909424 0.58037382 0.0010706949 1159 255
-0.086998537 -0.12939419 0.58192253 0.0011109154 1090 242
-0.084544092 -0.12976407 0.5837751 0.0010850282 1097 244
-0.081883974 -0.12983225 0.58425975 0.0010665498 1123 250
-0.079244427 -0.12993884 0.58490682 0.0011175511 1104 246
-0.076532967 -0.1299309 0.58502799 0.0010409587 1176 255
-0.073776878 -0.12984382 0.58478302 0.0010347831 1194 255
-0.071156859 -0.1299987 0.58561838 0.0010825965 1166 255
-0.068526007 -0.13014524 0.58640766 0.0010614363 1204 255
-0.065870769 -0.13025565 0.58702594 0.0010431828 1162 255
-0.063227832 -0.1304009 0.58779311 0.0010898337 1149 255
-0.060558867 -0.1305031 0.58835882 0.0010877912 1177 255
-0.057866074 -0.13056119 0.58871835 0.0010717113 1175 255
-0.055139441 -0.13054484 0.58873522 0.0010255652 1201 255
-0.052377127 -0.13043796 0.58833712 0.0010326621 1191 255
-0.049654227 -0.13042289 0.58834672 0.0010603145 1128 251
-0.046914194 -0.1303585 0.58812773 0.0010936331 1074 238
-0.044160888 -0.13024703 0.58769059 0.0011871237 991 219
-0.041256845 -0.12964727 0.58504456 0.0011468026 988 218
-0.038397457 -0.12911369 0.58269149 0.0011574284 974 215
-0.035259202 -0.12749135 0.57541907 0.0011382778 999 221
-0.032671731 -0.1277585 0.57666969 0.0012056315 978 216
-0.030390479 -0.12937661 0.58401453 0.001152596 1019 225
-0.027515514 -0.12853621 0.58025742 0.0011481033 1060 235
-0.024877358 -0.12874009 0.58121037 0.0011094625 1055 234
-0.022193607 -0.12872878 0.5811882 0.0011142493 1060 235
-0.019472701 -0.12846921 0.58004147 0.0011083856 1061 235
-0.016797079 -0.12847331 0.58008164 0.0010996055 1062 236
-0.014137475 -0.12862468 0.58078319 0.00111345 1032 228
-0.011473024 -0.12879245 0.58155578 0.0011538275 1027 227
-0.0087662414 -0.12844238 0.57998669 0.001102214 1063 236
-0.0060883695 -0.12839444 0.57977879 0.0012001633 1035 229
-0.0034231101 -0.12874569 0.58137035 0.001183591 986 218
-0.0007448846 -0.12938681 0.58426785 0.0011991874 1002 221
0.0019451237 -0.12903766 0.58269048 0.0011248784 1028 228
0.0046317782 -0.12900023 0.58251762 0.0011162736 1038 230
0.0073583852 -0.12969446 0.58564574 0.001139131 997 220
0.010114199 -0.13039234 0.5887869 0.0011423158 997 220
0.012853888 -0.13063088 0.58985078 0.0011968322 978 216
0.015619863 -0.13100654 0.59153026 0.0012264019 938 206
0.018027091 -0.12870908 0.58113682 0.0012032512 916 201
0.020545898 -0.12770002 0.57655782 0.0012858098 880 193
0.023325145 -0.1283555 0.57949054 0.0012905567 874 191
0.026315795 -0.12991983 0.58652228 0.0013149538 863 189
0.029333491 -0.13131347 0.5927788 0.0013004823 837 182
0.032043282 -0.13120858 0.59226602 0.0012925782 823 179
0.034475315 -0.13007224 0.58709347 0.0011496119 988 218
0.037279643 -0.13040377 0.5885421 0.0012120056 965 213
0.039961323 -0.13029036 0.58797777 0.001190688 954 210
0.042575266 -0.12998462 0.58654064 0.0011668841 953 210
0.045200892 -0.12974896 0.58541471 0.0011730299 952 210
0.04785784 -0.12962471 0.58478618 0.0011776658 936 206
0.050529242 -0.12955081 0.58437908 0.0012306556 950 209
0.053256143 -0.12961948 0.58460891 0.001223752 946 208
0.055930145 -0.12955898 0.58424985 0.0012085424 910 200
0.058623984 -0.12954788 0.5841068 0.0011824557 930 204
0.061422013 -0.12975788 0.58495337 0.001200746 914 201
0.064106748 -0.12972093 0.58467895 0.0012328146 935 206
0.06681139 -0.12972562 0.58458441 0.0012081305 904 198
0.069490492 -0.12968226 0.58426517 0.0012204675 895 196
0.072321884 -0.12991573 0.58518422 0.0012745472 828 180
0.075054556 -0.12996142 0.58524805 0.0012971598 804 175
0.077864379 -0.13013285 0.58586824 0.0013193665 774 167
0.080776103 -0.13045733 0.58716685 0.0014177944 727 156
0.083564453 -0.13056791 0.58749157 0.001395594 717 154
0.086665221 -0.13114432 0.58990031 0.0015157828 698 149
0.089636527 -0.13149554 0.59128332 0.0015117666 680 145
0.092395157 -0.13152319 0.59119868 0.0014163451 695 149
0.09502586 -0.13137241 0.59029937 0.0014129158 702 150
0.097929411 -0.1315967 0.59107214 0.0014112148 708 152
0.1007268 -0.13167 0.59115255 0.0014413079 684 146
0.1033043 -0.13145962 0.58994514 0.0014232036 701 150
0.10597078 -0.1313704 0.58926731 0.0014236388 698 149
0.1085493 -0.13117938 0.5881179 0.0015578159 674 144
0.11118277 -0.13106251 0.58728588 0.001462831 657 140
0.11400311 -0.13116623 0.58742547 0.0014579602 665 142
0.11680236 -0.13124143 0.58741963 0.0014943724 655 139
0.11957517 -0.13128415 0.58725041 0.0015155042 624 132
0.12219969 -0.13116577 0.58634222 0.001677143 600 126
0.12415288 -0.13034776 0.58229029 0.0017676484 552 115
0.12664236 -0.13011575 0.58083975 0.0018718503 521 108
0.12861493 -0.12937351 0.57709438 0.0018065238 526 109
0.13096711 -0.12903576 0.57513636 0.001657839 546 114
0.13156185 -0.12701489 0.56566352 0.0016272276 567 118
0.1328395 -0.12571999 0.55941463 0.0016293166 559 117
0.13376437 -0.12414777 0.55192083 0.0016566905 545 113
0.1322566 -0.12042023 0.53484476 0.001787791 556 116
nan nan nan 0 709 152
0.12191184 -0.1069445 0.47403616 0.0012309382 878 192
0.12368564 -0.1065534 0.47179529 0.0013450652 764 165
nan nan nan 0 173 25
0.16024342 -0.13326436 0.58871609 0.0026134902 320 60
0.16309786 -0.13332847 0.58828276 0.0016449294 548 114
0.16729525 -0.13446984 0.5925675 0.0016374806 555 116
0.1701341 -0.13449964 0.59191829 0.0015845838 586 123
0.17315164 -0.13466744 0.59184551 0.0015997948 592 124
0.17635539 -0.13497241 0.59234267 0.0015285076 616 130
0.17939089 -0.13514107 0.59220803 0.0015671226 590 124
0.18218565 -0.13512596 0.59123629 0.0015876323 609 128
0.18488386 -0.13504077 0.58992761 0.0015780956 629 133
0.18822248 -0.13541889 0.59060973 0.001477317 648 138
0.191521 -0.13575745 0.59108269 0.0015708932 630 133
0.19465724 -0.13597275 0.59098399 0.0015667313 662 141
0.19765358 -0.13608561 0.59040642 0.0014350987 677 145
0.20059732 -0.13615954 0.5896281 0.0014629904 659 140
0.203692 -0.13633244 0.58924675 0.001545352 645 137
0.20699507 -0.13663815 0.58940649 0.0015776162 656 140
0.21025743 -0.13690902 0.58938318 0.0014476383 670 143
0.21350048 -0.13716027 0.5892446 0.0015093463 677 145
0.217411 -0.13782804 0.59086245 0.0014282349 687 147
0.22055821 -0.13800077 0.59032804 0.001571749 677 145
0.22375149 -0.13819754 0.58987314 0.0014582229 664 141
0.22715367 -0.13851669 0.58991873 0.0015439347 658 140
0.23076449 -0.13895348 0.59044451 0.0014758178 646 137
0.23407941 -0.13920346 0.59016043 0.0015615213 602 127
0.23771957 -0.13963838 0.59064865 0.0015571786 590 124
0.24099322 -0.13985007 0.5901863 0.0016130076 599 126
0.24378641 -0.13978125 0.58854443 0.0015958364 594 125
0.24725115 -0.14009455 0.58852065 0.0017693251 565 118
0.25059086 -0.14033052 0.58818507 0.0016241864 557 116
0.25403509 -0.14061892 0.58808959 0.0016728898 550 114
0.25736043 -0.14083566 0.5877226 0.0017115588 553 115
0.26055235 -0.14097534 0.58707148 0.001752583 540 112
0.26444733 -0.14148808 0.58801663 0.001819605 527 109
0.26796356 -0.14178908 0.58813179 0.0017336507 504 104
0.27137262 -0.14202745 0.5880475 0.0018254858 509 105
0.2750068 -0.14237723 0.58849251 0.001862222 495 101
0.27816468 -0.14247556 0.58797479 0.0018150791 474 96
0.28113419 -0.14247635 0.58714032 0.0019254495 428 86
0.28500324 -0.14292826 0.58825487 0.002467362 298 55
0.29778653 -0.14779508 0.60761374 0.0035076856 186 28
0.303826 -0.14924949 0.61302179 0.0038160533 166 24
0.30884054 -0.15017605 0.61636382 0.002990342 227 38
0.31353331 -0.15092914 0.61910343 0.0019643938 433 87
0.31660548 -0.15089488 0.61872816 0.001544026 633 134
0.31927553 -0.15067154 0.61769503 0.0014681945 677 145
0.32182011 -0.15039392 0.6165567 0.0012796648 884 193
0.32341763 -0.14968336 0.61375904 0.00099281745 1278 255
0.32528207 -0.14910868 0.61163145 0.00086654775 1635 255
-0.35194722 -0.13987002 0.59763765 0.0039835302 158 22
-0.35205987 -0.14110781 0.60153466 0.0041189711 171 25
-0.34909886 -0.14112438 0.60028124 0.0045011896 158 22
-0.34591934 -0.14105213 0.5987221 0.0037586815 171 25
-0.34406346 -0.14152306 0.59954017 0.0033474644 196 31
-0.34212211 -0.14196685 0.6003148 0.0032243947 209 34
-0.33980432 -0.14226092 0.60053343 0.0032275706 207 33
-0.33682939 -0.14228271 0.59968704 0.0036290013 200 32
-0.3344129 -0.14254293 0.5999341 0.003078941 220 36
-0.33159909 -0.14263698 0.59957391 0.0030103452 225 38
-0.32836178 -0.14254895 0.59854609 0.003026654 238 41
-0.32524961 -0.14251409 0.59784323 0.0031208219 253 44
-0.32293972 -0.14283343 0.59872967 0.0029841526 247 43
-0.32092017 -0.14328846 0.60029018 0.0030935016 259 46
-0.31797248 -0.14333384 0.60024375 0.0026174912 274 49
-0.31428814 -0.14304481 0.59890968 0.0028457206 290 53
-0.31105003 -0.14295523 0.59852463 0.0024566797 303 56
-0.30723214 -0.14259478 0.59711975 0.0024108002 305 57
-0.3042613 -0.14262421 0.59746158 0.0023482523 321 60
-0.30208069 -0.14302838 0.59948778 0.0026550971 316 59
-0.29954454 -0.1432707 0.60094965 0.0022233722 342 65
-0.29604709 -0.14305352 0.60059363 0.002302791 353 68
-0.29080796 -0.14198148 0.59674901 0.0020444295 393 77
-0.28745744 -0.14181867 0.59682089 0.0020601708 385 75
-0.28438812 -0.14179264 0.59756273 0.0020069631 408 81
-0.28061724 -0.14141251 0.59689885 0.0021039974 404 80
-0.27768716 -0.14145243 0.59808785 0.0019414859 433 87
-0.27454111 -0.14138199 0.59888488 0.0020095815 436 87
-0.27043128 -0.14080818 0.59761107 0.0018800534 436 87
-0.26660848 -0.14037266 0.59697437 0.0018654767 447 90
-0.26333863 -0.14022169 0.59759271 0.0018342992 493 101
-0.26017693 -0.1401255 0.59848452 0.0017032583 521 108
-0.25526816 -0.13907525 0.59532452 0.0016771001 530 110
-0.25177377 -0.13878 0.59540957 0.0016182226 557 116
-0.24620695 -0.13732184 0.59050709 0.0017066631 567 118
nan nan nan 0 850 185
-0.19122916 -0.10925068 0.47197345 0.0010478731 1230 255
-0.19237785 -0.11125919 0.48176143 0.0010839575 1090 242
-0.20468353 -0.11985062 0.52015531 0.00133097 773 167
-0.20568752 -0.12195774 0.53050488 0.0014033646 738 159
-0.20615588 -0.12379701 0.53971583 0.0014124027 723 155
-0.20375958 -0.12394141 0.54154146 0.0013661574 746 161
-0.20339465 -0.12534143 0.5488494 0.0013664219 740 159
