# .PCD v0.7 - Point Cloud Data file format
VERSION 0.7
FIELDS x y z noise intensity gray
SIZE 4 4 4 4 2 1
TYPE F F F F U U
COUNT 1 1 1 1 1 1
WIDTH 956
HEIGHT 1
VIEWPOINT 0 0 0 1 0 0 0
POINTS 956
DATA ascii
-0.28572267 -0.22181559 0.86801594 0.0030300189 243 110
-0.28090957 -0.22132055 0.86766326 0.003026502 241 109
-0.27665132 -0.22125432 0.86894631 0.0031168084 238 108
-0.27219498 -0.22102523 0.8695454 0.0032941594 228 103
-0.26739275 -0.22050378 0.86894649 0.0031868943 231 105
-0.2627483 -0.22009802 0.86875439 0.003012653 236 107
-0.25855014 -0.22005908 0.86996412 0.0033740983 230 104
-0.25432903 -0.21999896 0.87104619 0.0032524553 222 100
-0.24870351 -0.21870191 0.86718023 0.0037418662 223 101
-0.24425945 -0.21841756 0.86727828 0.0031862266 228 103
-0.24001823 -0.21830791 0.86802596 0.0036931378 231 105
-0.23481365 -0.21730295 0.86516631 0.0038744563 229 104
-0.2303925 -0.21700016 0.86505502 0.003667501 229 104
-0.22640149 -0.21709886 0.86650342 0.0032687078 225 102
-0.22234672 -0.21713892 0.86767912 0.0031864301 228 103
-0.21793006 -0.21682048 0.86738253 0.0031986164 221 100
-0.21356951 -0.21654671 0.86722457 0.0031263691 233 105
-0.20960164 -0.21666819 0.86861217 0.0030560368 239 108
-0.20528318 -0.2164249 0.86850095 0.003083979 230 104
-0.2012613 -0.21649076 0.86959475 0.0034457 232 105
-0.19585226 -0.2150363 0.86454266 0.0030461999 241 109
-0.19153558 -0.21474501 0.86412776 0.0030356159 235 106
-0.18726838 -0.21449785 0.86385638 0.0034875439 239 108
-0.18322544 -0.21450232 0.86456674 0.0031053519 229 104
-0.17901944 -0.21431173 0.86446011 0.0031776216 228 103
-0.17448413 -0.21370903 0.86265945 0.0031626509 227 103
-0.16984931 -0.21295305 0.86020797 0.0033028752 230 104
-0.16621466 -0.21344481 0.86276841 0.0031146414 231 105
-0.16182446 -0.21296665 0.86138189 0.0032824236 236 107
-0.15765493 -0.21276195 0.86107445 0.0031207162 230 104
-0.15374897 -0.21291158 0.86217594 0.003759108 235 106
-0.14930005 -0.21229711 0.86015844 0.003816016 238 108
-0.14512512 -0.21204917 0.8596009 0.0032299522 230 104
-0.14052971 -0.21115533 0.85640073 0.0038368453 222 100
-0.13653541 -0.21113889 0.85673583 0.0031713189 227 103
-0.13209556 -0.2104118 0.85416561 0.0038547369 228 103
-0.12742791 -0.2092655 0.84987062 0.0034604338 238 108
-0.12456086 -0.21109746 0.8576529 0.0038666299 177 80
-0.12041808 -0.21081702 0.85683715 0.0038915796 170 77
-0.11650773 -0.21093825 0.85763609 0.0031411075 229 104
-0.11249117 -0.21086892 0.85764343 0.003046518 237 107
-0.10730528 -0.20852222 0.84836888 0.0035098731 242 110
-0.10353125 -0.2088449 0.84993643 0.0030566205 235 106
-0.099809006 -0.20930173 0.85203618 0.0033563671 247 112
-0.095561258 -0.20864883 0.84960371 0.0035466196 241 109
-0.091398045 -0.2081323 0.84771174 0.003501731 241 109
-0.087427899 -0.20802876 0.84748805 0.0030810435 253 115
-0.083465375 -0.20793454 0.84728956 0.0029518695 248 112
-0.079351701 -0.20743585 0.84543049 0.0029874104 244 110
-0.075198799 -0.2067776 0.84290868 0.0031514647 250 113
-0.071374923 -0.20700152 0.84397161 0.0033417533 256 116
-0.067454807 -0.20695612 0.84392589 0.0027419578 274 124
-0.062892117 -0.20481251 0.83531255 0.0027456798 278 126
-0.05890191 -0.20437466 0.83364487 0.0028279584 264 120
nan nan nan 0 266 120
nan nan nan 0 259 117
nan nan nan 0 275 125
-0.042954039 -0.20190753 0.82395941 0.0026571001 293 133
nan nan nan 0 287 130
nan nan nan 0 292 132
nan nan nan 0 304 138
nan nan nan 0 315 143
nan nan nan 0 316 143
nan nan nan 0 319 145
nan nan nan 0 328 149
nan nan nan 0 357 162
nan nan nan 0 358 162
nan nan nan 0 372 169
nan nan nan 0 391 177
nan nan nan 0 399 181
0.0060594385 -0.18633968 0.76081085 0.0022417537 447 203
0.0095580807 -0.18601154 0.75945789 0.0020300483 453 205
0.013034482 -0.18554305 0.75752604 0.0019508536 448 203
0.016458385 -0.1846838 0.75399292 0.0018636347 478 217
0.019884925 -0.18414922 0.75177938 0.0020545311 480 218
0.023342382 -0.18401742 0.75120407 0.001835666 496 225
0.026766876 -0.18369351 0.74983841 0.0017814433 513 233
0.030182861 -0.18339214 0.7485584 0.0017665119 516 234
0.033550728 -0.18289047 0.74645436 0.0017853935 511 232
0.03699382 -0.18285421 0.74624324 0.0017100298 534 242
0.040668275 -0.18387017 0.75031877 0.0017349881 518 235
0.044203918 -0.18414816 0.7513752 0.0018438149 515 234
0.04751087 -0.18350236 0.74865484 0.0017903178 500 227
0.050788961 -0.18284035 0.74586117 0.0018993147 499 226
nan nan nan 0 474 215
nan nan nan 0 462 210
nan nan nan 0 462 210
nan nan nan 0 505 229
nan nan nan 0 496 225
nan nan nan 0 487 221
nan nan nan 0 482 219
nan nan nan 0 479 217
nan nan nan 0 488 221
nan nan nan 0 495 225
nan nan nan 0 493 224
nan nan nan 0 425 193
nan nan nan 0 241 109
nan nan nan 0 175 79
0.11870297 -0.2116788 0.86051172 0.0036125358 197 89
0.123271 -0.21266995 0.86422426 0.0041157007 200 90
0.12764144 -0.21326838 0.86632055 0.0033697882 209 95
0.13207093 -0.21392594 0.86863613 0.0033964459 207 94
0.13620582 -0.21408147 0.86889219 0.0035631368 205 93
0.14017695 -0.21397804 0.86807668 0.0034328934 204 92
0.14433078 -0.21415146 0.86836302 0.0038478554 201 91
0.148709 -0.21463934 0.86990136 0.0034510009 202 91
0.15281816 -0.21472329 0.86977851 0.0041084965 206 93
0.15713312 -0.21508463 0.87075466 0.003310174 212 96
0.16047405 -0.21412805 0.86637217 0.0033462381 211 95
0.16460051 -0.21424092 0.86629349 0.0033372322 213 96
0.1691336 -0.21486494 0.86825359 0.0037117014 187 85
0.1734639 -0.21520813 0.86904931 0.0046466794 138 62
0.1775157 -0.21519801 0.86838955 0.0039440012 185 84
0.18158242 -0.21520606 0.86777407 0.0040149265 217 98
0.18593064 -0.21554005 0.868442 0.0033901578 206 93
0.19014871 -0.2157121 0.86842531 0.0034083647 208 94
0.19435726 -0.21586639 0.86830419 0.0035077764 195 88
0.19834119 -0.21576998 0.8671419 0.003388488 212 96
0.20244919 -0.2158097 0.86649352 0.0034224845 205 93
0.2067035 -0.21600074 0.86641741 0.0033046559 213 96
0.21117094 -0.2164028 0.86715013 0.0038530051 212 96
0.21556289 -0.21671373 0.86747855 0.0033564954 208 94
0.21974994 -0.21681091 0.86691254 0.003399631 211 95
0.22496034 -0.21789576 0.87025219 0.0035800573 214 97
0.22934511 -0.21815632 0.87025476 0.0032931075 215 97
0.23313478 -0.21785161 0.86796278 0.0034476691 220 100
0.23749276 -0.2180793 0.86775231 0.003354935 213 96
0.24168338 -0.21814817 0.86686713 0.0033009108 215 97
0.24561979 -0.21798916 0.86503536 0.0033482704 211 95
0.25065076 -0.2187908 0.86697 0.0032419511 215 97
0.25554439 -0.21944852 0.86828327 0.0032832895 219 99
0.26021126 -0.21989363 0.86870599 0.0032668333 217 98
0.26414302 -0.21971329 0.86661297 0.0034482265 224 101
0.2681134 -0.21957019 0.86462587 0.0032245915 221 100
0.27335694 -0.22045822 0.86665136 0.0031373645 228 103
0.27844208 -0.22119381 0.86802411 0.0031795006 225 102
0.28302026 -0.22151084 0.86770517 0.0031264683 230 104
0.28788769 -0.22204182 0.86817694 0.0031784519 226 102
0.29306164 -0.22279054 0.86945111 0.0035652365 221 100
0.29778767 -0.22318237 0.86928535 0.0032089658 225 102
0.30221626 -0.22334349 0.86818051 0.0038143592 231 105
0.30630919 -0.22325553 0.86607301 0.0030606468 237 107
0.31113091 -0.22369394 0.86597347 0.0030827855 236 107
0.31679314 -0.2247168 0.86809742 0.0031912185 223 101
0.32153624 -0.22506931 0.86759669 0.003283812 216 98
0.32646212 -0.22553883 0.86752135 0.0037953798 218 99
0.33216935 -0.2265292 0.86942351 0.003337499 212 96
0.33750886 -0.22724682 0.87025678 0.0034858135 198 90
0.34206307 -0.22742428 0.86901319 0.0033207906 208 94
0.34650347 -0.22752266 0.86747152 0.0033557236 212 96
0.35171023 -0.22811566 0.86782491 0.0034615316 202 91
0.356859 -0.22865713 0.86799651 0.0035103583 202 91
0.36178705 -0.22904602 0.86761439 0.0035837796 193 87
0.36660394 -0.22935608 0.86697161 0.0043993983 190 86
0.37195206 -0.22998746 0.86758941 0.003621784 188 85
0.3768115 -0.23030558 0.86708301 0.0037532884 179 81
0.38219526 -0.23093322 0.86781079 0.0038271889 178 80
0.38721442 -0.23132895 0.86774611 0.0039535449 167 75
0.39192426 -0.23153311 0.86705625 0.0039892513 167 75
0.3976374 -0.23231889 0.86864567 0.0046946798 156 70
0.40097392 -0.23171419 0.86515218 0.0044893264 152 69
0.40422311 -0.2310726 0.86165237 0.0045553776 143 65
0.4087182 -0.23114929 0.86096662 0.0045189578 146 66
0.4156726 -0.23260058 0.86553472 0.0048296531 133 60
0.42078146 -0.23299959 0.86632657 0.0059513948 126 57
0.42610735 -0.23350929 0.86767769 0.0050703255 127 57
0.42983919 -0.23314396 0.86593068 0.0053834929 116 52
0.43423641 -0.23314323 0.86569369 0.0056455946 113 51
0.43945539 -0.23357937 0.86723489 0.0059331153 103 46
0.44337687 -0.23332399 0.86636442 0.0058669513 106 48
0.44804913 -0.23346485 0.86712027 0.0079373419 100 45
0.45251235 -0.23349513 0.86761826 0.0075704921 100 45
0.45580268 -0.23292544 0.86603582 0.0062608835 92 41
0.45729446 -0.23145628 0.86124974 0.0068209744 93 42
-0.51268381 -0.2254227 0.87504268 0.0094178449 62 28
-0.50364822 -0.22333811 0.86481154 0.012540261 58 26
-0.50359702 -0.22523595 0.87008739 0.010822299 60 27
-0.50251973 -0.22670382 0.87376165 0.013406514 58 26
-0.5006538 -0.22783852 0.87622458 0.0089472141 66 30
-0.49394313 -0.22676902 0.87030995 0.0086945575 64 29
-0.48993179 -0.22693072 0.86923265 0.0086673712 66 30
-0.48546532 -0.22688267 0.86746043 0.0074101542 73 33
-0.48333082 -0.22793345 0.86999744 0.0088755647 77 35
-0.48109341 -0.22895451 0.8725279 0.0096872356 78 35
-0.47652209 -0.22887345 0.87097806 0.0070382785 84 38
-0.47231942 -0.22896957 0.8702327 0.0079288865 88 40
-0.46792242 -0.22897243 0.86926728 0.0067083063 92 41
-0.46270368 -0.22856942 0.86690211 0.0070343115 99 45
-0.45964053 -0.2292337 0.8687281 0.0064343493 93 42
-0.45642358 -0.22983342 0.87045389 0.0065386384 96 43
-0.45317355 -0.23042801 0.87230974 0.0059865182 101 45
-0.4483636 -0.2302334 0.87133247 0.0072888914 108 49
-0.44351697 -0.23001578 0.87042552 0.0056665936 112 50
-0.43788189 -0.22938082 0.86809754 0.0058673341 104 47
-0.43413889 -0.2297342 0.86966848 0.0059195892 120 54
-0.43015379 -0.22996537 0.87093502 0.0072552762 98 44
-0.42538011 -0.22977541 0.87076283 0.0067137275 92 41
-0.42077538 -0.22967365 0.87107706 0.0049204808 127 57
-0.41625801 -0.22961792 0.87171376 0.0051747654 136 61
-0.41069812 -0.22897978 0.87027943 0.004674722 142 64
-0.40592805 -0.22877292 0.87061632 0.0061675864 137 62
-0.40112326 -0.22854173 0.87098593 0.0052913525 149 67
-0.39599055 -0.22811656 0.87073171 0.0046561309 159 72
-0.39076045 -0.22762512 0.87032753 0.0041111233 164 74
-0.38541338 -0.2270536 0.86970878 0.0044364315 162 73
-0.38093841 -0.22698866 0.87111348 0.0039042761 171 77
-0.37614241 -0.22672871 0.87184411 0.0037857911 181 82
-0.37075165 -0.22609994 0.87121487 0.0038376637 186 84
-0.36552921 -0.22556013 0.87097335 0.0035587058 195 88
-0.36145175 -0.22572234 0.87348354 0.0035557251 197 89
-0.35636064 -0.22524785 0.87356043 0.0043713711 185 84
-0.35056043 -0.22430792 0.87184399 0.0034762588 200 90
-0.3446452 -0.2232701 0.86974448 0.0033560649 211 95
-0.33935297 -0.22261479 0.86912662 0.0040044342 203 92
-0.33330566 -0.221441 0.86646765 0.0032962325 216 98
-0.32879734 -0.22127259 0.86772287 0.0031586732 222 100
-0.32367671 -0.22068231 0.86730301 0.0031611056 228 103
-0.31905642 -0.22042197 0.86815292 0.0035563994 231 105
-0.31453919 -0.22022679 0.86923146 0.0035305195 235 106
-0.3091847 -0.21943206 0.86790729 0.0030516228 244 110
-0.30356482 -0.21842439 0.8656944 0.0037023094 244 110
-0.29960552 -0.21860008 0.86813021 0.0030233972 236 107
-0.29523826 -0.21847884 0.86935031 0.0034298326 234 106
-0.28982857 -0.21757154 0.867396 0.0029796434 242 110
-0.28423336 -0.21649644 0.86471689 0.0030316899 238 108
-0.27992603 -0.21638481 0.86583602 0.0033606389 244 110
-0.27577409 -0.21639182 0.86738658 0.0030967449 231 105
-0.27161536 -0.2163936 0.868873 0.0031170249 230 104
-0.26705 -0.21606643 0.86899304 0.0031115797 233 105
-0.26221508 -0.21550737 0.86813086 0.0030701766 240 109
-0.25816807 -0.21558836 0.86980021 0.0031634234 227 103
-0.25390342 -0.21548724 0.87069124 0.0036640847 226 102
-0.24826536 -0.21419786 0.86672962 0.0030973335 234 106
-0.24385521 -0.21394223 0.86689961 0.0031969973 223 101
-0.23935942 -0.21360141 0.86667883 0.0031119124 230 104
-0.23457749 -0.2129889 0.8653093 0.0034231946 226 102
-0.22995904 -0.21250567 0.86441863 0.0033607003 241 109
-0.22566347 -0.2123087 0.86464942 0.0035376311 226 102
-0.22156873 -0.21229695 0.86559445 0.0030680881 234 106
-0.21731512 -0.21212967 0.86586601 0.0033653683 228 103
-0.21296008 -0.21185505 0.86566037 0.0032500734 238 108
-0.2087532 -0.21172 0.8659867 0.0031373769 239 108
-0.20456921 -0.2116033 0.86635143 0.003102117 231 105
-0.1997461 -0.21080729 0.86389714 0.0031116849 235 106
-0.19501659 -0.21007919 0.86168134 0.0030062783 242 110
-0.19058669 -0.20964982 0.86065441 0.0030106877 244 110
-0.18687055 -0.21000405 0.86281228 0.0035997736 238 108
-0.18190458 -0.20893833 0.85910338 0.0031279479 227 103
-0.17799638 -0.2090669 0.86027217 0.0038873777 222 100
-0.173847 -0.20891155 0.86024404 0.0033471186 233 105
-0.16908711 -0.20799787 0.85706228 0.0030282217 239 108
-0.16506089 -0.20796429 0.85747749 0.0029774299 248 112
-0.16035567 -0.20705231 0.85424262 0.00302482 239 108
-0.15568125 -0.20613465 0.85095465 0.0034928457 243 110
-0.15155716 -0.20591682 0.85052872 0.0036650323 243 110
-0.14756337 -0.20586902 0.8507815 0.0030012466 246 111
-0.14391999 -0.20632097 0.85307771 0.0033792388 258 117
-0.13984576 -0.20616338 0.85283285 0.0030497864 244 110
-0.13564257 -0.20580092 0.8517186 0.0030271569 241 109
-0.13068072 -0.20423099 0.84558368 0.0029090361 250 113
-0.12680162 -0.20430841 0.84624749 0.0029518236 246 111
nan nan nan 0 191 86
nan nan nan 0 195 88
nan nan nan 0 243 110
nan nan nan 0 261 118
-0.10536366 -0.20088634 0.83350289 0.0028679143 272 123
nan nan nan 0 291 132
nan nan nan 0 285 129
nan nan nan 0 291 132
nan nan nan 0 293 133
nan nan nan 0 316 143
nan nan nan 0 311 141
nan nan nan 0 318 144
nan nan nan 0 330 150
nan nan nan 0 372 169
nan nan nan 0 396 180
nan nan nan 0 404 183
nan nan nan 0 422 191
-0.049586378 -0.18063034 0.75139266 0.0019322232 455 206
-0.046043213 -0.18035676 0.75033909 0.001945693 464 210
-0.04252778 -0.18015607 0.74958128 0.0019632203 513 233
-0.039019927 -0.17995474 0.74881363 0.0017582224 521 236
-0.035540942 -0.17986032 0.74848384 0.0017279499 539 245
-0.032096371 -0.17993848 0.7488656 0.0017862488 553 251
-0.028643178 -0.17998135 0.74909431 0.0018959979 550 250
-0.024989564 -0.17860356 0.74340343 0.0017914001 558 253
-0.021514853 -0.17826912 0.74204898 0.0017155068 587 255
-0.018085109 -0.17825107 0.74200565 0.0016275656 574 255
nan nan nan 0 548 249
nan nan nan 0 557 253
-0.0078374473 -0.17905165 0.74540013 0.0016283186 566 255
nan nan nan 0 571 255
nan nan nan 0 580 255
nan nan nan 0 569 255
0.0059283553 -0.17886917 0.74464643 0.001737396 566 255
0.0093767038 -0.179039 0.74534148 0.0016727407 544 247
0.012850302 -0.17947029 0.74711925 0.0016536964 548 249
0.016292816 -0.17937671 0.74670655 0.0016850574 533 242
0.019751282 -0.17946081 0.74702775 0.0017033005 519 235
0.023313461 -0.18032205 0.75057817 0.0018283786 527 239
0.026775634 -0.18028691 0.75039113 0.0018277838 498 226
0.030309832 -0.1806892 0.75201857 0.0017915356 489 222
0.033918116 -0.18140498 0.75494415 0.0018565514 461 209
0.037483558 -0.18177949 0.75644279 0.0019778169 452 205
0.040948305 -0.18164346 0.75580978 0.0020316055 446 202
0.044603519 -0.1823073 0.75849807 0.0019279226 434 197
0.048274338 -0.18293352 0.76102191 0.00228644 430 195
0.051993299 -0.18364471 0.76389086 0.0019710164 423 192
nan nan nan 0 381 173
nan nan nan 0 372 169
0.063326165 -0.18581317 0.77258939 0.0020909035 385 175
nan nan nan 0 409 185
nan nan nan 0 393 178
nan nan nan 0 386 175
0.077329822 -0.18512309 0.76916409 0.0021445614 377 171
0.080906749 -0.1851625 0.76916313 0.0022599362 387 175
nan nan nan 0 387 175
nan nan nan 0 379 172
0.091795892 -0.1855825 0.77034229 0.0021260686 376 170
0.095767826 -0.1863675 0.77338648 0.0023325311 342 155
0.096928589 -0.18182257 0.75430387 0.0024391084 318 144
nan nan nan 0 229 104
nan nan nan 0 172 78
0.12271123 -0.20771019 0.8608427 0.003485763 198 90
0.12713885 -0.20842096 0.8634671 0.0034413091 217 98
0.13165599 -0.20923056 0.86648029 0.0034557197 214 97
0.13599679 -0.20972024 0.86814702 0.0037390578 207 94
0.14009184 -0.20981364 0.8681525 0.0033534328 210 95
0.14405163 -0.20970492 0.86730075 0.0032391441 218 99
0.14836809 -0.21010721 0.86854029 0.0033981139 206 93
0.15291409 -0.2108046 0.87097496 0.0036048891 202 91
0.1564815 -0.21015172 0.86780769 0.0033252561 212 96
0.16046394 -0.21007507 0.86699724 0.0035800161 205 93
0.1645034 -0.21007504 0.86647826 0.0033156457 207 94
0.16908802 -0.21075445 0.86873424 0.004312491 184 83
0.17316507 -0.21078426 0.86828411 0.0046906006 137 62
0.17659794 -0.21004649 0.86464608 0.0038321693 175 79
0.18134592 -0.21087095 0.86741042 0.0039785076 207 94
0.18567474 -0.21118261 0.86803234 0.0036414936 213 96
0.18985316 -0.21131349 0.86787951 0.00336341 208 94
0.19380078 -0.21118742 0.86663991 0.0038001309 200 90
0.19807738 -0.21141765 0.86682963 0.0034330802 208 94
0.20197542 -0.21124271 0.86532503 0.003325914 212 96
0.20660396 -0.2118236 0.86688083 0.0040525664 206 93
0.21100779 -0.2121561 0.86738127 0.0042400444 211 95
0.21517125 -0.21223888 0.86682308 0.0036313606 206 93
0.21935479 -0.21233803 0.86629426 0.0036333869 206 93
0.2233793 -0.21228242 0.86509585 0.0037749705 217 98
0.22782597 -0.21262281 0.86547142 0.0036401646 212 96
0.2329551 -0.21357688 0.86829895 0.0034587323 214 97
0.23731524 -0.21380506 0.86812931 0.0039461851 218 99
0.24113153 -0.21354388 0.86593169 0.0038160554 215 97
0.24556172 -0.21382597 0.86589533 0.0033016384 217 98
0.25019097 -0.21426925 0.86646545 0.003625853 215 97
0.25519729 -0.21501592 0.86821246 0.0033248931 209 95
0.25951919 -0.21517126 0.86752325 0.0034110497 206 93
0.26341733 -0.21497595 0.86537695 0.0040481309 204 92
0.26780435 -0.21517946 0.86479247 0.003915281 212 96
0.27226749 -0.21543698 0.86437863 0.0037539846 216 98
0.27727228 -0.21610899 0.86557811 0.0033148795 220 100
0.28215036 -0.21666387 0.86625689 0.00385638 227 103
0.28773835 -0.21773972 0.86896491 0.0032235908 221 100
0.29275829 -0.21836106 0.86980516 0.0035091767 229 104
0.29694727 -0.21835384 0.86809707 0.0035859332 232 105
0.30119741 -0.21839111 0.8665275 0.0031118267 228 103
0.30612385 -0.21891102 0.86683255 0.0033454341 237 107
0.31078371 -0.21922876 0.86629701 0.0030648015 237 107
0.31541932 -0.21952114 0.86562598 0.0033943206 232 105
0.32099685 -0.22045268 0.8674385 0.0031344455 231 105
0.3263146 -0.22118385 0.8684265 0.0032762012 217 98
0.33137259 -0.22172236 0.86863017 0.0036558586 212 96
0.33692282 -0.2225724 0.87003064 0.0033289357 214 97
0.34150285 -0.22276822 0.86885953 0.0037899129 219 99
0.34633741 -0.22312322 0.8683064 0.0033184947 208 94
0.35145625 -0.2236504 0.86842561 0.003362959 210 95
0.35613582 -0.22388864 0.86743498 0.0034607593 198 90
0.36098385 -0.22422588 0.86685097 0.0038878748 193 87
0.36576274 -0.2245127 0.86610442 0.0036762713 188 85
0.3707678 -0.22493006 0.86590391 0.003678154 186 84
0.37573484 -0.22531497 0.86563087 0.004152867 187 85
0.38098991 -0.22586188 0.86604333 0.0037049658 183 83
0.38654798 -0.22657406 0.86716145 0.0038481744 173 78
0.39178476 -0.2270841 0.86758953 0.0045882096 159 72
0.39726654 -0.22772336 0.86860687 0.0048380285 158 71
0.39971587 -0.22662938 0.86312872 0.0042709252 154 70
0.40368995 -0.22641414 0.86112636 0.004993855 153 69
0.40931699 -0.22712071 0.86275816 0.0049040522 147 66
0.41503912 -0.22786452 0.864663 0.004738681 131 59
0.42195955 -0.22924384 0.86911589 0.0049535157 127 57
0.42595816 -0.22902367 0.86765093 0.0057330853 127 57
0.42969441 -0.22866838 0.86582953 0.0065301489 118 53
0.43416679 -0.22870807 0.86566043 0.0053363414 115 52
0.43843654 -0.22864129 0.86524588 0.0063978648 112 50
0.44262317 -0.22853296 0.86483186 0.0056558312 110 50
0.44741133 -0.2287342 0.86574638 0.0057288692 107 48
0.4526329 -0.229151 0.86763281 0.0070127882 99 45
0.45598021 -0.22862005 0.86608338 0.0060432469 99 45
0.4579933 -0.22743665 0.86220735 0.0061747041 100 45
-0.50847805 -0.2192744 0.86692017 0.010249017 53 24
-0.50603169 -0.22008017 0.86798477 0.0093009025 60 27
-0.50292844 -0.22061165 0.86804193 0.0087952148 62 28
-0.50269121 -0.22242044 0.87319654 0.0094101131 61 27
-0.49994221 -0.22313984 0.87415022 0.0091353152 65 29
-0.49627081 -0.22345659 0.87362128 0.0087728808 72 32
-0.4894025 -0.22232667 0.86755037 0.010927135 72 32
-0.4859812 -0.22275642 0.86768347 0.0085152546 78 35
-0.48307332 -0.22343144 0.86888218 0.007976328 78 35
-0.48005646 -0.22406797 0.87004644 0.0068281172 84 38
-0.4772481 -0.22481447 0.87175828 0.006854665 90 40
-0.47292647 -0.22485538 0.87086368 0.0068458514 87 39
-0.46765611 -0.22444177 0.86834878 0.0064945351 88 40
-0.46317488 -0.22440255 0.86742711 0.0063707572 99 45
-0.45908675 -0.22455494 0.86739296 0.0063305222 93 42
-0.45624912 -0.22532782 0.86990458 0.0059543597 103 46
-0.45266861 -0.22574534 0.87119687 0.005794541 101 45
-0.4475286 -0.22538574 0.86964744 0.005678569 110 50
-0.44255745 -0.22510481 0.86856139 0.0062229238 103 46
-0.43809444 -0.22507931 0.86862063 0.0056079701 113 51
-0.43388492 -0.22518487 0.86934549 0.0054352223 113 51
-0.42997247 -0.22544831 0.87083936 0.0066664317 91 41
-0.42493114 -0.22511923 0.87020022 0.0068460372 94 42
-0.42024219 -0.22497186 0.8704145 0.0055813617 138 62
-0.41516176 -0.22460954 0.86994243 0.0057785013 130 59
-0.41009116 -0.22424488 0.86959869 0.0045943172 143 65
-0.40517312 -0.22395658 0.86968088 0.0043538674 147 66
-0.40091869 -0.2240328 0.87130219 0.0051407041 144 65
-0.3958936 -0.22367537 0.87134975 0.0051036729 161 73
-0.39063123 -0.22317427 0.87093693 0.0043608383 169 76
-0.38468102 -0.22226441 0.86901259 0.0047271382 177 80
-0.37986618 -0.22199728 0.86967474 0.003828628 178 80
-0.37553394 -0.22200927 0.87149936 0.0037238328 183 83
-0.37018517 -0.22141343 0.8709932 0.0036561361 185 84
-0.36499378 -0.22089881 0.87084597 0.004252343 191 86
-0.35988602 -0.22042298 0.87088138 0.0034231532 197 89
-0.35560748 -0.22044972 0.87292653 0.0035591682 197 89
-0.34946415 -0.2193068 0.87034887 0.0033738087 206 93
-0.34335569 -0.21815754 0.86773551 0.0032845496 216 98
-0.33865538 -0.21788533 0.86859953 0.0037767841 216 98
-0.33456489 -0.2180035 0.87101305 0.0032367855 219 99
-0.32855225 -0.21685599 0.86834878 0.0034558668 238 108
-0.32322827 -0.21613897 0.867374 0.0029683106 248 112
-0.31870419 -0.21594486 0.86846685 0.0031255288 231 105
-0.31401664 -0.21563323 0.86905587 0.0036104007 243 110
-0.3075195 -0.21405353 0.86448735 0.0029740825 244 110
-0.30292079 -0.21376985 0.8651036 0.003062946 239 108
-0.29813164 -0.21334192 0.86509377 0.0034109438 227 103
-0.29375538 -0.21320148 0.86620653 0.0032708389 226 102
-0.28919181 -0.2129191 0.86669892 0.0029820348 241 109
-0.28482383 -0.21277454 0.86770731 0.0029459116 247 112
-0.27935076 -0.21178785 0.86523032 0.003080674 243 110
-0.27465633 -0.21137062 0.8650263 0.0031044132 228 103
-0.27132997 -0.21200959 0.8691023 0.0030881988 235 106
-0.26625627 -0.21128187 0.86753106 0.0030104399 245 111
-0.26100248 -0.21038596 0.86521435 0.0036033068 235 106
-0.25766584 -0.2110315 0.86919117 0.0031056255 235 106
-0.25226742 -0.2099819 0.86613995 0.0036597743 226 102
-0.24739607 -0.20934346 0.86473137 0.0032417143 233 105
-0.24313836 -0.20921153 0.86536795 0.0035923226 241 109
-0.23865868 -0.2088808 0.86513722 0.0030885236 233 105
-0.2340418 -0.2084163 0.86430711 0.0036925657 232 105
-0.22883466 -0.20740034 0.86114192 0.0030226468 240 109
-0.22513942 -0.20774271 0.86357337 0.0036432685 229 104
-0.22114341 -0.20781502 0.86484557 0.0030548319 237 107
-0.2162668 -0.20704702 0.86257935 0.0031348185 231 105
-0.21227673 -0.20711458 0.86375403 0.0032269021 240 109
-0.20809916 -0.20699829 0.86412543 0.0029707332 247 112
-0.20373552 -0.20668861 0.86365265 0.0030480593 242 110
-0.1990077 -0.20598942 0.86151409 0.0032483377 251 114
-0.19390602 -0.20486626 0.85756212 0.0030818149 237 107
-0.18950529 -0.20445181 0.85653949 0.0035436586 239 108
-0.18468557 -0.20355764 0.85347122 0.0030250661 252 114
-0.17990312 -0.20266597 0.8503775 0.0029068142 255 115
-0.17482613 -0.20139471 0.84565514 0.0031913826 258 117
nan nan nan 0 253 115
nan nan nan 0 277 125
nan nan nan 0 275 125
nan nan nan 0 278 126
nan nan nan 0 284 129
nan nan nan 0 295 134
nan nan nan 0 307 139
nan nan nan 0 308 140
nan nan nan 0 322 146
nan nan nan 0 332 150
nan nan nan 0 354 160
nan nan nan 0 361 164
nan nan nan 0 352 160
-0.10627839 -0.179042 0.75714254 0.0021896327 384 174
-0.10214243 -0.17795193 0.75277978 0.0020454414 419 190
-0.098644182 -0.17793508 0.75294113 0.0018996124 462 210
-0.094777957 -0.1772289 0.75017112 0.0017588147 514 233
-0.090651758 -0.17596434 0.7450223 0.0017776988 563 255
-0.087087795 -0.17573422 0.74423915 0.0016521848 570 255
-0.083248571 -0.17490683 0.74091369 0.0017345835 611 255
-0.079714149 -0.17467627 0.74010402 0.0018029874 554 251
nan nan nan 0 565 255
nan nan nan 0 542 246
nan nan nan 0 531 241
nan nan nan 0 554 251
nan nan nan 0 588 255
nan nan nan 0 604 255
nan nan nan 0 565 255
nan nan nan 0 590 255
-0.049189471 -0.17573902 0.74568546 0.001666447 547 248
-0.046020586 -0.17680177 0.75027424 0.0016797896 532 241
-0.042538248 -0.17673536 0.75006473 0.0017320832 537 244
-0.039035179 -0.1765634 0.74940044 0.0016420643 556 252
-0.035565455 -0.17652348 0.74929023 0.0018848667 532 241
-0.032131068 -0.17666923 0.74996185 0.0016660745 538 244
-0.028736558 -0.17709596 0.75182039 0.0017388106 512 232
-0.025398249 -0.17803398 0.75584382 0.0018974353 490 222
-0.021909975 -0.17805216 0.75595677 0.0018155733 491 223
-0.018403163 -0.17789803 0.75533247 0.0017692995 491 223
nan nan nan 0 442 200
nan nan nan 0 436 198
-0.0080170603 -0.17963316 0.76275867 0.0018411831 474 215
nan nan nan 0 449 204
nan nan nan 0 445 202
nan nan nan 0 421 191
nan nan nan 0 425 193
nan nan nan 0 405 184
nan nan nan 0 404 183
0.016924027 -0.18274321 0.77591926 0.0024406745 390 177
0.020534877 -0.18299282 0.77695119 0.0023051987 389 176
0.024110554 -0.18290134 0.77652919 0.0020581845 410 186
0.027734311 -0.18315108 0.77755022 0.0020937801 389 176
nan nan nan 0 372 169
0.035241671 -0.18485945 0.78470534 0.0024390572 368 167
0.038733151 -0.18422754 0.7819649 0.0021704505 367 166
0.042527262 -0.1850201 0.78526396 0.0022061688 361 164
0.04617063 -0.18508379 0.78546262 0.002464555 366 166
0.049805414 -0.18510628 0.78547901 0.0022838765 365 165
0.053581923 -0.18561667 0.78755796 0.0022182416 363 165
0.057330776 -0.18597245 0.78897285 0.0023355382 341 155
0.061356261 -0.18712938 0.79377759 0.0024837125 352 160
0.06444034 -0.18544658 0.78652817 0.0022721856 351 159
0.068289325 -0.1860272 0.78887039 0.0026958436 352 160
0.072026856 -0.18626072 0.78973079 0.0024895775 354 160
0.075565517 -0.18598226 0.78841066 0.0022689027 350 159
0.0789821 -0.18544279 0.78597474 0.0026994103 352 160
0.082537629 -0.18526268 0.78505164 0.0022561608 361 164
0.086670674 -0.18633938 0.78944242 0.0022523431 354 160
0.090131104 -0.18594141 0.78757328 0.0022809871 344 156
0.093727499 -0.18584397 0.78696531 0.0026820612 342 155
0.097013503 -0.18516137 0.78386778 0.0024374567 312 141
0.097517483 -0.17940974 0.75930506 0.0024225737 341 155
0.098912485 -0.17564079 0.74313176 0.0023806023 335 152
nan nan nan 0 153 69
0.12235705 -0.20312816 0.85886782 0.0041378755 197 89
0.12666547 -0.20365217 0.86077613 0.0036424503 205 93
0.13105866 -0.20427628 0.86308771 0.0037096238 217 98
0.13561745 -0.20511381 0.86627996 0.003462676 202 91
0.1396759 -0.2051682 0.86614341 0.0032626991 218 99
0.1436726 -0.20513135 0.86560148 0.0032859682 217 98
0.14797787 -0.20552509 0.86685431 0.0041379714 200 90
0.15223005 -0.20582616 0.86769325 0.0032738335 219 99
0.15633397 -0.2059164 0.86761945 0.0032600132 213 96
0.16016093 -0.2056465 0.86600488 0.0036108932 212 96
0.16438551 -0.20588785 0.86651891 0.0039335242 206 93
0.16900392 -0.20659907 0.86898237 0.0045647128 177 80
0.17285335 -0.20635897 0.86741698 0.0048907865 143 65
0.17646489 -0.20585233 0.86470598 0.0039778082 171 77
0.18036292 -0.20569508 0.86343646 0.0034623549 201 91
0.18545824 -0.20688027 0.86776972 0.0033335947 216 98
0.18880357 -0.20610441 0.863846 0.0038897735 215 97
0.1930988 -0.20637627 0.86428422 0.0033366603 209 95
0.19717032 -0.20640279 0.86366224 0.0033843643 209 95
0.20195656 -0.20716138 0.86606759 0.0036041981 215 97
0.20626736 -0.20741197 0.86631155 0.0035417932 207 94
0.21079484 -0.20786656 0.86736989 0.003527323 209 95
0.21480301 -0.20780154 0.86622268 0.0034726746 203 92
0.21879596 -0.20772445 0.86498898 0.0037778062 216 98
0.22333203 -0.20815642 0.86583591 0.0039271633 212 96
0.22819424 -0.20887141 0.86781609 0.0033173452 214 97
0.2324302 -0.20899807 0.8673085 0.0033925269 207 94
0.23650061 -0.20897403 0.86613476 0.0032833761 216 98
0.24090347 -0.20923959 0.86611873 0.0032871398 217 98
0.2453237 -0.20951106 0.86608279 0.0039575677 215 97
0.25010765 -0.21007913 0.86722571 0.0036747796 210 95
0.25456363 -0.21035779 0.86712587 0.0033641253 211 95
0.25858277 -0.2102723 0.86548036 0.0036622887 205 93
0.26284221 -0.21038187 0.86459392 0.0033861233 211 95
0.26723686 -0.21059458 0.86408496 0.0033218099 215 97
0.27166942 -0.21083023 0.8636232 0.0032973243 213 96
0.27630901 -0.21121711 0.86373281 0.0031648527 225 102
0.28132716 -0.21187764 0.86491036 0.0035079343 236 107
0.28577366 -0.21209469 0.86422813 0.0038147266 228 103
0.29206753 -0.2136569 0.86897135 0.0030394546 237 107
0.29644257 -0.21379112 0.86785263 0.0035064493 237 107
0.30046451 -0.21367052 0.86565942 0.0031148412 235 106
0.30463541 -0.21365771 0.86386639 0.0030906552 235 106
0.30924243 -0.21394692 0.86325699 0.0031072164 236 107
0.31524754 -0.21518275 0.86642176 0.0030172754 240 109
0.3201111 -0.215617 0.86631542 0.003093288 234 106
0.32556438 -0.21643198 0.86770302 0.003823828 226 102
0.33068511 -0.21700776 0.86809886 0.0037481813 223 101
0.33471164 -0.21685998 0.86558133 0.0031176102 232 105
0.33965459 -0.21730219 0.86540681 0.0035355568 226 102
0.34546444 -0.21828119 0.86735511 0.0033010542 212 96
0.35029885 -0.2186275 0.86678272 0.0033738667 207 94
0.35590041 -0.21943836 0.86805552 0.0034333353 204 92
0.36050132 -0.2196203 0.86685419 0.0044079628 194 88
0.36550587 -0.22004095 0.86662227 0.003470249 198 90
0.37008613 -0.2201993 0.86539537 0.0044129123 194 88
0.37474912 -0.22040269 0.86439538 0.0041552498 189 85
0.38014555 -0.22102782 0.86510748 0.0038140584 182 82
0.38598406 -0.22189307 0.86682367 0.0038319302 179 81
0.39156026 -0.2225899 0.86795759 0.003926469 170 77
0.3952485 -0.22220995 0.86498874 0.0048981183 168 76
0.39981422 -0.22232623 0.86406201 0.0045295712 162 73
0.40473077 -0.22263299 0.86399156 0.0049255881 164 74
0.40923217 -0.22270726 0.86314446 0.0043060686 155 70
0.41647291 -0.22425501 0.86813629 0.0042981845 153 69
0.42160502 -0.22464684 0.8687883 0.0046766978 139 63
0.42595312 -0.22461712 0.86795819 0.0056602452 129 58
0.42998347 -0.22442223 0.86664426 0.0050826948 123 55
0.43427831 -0.22436789 0.8660304 0.0054277088 115 52
0.43783048 -0.22393478 0.86411381 0.0067149806 118 53
0.44186899 -0.22375661 0.86334062 0.0067054015 111 50
0.44822469 -0.22474374 0.86722302 0.0070695286 105 47
0.45326233 -0.22505721 0.86866456 0.0060465233 110 50
0.45630932 -0.22438578 0.86645991 0.0056982236 106 48
0.45732719 -0.22273886 0.86063629 0.0059739971 103 46
-0.51171994 -0.21634594 0.87152714 0.010119757 58 26
-0.50718093 -0.21625532 0.86906546 0.0092830909 59 26
-0.50405353 -0.21677025 0.86912334 0.011370563 59 26
-0.50128865 -0.21745127 0.8699317 0.0091285175 68 30
-0.49986961 -0.21873321 0.87322783 0.0088975886 68 30
-0.49578455 -0.21886085 0.87200987 0.010961447 72 32
-0.49136382 -0.21884125 0.87031549 0.0081989253 68 30
-0.48593041 -0.21836625 0.86692935 0.0075597167 77 35
-0.48238432 -0.21873847 0.86702836 0.0079510156 84 38
-0.47780955 -0.21864669 0.86541259 0.0085902922 86 39
-0.4748148 -0.219283 0.86680681 0.0065638488 91 41
-0.47330981 -0.22062558 0.87111992 0.0076168338 92 41
-0.46867511 -0.22052081 0.86985505 0.0064535015 90 40
-0.46304873 -0.21994303 0.86687297 0.0075680511 93 42
-0.45802259 -0.21964201 0.8651346 0.0062276344 97 44
-0.45431498 -0.21997358 0.86604178 0.005966607 107 48
-0.45086133 -0.22043577 0.86761904 0.0059301853 104 47
-0.44689852 -0.22065574 0.868402 0.0063613541 111 50
-0.44228685 -0.22055647 0.86808974 0.0068049477 114 51
-0.4377611 -0.22049853 0.8681016 0.0057007857 107 48
-0.43315265 -0.22039731 0.8681035 0.0053690285 119 54
-0.42885193 -0.22045219 0.86887926 0.0072370647 94 42
-0.42457774 -0.220522 0.86987013 0.0055612954 109 49
-0.41948321 -0.22016275 0.86931884 0.0058554909 137 62
-0.41393584 -0.21955563 0.86793 0.0044335676 146 66
-0.40941912 -0.21948807 0.86880916 0.0050177742 147 66
-0.40541402 -0.21969628 0.87091076 0.0041388804 160 72
-0.40057066 -0.2194498 0.87133092 0.0049690395 159 72
-0.39556408 -0.21910749 0.87147737 0.0040121004 170 77
-0.39016637 -0.21853837 0.87081528 0.005007057 174 79
-0.38407665 -0.21756439 0.86861736 0.0042285663 178 80
-0.3788375 -0.21705545 0.86834109 0.0035883696 195 88
-0.37415117 -0.21685512 0.86935914 0.0042275381 194 88
-0.36930108 -0.21655403 0.87002355 0.0038733168 203 92
-0.36364928 -0.21577013 0.86878181 0.0032733574 215 97
-0.3581472 -0.21505728 0.86784571 0.0032710452 215 97
-0.35296544 -0.21452184 0.86763686 0.0034567406 201 91
-0.34850642 -0.21441782 0.86918086 0.0038591477 213 96
-0.34269199 -0.21346693 0.86728734 0.0040556761 213 96
-0.33775952 -0.21304838 0.86754143 0.0031745858 224 101
-0.33350953 -0.21305513 0.86951411 0.0031681242 228 103
-0.32795081 -0.21221516 0.86800796 0.0031085645 233 105
-0.32269639 -0.21155268 0.8671934 0.0029393856 251 114
-0.3180196 -0.21125628 0.8678453 0.003394824 232 105
-0.31328216 -0.21091108 0.86826116 0.0033618384 244 110
-0.30768716 -0.20997126 0.86618495 0.0032639576 246 111
-0.30243558 -0.20924301 0.86493146 0.0030898366 240 109
-0.29778576 -0.2089165 0.86529154 0.0032433779 235 106
-0.29319218 -0.20862076 0.86573374 0.0038347477 225 102
-0.28901958 -0.20862028 0.86735725 0.0030280168 241 109
-0.2846165 -0.20845102 0.86823481 0.0029683476 249 113
-0.27907473 -0.20743038 0.86551327 0.0035920995 248 112
-0.27468923 -0.20725133 0.8662504 0.003508586 238 108
-0.26972452 -0.20662308 0.86505991 0.0034717962 239 108
-0.26508608 -0.20622914 0.86479855 0.0029859529 240 109
-0.26067072 -0.20599899 0.86517543 0.0035455364 249 113
-0.25597757 -0.20553842 0.86453581 0.00359155 238 108
-0.25153863 -0.20527029 0.86465728 0.0034290464 241 109
-0.24693336 -0.20485522 0.86411244 0.0031546981 245 111
-0.24210763 -0.20424022 0.86267537 0.0029382159 252 114
-0.23763256 -0.20390499 0.8623727 0.0033223289 244 110
-0.23200399 -0.20255101 0.85771137 0.0029715258 250 113
-0.22769427 -0.20232077 0.85775989 0.0030972695 237 107
-0.22161214 -0.20047881 0.85092586 0.0030298091 242 110
nan nan nan 0 250 113
nan nan nan 0 253 115
nan nan nan 0 263 119
nan nan nan 0 280 127
nan nan nan 0 283 128
nan nan nan 0 305 138
nan nan nan 0 310 140
nan nan nan 0 319 145
nan nan nan 0 355 161
nan nan nan 0 414 188
nan nan nan 0 430 195
nan nan nan 0 428 194
-0.14845762 -0.17559786 0.75366294 0.0018574937 484 220
-0.14431553 -0.17483403 0.75084031 0.0018860215 467 212
-0.14030662 -0.17419764 0.74853903 0.0017663834 510 231
-0.13670963 -0.17405327 0.74832898 0.001754872 527 239
-0.13205698 -0.17252223 0.74213237 0.0017344825 535 243
-0.12857541 -0.17247999 0.74231708 0.00166479 551 250
-0.12494274 -0.17222716 0.74157584 0.0016585783 568 255
-0.12146049 -0.1721732 0.74167216 0.0016265274 571 255
nan nan nan 0 597 255
nan nan nan 0 595 255
nan nan nan 0 565 255
nan nan nan 0 570 255
-0.10462295 -0.17279755 0.74576008 0.0018522886 544 247
-0.1012804 -0.17299064 0.74682772 0.0016647961 538 244
-0.098103523 -0.17349038 0.74920642 0.0015808197 596 255
-0.094175845 -0.17265034 0.74578577 0.0016050951 578 255
-0.09063261 -0.17247793 0.74523532 0.0017292304 599 255
-0.087352134 -0.17281175 0.74686033 0.0016193759 571 255
-0.084781714 -0.17463565 0.7549156 0.0016847112 542 246
-0.081507429 -0.17510414 0.75710303 0.0017835688 492 223
nan nan nan 0 467 212
nan nan nan 0 454 206
nan nan nan 0 431 195
nan nan nan 0 431 195
nan nan nan 0 426 193
nan nan nan 0 426 193
nan nan nan 0 426 193
nan nan nan 0 442 200
nan nan nan 0 421 191
nan nan nan 0 412 187
-0.043942526 -0.17899033 0.77510947 0.0020415548 410 186
-0.040513273 -0.17965633 0.77805692 0.0019989887 422 191
nan nan nan 0 408 185
-0.033386063 -0.17997065 0.77952671 0.0020914376 396 180
-0.029970106 -0.18107685 0.78436381 0.0021279324 385 175
-0.026369981 -0.18122146 0.78503025 0.0022437789 383 174
-0.022728167 -0.18107998 0.78445184 0.0021437311 377 171
-0.019125419 -0.18125516 0.7852397 0.0021287731 390 177
-0.015530416 -0.18160276 0.78676963 0.0024304015 384 174
-0.01189095 -0.18148401 0.78627384 0.002126809 385 175
-0.0082656154 -0.18157133 0.78666586 0.0023411051 389 176
-0.0046296008 -0.18137702 0.78583276 0.0021265063 387 175
-0.001009793 -0.18270916 0.79160821 0.0021574923 376 170
0.0026469908 -0.18291467 0.79249758 0.0021811042 369 167
0.0063088587 -0.18302923 0.79298776 0.0024546213 377 171
0.0099793635 -0.18321821 0.79379553 0.0024674949 373 169
0.013612314 -0.1828014 0.79197353 0.0022944263 364 165
0.017229194 -0.18239091 0.79017407 0.002247616 358 162
0.020996841 -0.18344106 0.79469711 0.002196335 368 167
0.024603527 -0.18298174 0.79267544 0.0022086732 367 166
0.028348176 -0.18353459 0.79503304 0.002218927 363 165
0.032133553 -0.18419412 0.79784685 0.0022708676 350 159
0.035881396 -0.18452498 0.79923075 0.0023563707 347 157
0.039533582 -0.18434808 0.79840934 0.0027054574 338 153
0.043240085 -0.18443304 0.79871571 0.002660518 341 155
0.04671403 -0.18359065 0.79499972 0.0025758615 354 160
0.050360423 -0.18349943 0.79452986 0.002441681 342 155
0.054055493 -0.18358584 0.79482216 0.0023028979 346 157
0.057816241 -0.18387021 0.7959637 0.0023536633 331 150
0.061591588 -0.1841642 0.79713881 0.0023631859 330 150
0.065706745 -0.18538372 0.80231082 0.0024678854 330 150
0.069500268 -0.185614 0.8031922 0.0023429771 340 154
0.072246678 -0.18316621 0.79247719 0.0023535765 334 151
0.076738752 -0.18516685 0.80099922 0.0023511162 335 152
0.079891823 -0.18390109 0.79538101 0.0027095354 343 155
0.083810382 -0.18443124 0.79752034 0.0024111692 346 157
0.087309271 -0.1840321 0.79563028 0.0023335598 337 153
0.090712704 -0.18347217 0.79303443 0.0025846893 337 153
0.094282061 -0.18327835 0.79200989 0.0027402944 314 142
0.097901136 -0.18319204 0.7914378 0.0030778688 303 137
nan nan nan 0 313 142
nan nan nan 0 342 155
nan nan nan 0 149 67
0.12107817 -0.19706418 0.8503654 0.0035900031 188 85
0.12663659 -0.19961385 0.86107302 0.0034607775 199 90
0.13110769 -0.20034616 0.86391854 0.0034131892 202 91
0.13525483 -0.20055471 0.86448562 0.0041635451 199 90
0.13938126 -0.20072138 0.86485231 0.0034036245 215 97
0.14344399 -0.20078957 0.86477435 0.0036781174 206 93
0.14756642 -0.20093532 0.86500925 0.00404596 198 90
0.15167743 -0.20105824 0.86512363 0.0037401158 203 92
0.15596841 -0.20140719 0.8661871 0.0033873962 212 96
0.16007209 -0.20150279 0.86613655 0.0033929655 212 96
0.16414507 -0.201556 0.86587942 0.0038974399 211 95
0.16845368 -0.20188907 0.86679846 0.0041090683 187 85
0.17265156 -0.20207693 0.8670665 0.0053044497 136 61
0.17625907 -0.20158102 0.8643747 0.0047239433 172 78
0.18008925 -0.20135625 0.86281961 0.0034885393 197 89
0.18414594 -0.20138903 0.86234009 0.0036004069 214 97
0.18829878 -0.20152332 0.86226499 0.0034245348 206 93
0.19234295 -0.2015381 0.86164761 0.0036066663 206 93
0.1968859 -0.20206419 0.86318266 0.004088108 207 94
0.20159855 -0.20273975 0.86531949 0.0034142369 206 93
0.2056243 -0.20271154 0.86441648 0.0036253117 213 96
0.20994096 -0.20296566 0.86468184 0.0036715472 205 93
0.21380761 -0.20278332 0.86305201 0.0033828011 210 95
0.21866944 -0.20353408 0.86535448 0.0034669533 215 97
0.22329475 -0.20404126 0.86657846 0.003252456 220 100
0.22765625 -0.2042935 0.86667758 0.0033244288 220 100
0.23207442 -0.20458685 0.86690915 0.0038161851 220 100
0.23611186 -0.20454013 0.86565852 0.0033785505 220 100
0.24030203 -0.2046251 0.86492389 0.0035944155 224 101
0.24501972 -0.20514889 0.8659988 0.0033536907 221 100
0.24978788 -0.20569701 0.86712813 0.0035345417 220 100
0.25370848 -0.20554076 0.8652426 0.0032975837 214 97
0.25785151 -0.20556673 0.86408126 0.0034328953 200 90
0.26197565 -0.20557714 0.86281013 0.003289145 214 97
0.26713812 -0.20638941 0.86485487 0.0032380254 220 100
0.27159566 -0.2066406 0.86449665 0.003231772 224 101
0.27577737 -0.20667756 0.86319584 0.0035716621 225 102
0.28098983 -0.20747449 0.86501855 0.0031552094 231 105
0.28559542 -0.20780669 0.86485124 0.0033821361 230 104
0.29085144 -0.20859584 0.86653399 0.0030980925 234 106
0.29600337 -0.20928904 0.867764 0.0032413034 229 104
0.2997964 -0.20901552 0.86494142 0.0034345703 229 104
0.30393904 -0.20898992 0.8631078 0.0035123797 238 108
0.30841342 -0.20919 0.86216748 0.0031045587 231 105
0.31499261 -0.21079329 0.86696017 0.0032017457 237 107
0.31945968 -0.21095946 0.86579561 0.0030471219 237 107
0.32362506 -0.21092466 0.86377686 0.0030765426 236 107
0.32936323 -0.21190266 0.86587381 0.0037059281 229 104
0.33407435 -0.21220344 0.86517322 0.0034876263 222 100
0.33791444 -0.21195029 0.86220086 0.0034878168 226 102
0.34325197 -0.21263108 0.86301744 0.0032415376 219 99
0.34932992 -0.21374823 0.86558956 0.0036694461 215 97
0.35457322 -0.21433383 0.86600202 0.0037383616 212 96
0.36018676 -0.2151266 0.8672567 0.0035970851 205 93
0.36497563 -0.21541385 0.86649084 0.0040656752 202 91
0.36876872 -0.21511361 0.86339915 0.0035120281 196 89
0.37393919 -0.21561447 0.86356908 0.0035545891 197 89
0.38027608 -0.21676882 0.86640131 0.0042291782 192 87
0.38508672 -0.21703692 0.86575019 0.0037983486 177 80
0.38931891 -0.21697667 0.86386979 0.0036683034 184 83
0.39437884 -0.21737397 0.86390144 0.0046899845 170 77
0.39935184 -0.21771525 0.86380965 0.0041217599 163 74
0.40491855 -0.21836933 0.8650673 0.0044499221 156 70
0.41159278 -0.21960035 0.86872399 0.0041983142 157 71
0.41503689 -0.21910021 0.86566198 0.0043395022 152 69
0.42010522 -0.21945892 0.86613548 0.0046907668 139 63
0.4250623 -0.21975277 0.86649799 0.0056466097 131 59
0.4291679 -0.21960491 0.86527121 0.0054866807 126 57
0.43358701 -0.21961881 0.86483902 0.0049066879 127 57
0.43715924 -0.21920776 0.86289346 0.0065122559 119 54
0.4418084 -0.21933955 0.86324537 0.005390876 116 52
0.44773698 -0.22009768 0.86622292 0.006356711 112 50
0.45367622 -0.22084625 0.86932361 0.0066587641 109 49
0.45502529 -0.21936747 0.86381423 0.0068156724 109 49
0.45272505 -0.21617439 0.85170066 0.0064472677 108 49
-0.50799179 -0.21047479 0.86429387 0.011840663 57 25
-0.5073455 -0.21199945 0.8684873 0.0099683031 62 28
-0.50384927 -0.21234919 0.86794209 0.0084034037 65 29
-0.50093508 -0.21295241 0.86852258 0.0084597291 69 31
-0.49832681 -0.21369739 0.86977232 0.0099675106 71 32
-0.49494147 -0.21411936 0.86980641 0.0080650318 74 33
-0.49057066 -0.2141187 0.86823428 0.0095788622 76 34
-0.48632732 -0.21417418 0.86700815 0.0087426081 83 37
-0.48120028 -0.21383797 0.86432213 0.0084347706 81 36
-0.47708026 -0.21394716 0.86356711 0.0069797621 88 40
-0.47498342 -0.21497412 0.86664456 0.0066303043 93 42
-0.4717516 -0.21550173 0.8678416 0.0063134525 96 43
-0.46775088 -0.2156847 0.86779279 0.007857875 98 44
-0.46196538 -0.21504033 0.86456591 0.0079158843 97 44
-0.45753345 -0.21501976 0.86400211 0.0072444929 104 47
-0.45402107 -0.2154351 0.8653456 0.0060377046 102 46
-0.45135581 -0.21626447 0.86851037 0.0057911077 106 48
-0.44799936 -0.21677575 0.87055939 0.0054008691 117 53
-0.44287199 -0.21643178 0.86933708 0.0052515357 119 54
-0.43589801 -0.21516936 0.86458647 0.0054245419 114 51
-0.43131411 -0.21507303 0.86468053 0.0055918559 113 51
-0.42803106 -0.21563007 0.8675614 0.0065703215 96 43
-0.42401972 -0.21582799 0.86915481 0.0061584818 114 51
-0.41932011 -0.21567602 0.86948961 0.0045760567 143 65
-0.41281131 -0.21458046 0.86615759 0.0051920931 150 68
-0.4088051 -0.21477616 0.86816871 0.0055824746 149 67
-0.40480834 -0.21498114 0.87034667 0.0044761449 158 71
-0.39935556 -0.21440889 0.86949259 0.0051712422 157 71
-0.39467162 -0.21424133 0.8703807 0.0038634124 174 79
-0.3890506 -0.21355562 0.8692525 0.0037230039 187 85
-0.38297671 -0.21260294 0.86710811 0.0041654282 191 86
-0.37750909 -0.21196891 0.8663218 0.0033910326 202 91
-0.37308475 -0.21191272 0.86795121 0.0035691834 200 90
-0.36837721 -0.2116925 0.8689549 0.0034344487 204 92
-0.36323714 -0.21121554 0.86893654 0.0032663869 213 96
-0.35705832 -0.21011582 0.86636907 0.0034925486 217 98
-0.351583 -0.20940846 0.8654201 0.0036098675 211 95
-0.34655428 -0.20895289 0.86550975 0.0037509117 226 102
-0.34168869 -0.20858559 0.86595792 0.0037635916 222 100
-0.33720592 -0.20844567 0.8673386 0.0035908716 220 100
-0.3322905 -0.20803128 0.86755884 0.0030773885 240 109
-0.3271189 -0.20744373 0.86702871 0.0034667526 236 107
-0.32185087 -0.20677885 0.86613971 0.0031509292 241 109
-0.31712198 -0.20644724 0.86660922 0.0029949127 247 112
-0.31257221 -0.20622487 0.86750031 0.002963481 248 112
-0.30721089 -0.20545377 0.86603886 0.003246319 245 111
-0.30222139 -0.20491335 0.86550075 0.0034581674 232 105
-0.29747677 -0.20452614 0.86556208 0.0029725733 247 112
-0.29273626 -0.20413086 0.86554092 0.0034675144 249 113
-0.28829798 -0.20393787 0.86632997 0.0029671662 244 110
-0.28302917 -0.20314313 0.86451125 0.0029148851 255 115
-0.27847493 -0.20284532 0.86475426 0.0033687628 251 114
-0.27392098 -0.2025387 0.86491036 0.0029423987 249 113
-0.2693975 -0.20224555 0.86507475 0.0033963749 245 111
-0.26477996 -0.20187157 0.86484343 0.0029215456 257 116
-0.26008263 -0.201424 0.86424655 0.0031087166 231 105
-0.25544834 -0.20101163 0.8637507 0.0030473375 231 105
-0.25097662 -0.20071585 0.86370736 0.0034043603 247 112
-0.24666244 -0.20053832 0.86412621 0.0029020614 251 114
nan nan nan 0 274 124
nan nan nan 0 333 151
nan nan nan 0 343 155
nan nan nan 0 358 162
nan nan nan 0 378 171
nan nan nan 0 398 180
-0.18932597 -0.17414741 0.75659233 0.0022603057 456 207
-0.18416296 -0.17263876 0.75078011 0.0021802122 456 207
-0.18006168 -0.17208597 0.74908477 0.0018193549 495 225
-0.17559268 -0.17115277 0.74569744 0.0017462691 530 240
-0.17195222 -0.17100567 0.74570143 0.0016298334 576 255
-0.16753048 -0.1700594 0.74218822 0.0016492112 566 255
-0.16408916 -0.17008936 0.74290496 0.0018909991 545 247
nan nan nan 0 560 254
nan nan nan 0 641 255
nan nan nan 0 620 255
nan nan nan 0 555 252
-0.14635472 -0.16964868 0.74352074 0.0015899104 592 255
-0.14314736 -0.16995083 0.74528319 0.0016512672 552 250
-0.14007981 -0.17043808 0.74783748 0.0016446352 553 251
-0.13695598 -0.17087995 0.75017387 0.0019158415 528 240
-0.13379222 -0.17129377 0.75236869 0.0017748341 497 225
-0.13031664 -0.17131984 0.75284177 0.001793983 504 229
-0.12712948 -0.17173697 0.75501531 0.0018369359 467 212
-0.12430938 -0.17268772 0.7595191 0.0018749081 462 210
nan nan nan 0 428 194
nan nan nan 0 442 200
-0.11521786 -0.17493494 0.77028292 0.0019599041 421 191
nan nan nan 0 424 192
nan nan nan 0 419 190
-0.10494374 -0.17566317 0.7742303 0.0021321604 403 183
nan nan nan 0 412 187
nan nan nan 0 403 183
nan nan nan 0 416 189
nan nan nan 0 408 185
-0.087838493 -0.17731383 0.78247809 0.0023620033 395 179
-0.08438807 -0.17766719 0.78419656 0.0023071608 388 176
-0.080858171 -0.17787747 0.78527313 0.0023797168 387 175
-0.077384017 -0.17823592 0.78699428 0.0024404922 378 171
-0.074262045 -0.17948087 0.79262114 0.0025387756 375 170
-0.070762575 -0.17989533 0.79457217 0.0021285135 387 175
-0.066775031 -0.17904642 0.79093409 0.0024661198 382 173
-0.063224867 -0.17933989 0.79233348 0.0022635907 373 169
-0.059657138 -0.17961656 0.79365104 0.0021496271 378 171
-0.055946 -0.17946936 0.79308814 0.0021461458 377 171
-0.05232076 -0.17959644 0.79372996 0.0021705662 376 170
-0.048575159 -0.17929839 0.79248571 0.0024032188 379 172
-0.044784851 -0.17877331 0.79023129 0.0021796655 370 168
-0.041387286 -0.17986189 0.79510343 0.0021896265 370 168
-0.037761964 -0.18007621 0.79610527 0.0021729046 375 170
-0.034118727 -0.18024211 0.79688704 0.0021837894 372 169
