# .PCD v0.7 - Point Cloud Data file format
VERSION 0.7
FIELDS x y z noise intensity gray
SIZE 4 4 4 4 2 1
TYPE F F F F U U
COUNT 1 1 1 1 1 1
WIDTH 905
HEIGHT 1
VIEWPOINT 0 0 0 1 0 0 0
POINTS 905
DATA ascii
0.18097362 0.12899297 0.62108266 0.0016854195 525 127
0.18472084 0.12956476 0.62300658 0.0017336914 502 122
0.18791316 0.12973551 0.62296498 0.0017259667 506 123
0.19084822 0.12972613 0.62202436 0.0017022429 520 126
0.19373423 0.12968418 0.62089461 0.0017873482 494 120
0.1967928 0.12975727 0.62028182 0.0017779268 493 120
0.20036067 0.13015908 0.62120265 0.0018158982 505 123
0.20356548 0.13031676 0.62091994 0.0017064027 513 125
0.20659052 0.13035646 0.62003922 0.0016783336 530 129
0.20954877 0.13035353 0.61892116 0.0016610617 529 128
0.21340494 0.13090143 0.62038004 0.0017383287 521 127
0.21615981 0.13076803 0.61857289 0.0017461347 527 128
0.21930844 0.13087323 0.61786193 0.0017916268 512 124
0.22266367 0.13109726 0.61767709 0.0017180673 517 126
0.22594625 0.13127315 0.61723083 0.0017460856 529 128
0.22920193 0.13142903 0.61665839 0.0016940905 530 129
0.23226827 0.13147373 0.61553496 0.0016759059 530 129
0.23556703 0.1316472 0.61498743 0.0016781965 537 130
0.23929182 0.13205138 0.61548948 0.0016814423 540 131
0.24268933 0.13226722 0.61508822 0.0017949798 527 128
0.24600478 0.13243358 0.61443764 0.001780019 531 129
0.24923739 0.13255185 0.61355001 0.0016763695 527 128
0.25279096 0.13283597 0.61341989 0.0017318532 500 121
0.25640279 0.13314363 0.61339152 0.0017197919 508 123
0.25984061 0.1333548 0.61291862 0.0016969909 517 126
0.26317039 0.13350631 0.61218011 0.0018420119 495 120
0.26630118 0.13355456 0.61098558 0.0019891469 494 120
0.26954117 0.13365586 0.61005962 0.0018332509 463 112
0.2728034 0.13376582 0.60920644 0.0018598514 458 111
0.27621019 0.13394344 0.60870284 0.0018857328 441 107
0.27975887 0.13418527 0.60853964 0.0021106785 420 102
0.28324577 0.13439256 0.60827726 0.0021100088 414 100
0.28638518 0.1344323 0.6073246 0.0020708356 394 96
0.28936586 0.13439749 0.60611355 0.0021812075 377 91
0.29193765 0.13417546 0.60414642 0.0024037592 363 88
0.29591733 0.13459843 0.60517555 0.0022505512 352 85
0.29884332 0.13453837 0.60413057 0.0023832479 345 84
0.30164468 0.13442399 0.60294807 0.0027563795 318 77
0.30462688 0.13439167 0.60224432 0.0027092281 309 75
0.30801487 0.13453725 0.60245103 0.0028276758 297 72
0.31094682 0.13448271 0.60187739 0.0029603606 279 68
0.31391302 0.13444391 0.60149205 0.002637649 274 66
0.31699082 0.13445321 0.60144025 0.0028696619 267 65
0.32069334 0.13472477 0.60267973 0.002931467 267 65
-0.42179003 0.16045804 0.71493322 0.0096953493 58 14
-0.41290417 0.15841706 0.70425904 0.0079626339 74 18
-0.41247424 0.15961312 0.70806825 0.0064639524 93 22
-0.40871379 0.15952992 0.70628095 0.006983126 104 25
-0.40452254 0.15927568 0.70383233 0.0057872976 104 25
-0.40169269 0.1595577 0.70385087 0.0057254247 103 25
-0.40008217 0.16033341 0.70614135 0.0063165762 108 26
-0.39652559 0.16033614 0.70512897 0.0056403163 107 26
-0.39342752 0.16052604 0.70505005 0.006290745 112 27
-0.38991028 0.16054676 0.70434308 0.0052215699 114 27
-0.3861796 0.16047923 0.70336908 0.006036853 122 29
-0.38311866 0.16069132 0.70374435 0.0055396757 129 31
-0.38038832 0.16104737 0.70487624 0.0046053077 137 33
-0.37683064 0.16105659 0.70462054 0.0050529721 132 32
-0.37207699 0.16054994 0.70224255 0.0041880752 151 36
-0.36871842 0.16064124 0.70261568 0.0042973002 148 36
-0.36518988 0.16065957 0.70280659 0.0040316693 158 38
-0.36124697 0.16049416 0.70233059 0.0044573992 161 39
-0.35666147 0.16003715 0.70071322 0.0039642439 162 39
-0.35236496 0.15970188 0.69976056 0.0037347479 175 42
-0.34813812 0.15939169 0.69904619 0.0036000251 177 43
-0.34448141 0.15933883 0.69958514 0.004125434 182 44
-0.34056398 0.15916304 0.69970417 0.0042538061 186 45
-0.33647847 0.15890415 0.69956988 0.0043370365 192 46
-0.33109537 0.15802051 0.69678414 0.0038517669 204 49
-0.32640892 0.15745397 0.6954847 0.0032717951 203 49
-0.32221946 0.15711746 0.69528323 0.003530025 219 53
-0.31783155 0.15667577 0.69468939 0.0034966436 225 54
-0.31375057 0.15637727 0.6947937 0.0029843193 229 55
-0.30980623 0.15614094 0.69522911 0.0028656006 243 59
-0.30504316 0.15548195 0.69382381 0.0027381759 264 64
-0.30239505 0.15589823 0.69725496 0.0027473492 263 64
-0.29754892 0.15517783 0.69563031 0.0026452392 273 66
-0.29179463 0.15396139 0.69178414 0.002550147 286 69
-0.28701952 0.15323885 0.69015127 0.0026060431 287 69
-0.2831054 0.15296412 0.69053119 0.0027362029 293 71
-0.27877113 0.15245296 0.68983549 0.0025529275 305 74
-0.27482721 0.15214536 0.69004583 0.0028111937 309 75
-0.27068225 0.15171735 0.68969059 0.002410148 315 76
-0.26648703 0.15125005 0.68913102 0.0024151078 311 75
-0.26296461 0.15115754 0.69025248 0.0026142497 319 77
-0.25784457 0.1501324 0.68707955 0.0023799257 312 76
-0.25358897 0.14959036 0.68607455 0.0027461755 321 78
-0.24979319 0.1493087 0.68622619 0.002699628 315 76
-0.24516591 0.14851579 0.68398577 0.0023523159 319 77
-0.24182121 0.14848879 0.68523175 0.002556985 314 76
-0.23758331 0.14790499 0.68386775 0.0025833214 319 77
-0.23360249 0.14746708 0.6831336 0.0027337191 321 78
-0.22947986 0.14692594 0.68187648 0.0024588993 323 78
-0.22518335 0.14625622 0.67997551 0.0022999113 332 80
nan nan nan 0 354 86
nan nan nan 0 481 117
-0.17398795 0.11812007 0.55190969 0.0013290759 824 200
-0.17145242 0.11818187 0.55305386 0.001346692 816 198
nan nan nan 0 573 139
-0.18273984 0.12994359 0.60987866 0.0015523302 608 148
-0.18195076 0.13146007 0.61784953 0.0016738325 594 144
-0.18116987 0.13303201 0.62606913 0.0015855124 585 142
-0.17880735 0.13347547 0.62895846 0.001758558 590 143
-0.17749365 0.13473003 0.63564861 0.0015859189 591 144
-0.17518102 0.13525635 0.6388824 0.0016070837 596 145
-0.17364845 0.1364139 0.64507627 0.0017605603 586 142
-0.17133635 0.1369893 0.64849645 0.0015902063 599 146
-0.16997418 0.13835874 0.6556561 0.0015886722 591 144
-0.16773236 0.13904946 0.65958035 0.0016030624 583 142
-0.16537453 0.13966811 0.6631403 0.0018175953 561 136
-0.16316621 0.14043909 0.66740221 0.0016534108 542 132
-0.16063431 0.14095621 0.67043602 0.0016985579 531 129
-0.15776761 0.14119428 0.67211932 0.0017090167 527 128
-0.15454571 0.14111769 0.67227972 0.0018779068 523 127
-0.1514605 0.14116532 0.67300707 0.0016637844 548 133
-0.14834005 0.14118139 0.6735602 0.0015918178 581 141
-0.14556341 0.1415325 0.67568958 0.0016120956 613 149
-0.14239559 0.14151034 0.67601538 0.0015419166 612 149
-0.13896307 0.14121816 0.6750288 0.0015376112 614 149
-0.13579528 0.14118777 0.67527157 0.0015374346 616 150
-0.13271639 0.14125054 0.6759398 0.0016154242 618 150
-0.12966256 0.14134365 0.67673397 0.0015465885 613 149
-0.12634413 0.1411458 0.67611617 0.0016564314 607 147
-0.12305604 0.14097264 0.67559767 0.0015494826 616 150
-0.11989621 0.1409412 0.67574048 0.0016301477 609 148
-0.11660591 0.14075056 0.67510313 0.0015763306 593 144
-0.11370477 0.14103213 0.67671466 0.0015778755 592 144
-0.11036859 0.14077479 0.67572516 0.0017774294 592 144
-0.1072064 0.1407308 0.67574471 0.0016601081 587 143
-0.10414366 0.14081864 0.67638314 0.001713569 579 141
-0.10084417 0.14058188 0.67544872 0.0017421265 580 141
-0.09754122 0.14032502 0.6744045 0.0016071924 582 141
-0.094227657 0.14003538 0.6731897 0.0016056548 580 141
-0.091005273 0.13986613 0.6725415 0.0016176829 574 139
-0.087939814 0.13993461 0.67302537 0.0016289649 565 137
-0.084896803 0.14004511 0.67370087 0.0016403483 570 138
-0.081910618 0.14026137 0.67487562 0.0016184229 569 138
-0.078476384 0.13969712 0.67228514 0.001720119 566 137
-0.075503908 0.13994227 0.67358047 0.0016359317 562 137
-0.072386406 0.13992812 0.67361951 0.0017727788 559 136
-0.069101438 0.13957444 0.67201579 0.0017244931 563 137
-0.066071719 0.13972731 0.67284322 0.0016393518 564 137
-0.062818028 0.13939826 0.67134279 0.0016217096 568 138
-0.059549689 0.13900086 0.66950601 0.0017018367 567 138
-0.056447171 0.13896821 0.66941959 0.0016573359 553 134
-0.053350758 0.13894771 0.66938555 0.0018284703 552 134
-0.050253838 0.13892326 0.66932702 0.0016387267 554 135
-0.047098737 0.13872424 0.66842204 0.0016765022 558 136
-0.043981206 0.13861576 0.66794825 0.0016525434 550 134
-0.040787872 0.13823402 0.66615289 0.0018488553 555 135
-0.037805051 0.13856167 0.66777176 0.0016414628 558 136
-0.034562178 0.13790978 0.6646657 0.0016513467 547 133
-0.031600855 0.13836376 0.66688561 0.0016464274 561 136
-0.028514095 0.13830721 0.66664124 0.0016296894 560 136
-0.025441768 0.13831545 0.66670573 0.0016418746 555 135
-0.022275122 0.13774273 0.66396648 0.001656601 550 134
-0.019222148 0.13780239 0.66427243 0.0016461535 559 136
-0.016154936 0.13776325 0.66409916 0.0016637028 547 133
-0.013064774 0.13746436 0.66267085 0.0016572574 552 134
-0.01000109 0.13734661 0.66211307 0.0017317765 548 133
-0.0069466582 0.1373083 0.66193545 0.0016590151 547 133
-0.0038877456 0.137052 0.66070443 0.0018564877 548 133
-0.0008417361 0.13704167 0.66065669 0.0016639598 542 132
0.0021992777 0.13674927 0.65924639 0.00165387 545 132
0.0052148476 0.13613194 0.65626729 0.0017419327 550 134
0.0082357423 0.13605589 0.65589499 0.001651124 554 135
0.011259171 0.13605131 0.65586472 0.0016637719 545 132
0.01425258 0.13576272 0.65446264 0.0018683942 557 135
0.017233612 0.13547766 0.65307492 0.0018054896 564 137
0.020168357 0.13496767 0.65060008 0.0016466891 570 138
0.023155112 0.1348927 0.65021944 0.0016293891 555 135
0.026188456 0.13507523 0.65107679 0.0016523682 552 134
0.029141637 0.13484925 0.64996207 0.0016355322 561 136
0.032205511 0.13512988 0.65128547 0.0016421262 555 135
0.035043918 0.13449733 0.64820409 0.0016447944 554 135
0.038038276 0.13451567 0.648256 0.0016362114 554 135
0.040958472 0.13428819 0.64711928 0.00163216 565 137
0.0436951 0.13353062 0.64342403 0.0016508353 554 135
0.046675667 0.13356751 0.64355242 0.0016489415 558 136
0.049771138 0.13390911 0.64514416 0.0016602002 547 133
0.052554183 0.13341902 0.64272374 0.0017655323 562 137
0.055568997 0.13353825 0.6432333 0.0016295906 565 137
0.058563035 0.13359797 0.64345026 0.0016370369 556 135
0.061450873 0.13342135 0.64252287 0.0016282309 574 139
0.064071089 0.13270669 0.63899821 0.0016436429 557 135
0.066917792 0.13250341 0.63792944 0.0017626137 564 137
0.069615185 0.13203406 0.63557297 0.0016174223 577 140
0.072707601 0.1323216 0.63685226 0.0016300826 569 138
0.075632438 0.13229366 0.63660467 0.0016266899 565 137
0.07801865 0.1313609 0.63199538 0.0017458674 579 141
0.081243508 0.13185655 0.63424945 0.0016838277 574 139
0.083897538 0.1314235 0.63202691 0.0016212178 562 137
0.086430006 0.13083556 0.62905043 0.0016156666 573 139
0.08872205 0.1299338 0.62455648 0.0016008337 581 141
0.092071116 0.13058813 0.62753129 0.0016075538 573 139
0.095107615 0.13077267 0.62823588 0.0017488847 576 140
0.097440951 0.13000807 0.62436968 0.001591055 584 142
0.099833257 0.12936395 0.62107152 0.0016832288 566 137
0.10268002 0.12932828 0.6206823 0.0016042152 578 140
0.10496688 0.12860854 0.61699778 0.0016106762 569 138
0.10834884 0.12923315 0.61974871 0.0017747768 582 141
0.11117576 0.12918057 0.61923599 0.0017056763 581 141
0.1135885 0.1286615 0.61647272 0.0016465957 581 141
0.1168566 0.12911299 0.61834389 0.0017326538 574 139
0.11927603 0.12862763 0.61571169 0.0016051587 579 141
0.1218932 0.12837322 0.61416936 0.0017970311 572 139
0.12500058 0.12863493 0.61507821 0.0016212201 568 138
0.12761177 0.12838575 0.61352539 0.0015930571 586 142
0.12948501 0.12742127 0.60853857 0.0017271055 570 138
0.13228628 0.12739176 0.60799998 0.0016082849 579 141
0.13494223 0.1272265 0.60679358 0.0016620995 574 139
0.13735808 0.12684628 0.60454249 0.0017712372 566 137
0.14010894 0.1267845 0.60378873 0.0016413133 555 135
0.14176844 0.12575705 0.59841776 0.0016497555 556 135
0.14440219 0.12561686 0.59724998 0.0018823646 538 131
0.14718571 0.1256098 0.5966922 0.0018168761 517 126
0.14986224 0.12551337 0.59568584 0.0017014068 528 128
0.15008587 0.12340366 0.58510923 0.001705674 592 144
nan nan nan 0 632 154
0.13698517 0.10866076 0.51414627 0.0013966258 859 209
0.13929233 0.10857671 0.51318377 0.001477442 711 173
nan nan nan 0 250 60
0.17410664 0.13116932 0.61851424 0.0022174346 353 86
0.17815894 0.13201191 0.62171084 0.0019091043 477 116
0.18151468 0.13231939 0.62234944 0.0017764051 491 119
0.18471342 0.13250443 0.62237728 0.0018898511 492 119
0.18800557 0.13274965 0.62265259 0.0017846684 477 116
0.1912172 0.13293129 0.62259418 0.0018576506 503 122
0.19408363 0.13287109 0.62136877 0.0017681544 479 116
0.19703615 0.13287075 0.62039036 0.00170787 518 126
0.2007384 0.13336855 0.62170023 0.0019855148 503 122
0.2040215 0.13357739 0.62162393 0.0019193976 503 122
0.20695134 0.13355231 0.62042356 0.0018742169 504 122
0.21042565 0.13387431 0.62079936 0.0016981228 516 125
0.21338692 0.13386552 0.61960518 0.0017650783 524 127
0.21692333 0.13421278 0.62002337 0.0016713124 529 128
0.21971843 0.13409819 0.61827368 0.0018495455 533 129
0.2229276 0.13423601 0.61765677 0.001831123 523 127
0.22660935 0.13465099 0.61828023 0.0017110961 510 124
0.22976069 0.13474409 0.61739302 0.0019097279 520 126
0.23286499 0.13480757 0.6163426 0.0016994609 514 125
0.23617126 0.13498487 0.61578715 0.0016882439 520 126
0.23939623 0.13511184 0.61497837 0.0016555759 537 130
0.24297683 0.13543388 0.61503619 0.0016760183 531 129
0.24607635 0.13548319 0.61383855 0.0016740781 532 129
0.24955671 0.13573842 0.61356235 0.001717277 510 124
0.25346109 0.13621546 0.61427784 0.0019657526 501 122
0.25685704 0.1364112 0.61372006 0.0017524483 495 120
0.2601707 0.1365592 0.61295265 0.0017485494 501 122
0.26319584 0.13655411 0.6115123 0.0019610778 486 118
0.26644003 0.13666146 0.61059761 0.0018495648 464 113
0.26993859 0.13689539 0.61027604 0.002025007 447 108
0.27321652 0.13701348 0.60947371 0.0020089957 450 109
0.27631715 0.137041 0.60831481 0.0022160586 426 103
0.27996528 0.13733654 0.60839909 0.0019660469 416 101
0.28346443 0.13755339 0.60819525 0.0019941758 409 99
0.28639331 0.13749185 0.60683239 0.0021802122 393 95
0.28920481 0.13737583 0.60531193 0.0021037101 375 91
0.29210579 0.13730431 0.60407758 0.0023947111 365 88
0.29534975 0.13739382 0.60364705 0.0023151604 339 82
0.29852784 0.13745116 0.6031757 0.0023447578 317 77
0.301469 0.13739935 0.60233188 0.0024110442 305 74
0.30470631 0.13748223 0.60218894 0.0024648386 294 71
0.30739167 0.13731688 0.60107273 0.0027727345 285 69
0.31039375 0.13729486 0.60070008 0.0029598705 274 66
0.31366166 0.13738972 0.60095567 0.0028416323 278 67
0.31726405 0.13762785 0.60195494 0.0026487221 272 66
0.31992015 0.13745484 0.60127252 0.0027978676 251 61
-0.41784206 0.16248892 0.70887202 0.0087694135 63 15
-0.41057152 0.16102298 0.70087928 0.009208018 64 15
-0.41156903 0.1628024 0.70709181 0.00746653 80 19
-0.40956941 0.16341683 0.70830858 0.006504742 95 23
-0.40461105 0.1628512 0.70450091 0.0059453673 102 24
-0.40207434 0.16325884 0.70500034 0.0067252414 105 25
-0.3996262 0.16371 0.70578098 0.0059340899 108 26
-0.39762539 0.16435418 0.70749068 0.0056339805 103 25
-0.39367381 0.1641964 0.70585436 0.005441905 112 27
-0.38996446 0.16413769 0.70475835 0.005183985 116 28
-0.38608587 0.16400604 0.70346761 0.0051518772 116 28
-0.38343006 0.16439618 0.70453578 0.0061412049 124 30
-0.38080317 0.16480616 0.70581192 0.0047381176 129 31
-0.37660667 0.16453817 0.7043131 0.0055720634 133 32
-0.37219208 0.16416889 0.70251352 0.004922335 140 34
-0.36757109 0.16370048 0.70042413 0.0048200097 141 34
-0.36482027 0.16406398 0.70202935 0.0046545472 148 36
-0.36154941 0.16419849 0.70279074 0.0046595428 151 36
-0.35748819 0.16397312 0.70214707 0.0048223673 164 39
-0.35231444 0.16322781 0.69940829 0.0042193369 175 42
-0.3475579 0.16266258 0.697568 0.0037968003 177 43
-0.3440327 0.16266795 0.69829941 0.0036758573 177 43
-0.34094396 0.16288194 0.70004982 0.0036253603 182 44
-0.33724019 0.1628035 0.70066047 0.0041141999 186 45
-0.33301008 0.1624666 0.70026606 0.0033806043 197 48
-0.32820576 0.16183937 0.69871515 0.0032365592 214 52
-0.32378986 0.16139212 0.6980263 0.0030114751 228 55
-0.31804699 0.16026641 0.6944741 0.0033935329 216 52
-0.31423137 0.16009767 0.69513154 0.0031695599 229 55
-0.30993241 0.15967613 0.69475019 0.0030770362 232 56
-0.30575293 0.15930732 0.69464499 0.0028690817 247 60
-0.30125538 0.15876243 0.69380796 0.003299816 261 63
-0.29716027 0.15841943 0.69387966 0.0026743007 266 64
-0.29243276 0.15772732 0.6924383 0.0026436839 275 67
-0.28765634 0.15699208 0.69081092 0.0029523626 276 67
-0.28369352 0.15668854 0.69108284 0.002575011 283 68
-0.27995777 0.15650456 0.6918804 0.0025492415 292 71
-0.27534115 0.15581758 0.69044185 0.0029306337 298 72
-0.27105179 0.15530095 0.68973702 0.002733357 312 76
-0.26665589 0.15470952 0.68867475 0.0024330977 310 75
-0.26275614 0.15439448 0.68881518 0.0026659945 315 76
-0.25819972 0.15368046 0.68714321 0.0028183989 322 78
-0.25402427 0.15317743 0.68637741 0.0022889953 337 82
-0.24984375 0.15265794 0.68549961 0.0026538582 323 78
-0.24612141 0.15240818 0.68579549 0.0023931491 315 76
-0.24220197 0.1520279 0.68546611 0.0024591195 309 75
-0.23786923 0.15137409 0.68386024 0.0024776701 302 73
-0.23378326 0.15086114 0.68284577 0.0023673342 319 77
-0.22980157 0.15040188 0.6820302 0.0023123117 329 80
-0.22532563 0.14960119 0.67961967 0.0024690037 329 80
-0.21781428 0.14673224 0.66774768 0.0022680066 344 83
nan nan nan 0 435 106
-0.17402673 0.12077217 0.55143136 0.0014381692 754 183
-0.17140931 0.12077806 0.55232513 0.0012628793 838 204
nan nan nan 0 594 144
-0.18178634 0.13213848 0.6060769 0.0015499326 606 147
-0.18303622 0.13518339 0.620915 0.001587716 591 144
-0.18053478 0.13551189 0.62326592 0.0016019371 583 142
-0.17861126 0.13629229 0.62767041 0.0017548113 581 141
-0.17726806 0.13754934 0.63425076 0.0016355499 582 141
-0.17492084 0.13805707 0.63735503 0.0015745343 591 144
-0.17339757 0.1392442 0.64357471 0.0016348691 587 143
-0.17097762 0.13974066 0.64658093 0.0015996443 579 141
-0.16936785 0.14092922 0.65276861 0.0016183716 573 139
-0.16723433 0.14171776 0.65708393 0.0016256415 566 137
-0.16537043 0.14276865 0.66259581 0.0016738203 541 131
-0.16270436 0.14315397 0.66499728 0.0018463406 520 126
-0.16019104 0.14369132 0.66808176 0.0019158542 542 132
-0.15734857 0.14394894 0.66984254 0.001671327 545 132
-0.15447591 0.14418884 0.67149693 0.0016865219 567 138
-0.15133101 0.14417931 0.67196572 0.0017746445 566 137
-0.14836942 0.14434771 0.67324013 0.0015981307 581 141
-0.14516336 0.14428039 0.67339194 0.001633035 588 143
-0.14214319 0.14439896 0.67438883 0.0015786072 592 144
-0.1394804 0.14489412 0.6771245 0.0015755873 601 146
-0.13569717 0.14422137 0.67438042 0.0016662825 584 142
-0.13262507 0.14429045 0.67508316 0.0015968671 585 142
-0.12947609 0.14427719 0.67538106 0.0015811146 593 144
-0.12623625 0.14415953 0.67517084 0.0015857018 586 142
-0.12284881 0.14386302 0.67410403 0.0016571551 578 140
-0.11967347 0.14380591 0.67414033 0.0016825113 579 141
-0.11675467 0.14406227 0.67562985 0.0016623253 575 140
-0.11353969 0.14395723 0.67540848 0.001625941 564 137
-0.11026517 0.14376862 0.67477906 0.0017374731 558 136
-0.10702296 0.14361235 0.67428577 0.0016682678 565 137
-0.10371717 0.1433588 0.67332077 0.0016249587 563 137
-0.10061952 0.14338614 0.67366123 0.0017207613 562 137
-0.097259633 0.1430296 0.67218465 0.0016364257 558 136
-0.094036981 0.14285797 0.67156386 0.0018280656 562 137
-0.090824507 0.14269063 0.67095107 0.0016411393 559 136
-0.087686069 0.14263187 0.67083722 0.0016546739 550 134
-0.084829278 0.14304374 0.67292666 0.0016608621 552 134
-0.081580222 0.14280032 0.67192328 0.0018448789 548 133
-0.078549363 0.14293467 0.67268765 0.0016527355 554 135
-0.075297557 0.14266151 0.67152482 0.0016578409 552 134
-0.072101995 0.14247599 0.6707654 0.0017539639 542 132
-0.068821646 0.14209875 0.66909468 0.0016525607 550 134
-0.065773726 0.14218853 0.66961497 0.0016553982 551 134
-0.06237239 0.14148545 0.66639358 0.0016842763 543 132
-0.059496272 0.14196268 0.66872442 0.001817594 545 132
-0.056239091 0.14153308 0.66677696 0.0016629164 549 133
-0.053160645 0.14152965 0.66683072 0.0017449287 547 133
-0.050094016 0.14155914 0.66703379 0.0017387512 543 132
-0.046969913 0.14141947 0.66643423 0.0017894709 542 132
-0.043672785 0.1407028 0.66311002 0.0016726356 541 131
-0.040562678 0.14052609 0.6623252 0.0017234882 537 130
-0.037460219 0.14034924 0.66153514 0.0019192201 547 133
-0.034444652 0.1404954 0.66226327 0.0018793811 548 133
-0.031360056 0.1403611 0.66166514 0.0016638992 544 132
-0.02827929 0.14021683 0.66101593 0.0016539218 553 134
-0.025169129 0.13987434 0.65942848 0.0017547782 541 131
-0.022164783 0.14010654 0.66054708 0.0017278683 535 130
-0.019084465 0.13985604 0.65938622 0.0018335982 538 131
-0.016015962 0.13961355 0.65826011 0.0016583182 548 133
-0.012977634 0.13958222 0.65812618 0.0016850367 539 131
-0.0099674119 0.13992634 0.65975958 0.0017398008 526 128
-0.0068961252 0.13933891 0.65699774 0.0017550322 532 129
-0.003851837 0.13880396 0.65448046 0.0016699907 545 132
-0.00083500013 0.13896634 0.65524822 0.0016926624 531 129
0.0021790909 0.13850538 0.65307426 0.0016686517 535 130
0.0051886621 0.13845868 0.65285063 0.0017366328 545 132
0.0082096504 0.13863908 0.65369481 0.0016658911 545 132
0.011206204 0.13842076 0.65265626 0.0016667156 549 133
0.014223171 0.13849366 0.65298778 0.0018790738 544 132
0.017167764 0.13795948 0.6504541 0.0016778306 538 131
0.020067308 0.13727604 0.6472137 0.0017826715 558 136
0.023026563 0.13712513 0.64648086 0.001793928 546 133
0.025931306 0.13672143 0.64455289 0.0016620314 543 132
0.028897094 0.13668951 0.64437431 0.0016827175 560 136
0.031892821 0.13679194 0.64482528 0.0016638513 547 133
0.034908328 0.13695452 0.64555573 0.0016536708 550 134
0.037811942 0.13668707 0.64425516 0.0018466454 553 134
0.040631603 0.13617723 0.64180803 0.0017114352 544 132
0.043468855 0.13579158 0.63994187 0.0017849832 540 131
0.046350669 0.13558534 0.63891661 0.0018648059 548 133
0.049273785 0.13551734 0.63853776 0.0016611884 539 131
0.052389536 0.13595694 0.64054501 0.0016507624 551 134
0.055377904 0.13603666 0.64085078 0.0017759034 547 133
0.057865825 0.13494128 0.63561517 0.0016562302 549 133
0.060546249 0.13437887 0.6328845 0.0017329046 546 133
0.063712098 0.13489597 0.63523138 0.001795774 550 134
0.066244096 0.13408463 0.63131535 0.001731606 548 133
0.0692949 0.13434751 0.63245022 0.001798127 559 136
0.07216005 0.13424377 0.63185096 0.001792407 552 134
0.074805327 0.13375494 0.62943119 0.0016502062 546 133
0.077352323 0.13313353 0.62637979 0.0016278411 565 137
0.080410987 0.13340582 0.62752438 0.001631652 559 136
0.083483852 0.13368192 0.62867641 0.0018099832 555 135
0.085531831 0.13235348 0.62227362 0.0016227224 571 139
0.088310704 0.13220577 0.62141317 0.0017974032 563 137
0.091415785 0.13254027 0.62280798 0.00161959 565 137
0.093346968 0.13120437 0.61634314 0.001609344 566 137
0.096563704 0.13170102 0.61847603 0.0016149041 568 138
0.099577643 0.13190046 0.61919922 0.0017780173 563 137
0.10205624 0.13139944 0.61662149 0.001845311 562 137
0.10483764 0.13130498 0.61593872 0.0017771353 574 139
0.107213 0.13072044 0.61294383 0.001619219 568 138
0.10954604 0.13011584 0.60984236 0.0016937188 566 137
0.11308426 0.13093711 0.61340761 0.0016249008 566 137
0.11609417 0.13112138 0.61397034 0.0017036792 568 138
0.11848856 0.13061826 0.6112982 0.0016517317 570 138
0.12083628 0.13008846 0.60848635 0.001695391 574 139
0.12351599 0.12993212 0.60740501 0.0018133711 572 139
0.12609592 0.12968016 0.6058591 0.0016220394 567 138
0.12884192 0.12960629 0.60512686 0.0016236396 567 138
0.13060853 0.12857144 0.59989125 0.0018530256 573 139
0.13320264 0.1283775 0.5985626 0.001715404 568 138
0.13609715 0.1284751 0.59857243 0.0017325255 565 137
0.1388682 0.12845455 0.59800971 0.0016375704 566 137
0.14021771 0.12714583 0.59143239 0.0016694139 568 138
0.14253147 0.12674515 0.58906269 0.0016543445 553 134
0.14504193 0.12653126 0.58753985 0.0016774416 536 130
0.14709806 0.12593636 0.58422714 0.0017306344 516 125
0.14971586 0.12583528 0.58318365 0.0016650682 549 133
nan nan nan 0 643 156
0.14001568 0.11353303 0.5250625 0.00140848 707 172
0.14237511 0.11344621 0.52407223 0.0017844462 497 121
nan nan nan 0 334 81
0.17432021 0.13424902 0.61869103 0.0022134094 381 92
0.17827709 0.13503534 0.62152427 0.0020797083 469 114
0.18180306 0.13547504 0.62272382 0.0017942763 477 116
0.18483578 0.13553903 0.62216145 0.0018200276 474 115
0.18803114 0.13571842 0.62209499 0.001777102 487 118
0.19151314 0.13609597 0.62290037 0.0017498548 501 122
0.19439879 0.1360447 0.62170774 0.0017550713 490 119
0.19727816 0.13599062 0.62046969 0.0017377352 510 124
0.20075566 0.13634436 0.62105668 0.0016927416 522 127
0.20460479 0.13693652 0.62268877 0.0017455028 502 122
0.20759888 0.13694766 0.62164068 0.0017285544 501 122
0.21002583 0.13658962 0.61888647 0.0019111799 527 128
0.21385358 0.1371399 0.62021333 0.0017916874 548 133
0.2170696 0.13728815 0.61968386 0.0017362382 531 129
0.22040527 0.13750701 0.61943877 0.0016513536 551 134
0.22363494 0.13765477 0.61884022 0.0016830413 534 130
0.22693966 0.13784422 0.61839736 0.0017835823 518 126
0.23042749 0.13813849 0.61839366 0.0017627238 515 125
0.23365197 0.13826935 0.61763 0.0017042689 513 125
0.23674269 0.13831875 0.61647904 0.0017132415 521 127
0.2400233 0.13847643 0.61579025 0.0017702178 525 127
0.24289973 0.13839996 0.61404449 0.001777819 525 127
0.2462488 0.13859132 0.61347556 0.001712093 520 126
0.24986491 0.13892655 0.61353213 0.0017346937 510 124
0.25361603 0.13932796 0.613873 0.0017499074 499 121
0.25712889 0.13959052 0.61360085 0.0019170042 498 121
0.26018676 0.13960284 0.61223817 0.0017878585 480 117
0.2633628 0.13967754 0.61116701 0.0017704263 484 117
0.26666313 0.1398157 0.61039835 0.0019874917 471 114
0.27026206 0.14010556 0.6103223 0.0018583569 449 109
0.27367461 0.1402934 0.60984021 0.0019549993 412 100
0.27676478 0.14031366 0.60867912 0.0021609585 411 100
0.27979168 0.14030176 0.60743839 0.0020948423 408 99
0.28315321 0.1404561 0.60698438 0.0019773641 409 99
0.28672546 0.14071058 0.60703635 0.0021049434 379 92
0.28935841 0.14050356 0.60518104 0.0022932955 365 88
0.29207623 0.14034165 0.60361367 0.002252664 364 88
0.29520458 0.14037833 0.60299832 0.0025322137 340 82
0.29872668 0.14059956 0.60327733 0.0028321317 309 75
0.30297044 0.14115253 0.605084 0.0024632646 296 72
0.30572438 0.14100729 0.60400748 0.0025580914 283 68
0.30748841 0.14041288 0.60112286 0.0025651001 282 68
0.31023997 0.14027669 0.600317 0.0026909984 266 64
0.31462905 0.14087631 0.60277587 0.0028573079 259 63
0.31732488 0.14071357 0.60208863 0.0031422065 252 61
0.31885725 0.14004292 0.59934288 0.0029381709 247 60
-0.41831338 0.16620894 0.71032649 0.010233846 74 18
-0.41190279 0.16505733 0.70377672 0.010082555 65 15
-0.40881553 0.1652291 0.70295882 0.011561776 62 15
-0.40843967 0.1665092 0.70692706 0.006957408 87 21
-0.40556505 0.16678412 0.70670271 0.0068531982 90 21
-0.40211192 0.16682391 0.70557237 0.0073449067 104 25
-0.40025166 0.16753109 0.70735657 0.0058422084 106 25
-0.39675125 0.16755831 0.70636666 0.0062200436 104 25
-0.39437819 0.16806646 0.70750725 0.005507546 118 28
-0.38973978 0.16760966 0.70469618 0.0050831186 121 29
-0.38630724 0.16766784 0.70416737 0.0050443122 117 28
-0.38192385 0.16731055 0.70201385 0.0050512981 119 29
-0.37956831 0.16784324 0.70371681 0.0056990338 123 29
-0.37684339 0.16822115 0.70489454 0.005125483 130 31
-0.37131405 0.16734244 0.70093685 0.0046885205 130 31
-0.36754534 0.16724785 0.70039654 0.0046085869 138 33
-0.36425662 0.167372 0.70090538 0.0041296803 152 37
-0.36120817 0.16761006 0.70202559 0.0041467017 152 37
-0.35744315 0.16751704 0.70189339 0.0039450205 164 39
-0.35141173 0.16634929 0.69738877 0.0038025265 175 42
-0.34749341 0.16616827 0.69714797 0.0036646801 179 43
-0.34443203 0.1663975 0.69875622 0.003793403 179 43
-0.34089726 0.16640042 0.69953823 0.0035839423 187 45
-0.33708945 0.16626872 0.69987202 0.0034500682 195 47
-0.33275858 0.1658735 0.69920522 0.0040288726 191 46
-0.32853165 0.16552219 0.69882321 0.0040406748 200 48
-0.32395941 0.1649874 0.69775647 0.0038490184 213 51
-0.31921384 0.1643516 0.69634086 0.0038728856 216 52
-0.31428009 0.1636038 0.69451749 0.0034880463 224 54
-0.31047583 0.16343379 0.69520724 0.0032932619 227 55
-0.30542481 0.16259621 0.69310677 0.0029290223 236 57
-0.301449 0.16231841 0.69343108 0.0029579171 239 58
-0.29736981 0.16197787 0.69352078 0.0028307028 247 60
-0.29162675 0.16071235 0.6896652 0.0026465412 269 65
-0.28786737 0.160523 0.69043517 0.0030086676 263 64
-0.28422979 0.16039781 0.69149214 0.0026384338 272 66
-0.28008866 0.15998197 0.69129735 0.0028801912 287 69
-0.27567759 0.15939981 0.69037378 0.0025012847 299 72
-0.271314 0.15883093 0.68949044 0.0026142297 294 71
-0.26723486 0.15841635 0.68925583 0.0026768199 292 71
-0.2621147 0.15736614 0.6862253 0.0026016047 299 72
-0.25818133 0.15701051 0.68619007 0.0024039224 313 76
-0.25414652 0.15658304 0.68580991 0.0023872303 314 76
-0.2501719 0.15618181 0.68551028 0.0027924844 322 78
-0.24617237 0.15575401 0.68505752 0.0024757285 305 74
-0.24228646 0.1553874 0.68483585 0.0023760223 318 77
-0.23825313 0.1549148 0.68410701 0.0025057243 311 75
-0.23432744 0.1544999 0.68359131 0.0023526768 323 78
-0.23011965 0.15388456 0.68214524 0.0024408158 338 82
-0.22563055 0.15306062 0.6797272 0.0026877583 333 81
-0.22025982 0.15160568 0.67445314 0.002312049 330 80
nan nan nan 0 406 98
-0.17657198 0.1252027 0.55886489 0.0013952048 726 176
-0.17143875 0.12342515 0.55180883 0.0012623107 834 203
nan nan nan 0 584 142
-0.18073803 0.13423279 0.6019429 0.0015690308 596 145
-0.18205908 0.13738513 0.61695969 0.0016196398 577 140
-0.18081167 0.1386705 0.6235888 0.0018429724 569 138
-0.17868553 0.13931341 0.62730926 0.0017121284 582 141
-0.17641467 0.13986328 0.63058645 0.0016645743 581 141
-0.17497931 0.14110579 0.63696557 0.0016000469 577 140
-0.17339958 0.14227323 0.64298874 0.0015964655 585 142
-0.17151591 0.14322835 0.6480332 0.001614044 570 138
-0.16924752 0.14389093 0.65173274 0.0016582613 554 135
-0.16694887 0.14455175 0.65540165 0.0016908532 533 129
-0.16474353 0.14531966 0.65953416 0.0016999122 528 128
-0.16207583 0.14570133 0.6618911 0.0017679633 550 134
-0.15977712 0.14643602 0.66582924 0.001664069 544 132
-0.15672135 0.14649235 0.66665965 0.0016333036 561 136
-0.15374538 0.14662702 0.66782153 0.0017457065 562 137
-0.1504752 0.1464809 0.66767961 0.001681129 571 139
-0.14769034 0.14681099 0.66968459 0.0017125783 571 139
-0.14464647 0.14689235 0.67053282 0.0016102238 574 139
-0.14161135 0.1469864 0.6714167 0.0017415117 571 139
-0.13875028 0.14726938 0.67314285 0.0017870833 577 140
-0.13502827 0.14663057 0.67063314 0.0016755967 581 141
-0.13199331 0.14672527 0.67145622 0.00161355 574 139
-0.12882394 0.1466715 0.67158008 0.0016140983 572 139
-0.125469 0.14639854 0.6706804 0.0017609475 570 138
-0.12223214 0.14625297 0.67034501 0.0017493513 565 137
-0.11911238 0.14624359 0.67061573 0.0016225417 564 137
-0.1156859 0.14584698 0.66909295 0.0016284421 555 135
-0.11267927 0.14597243 0.66994828 0.0016612211 552 134
-0.10935739 0.14568503 0.66889298 0.0018046864 559 136
-0.10636336 0.14583035 0.6698091 0.001814478 551 134
-0.10327273 0.14584796 0.67012441 0.0017797103 545 132
-0.10007843 0.14571573 0.66973728 0.0017710079 551 134
-0.096863553 0.14554414 0.66915572 0.00188188 541 131
-0.093790404 0.14558119 0.66952062 0.0016633432 550 134
-0.090420954 0.14514513 0.66769707 0.0016658478 542 132
-0.087418094 0.14528753 0.66852278 0.001773496 547 133
-0.084405176 0.14542302 0.66930598 0.001886739 536 130
-0.080969021 0.14481188 0.66664195 0.0016879715 535 130
-0.077888593 0.14481375 0.66678935 0.0016663581 548 133
-0.074882686 0.14496005 0.66759247 0.0017081944 528 128
-0.071732827 0.14482827 0.66710603 0.0016898481 531 129
-0.06849587 0.14450093 0.66570997 0.0017435502 532 129
-0.065331116 0.14430229 0.66489828 0.0017018889 530 129
-0.06218645 0.1441306 0.66420299 0.0018736782 537 130
-0.058942448 0.14369895 0.66230208 0.0017613806 531 129
-0.055963013 0.14390035 0.66331178 0.0017105684 519 126
-0.052944258 0.1440181 0.6639297 0.0019308585 523 127
-0.049688779 0.14346682 0.661457 0.0017029323 534 130
-0.046610054 0.14338711 0.66115248 0.0019307137 529 128
-0.043443147 0.14300598 0.65945244 0.0017544794 531 129
-0.040390089 0.14297041 0.65934056 0.0016915734 532 129
-0.037294153 0.14276493 0.65843999 0.0018236688 546 133
-0.034158334 0.14235674 0.65659988 0.0016836495 534 130
-0.031057743 0.14203027 0.65513188 0.0016987616 525 127
-0.027993642 0.14181823 0.65418756 0.0016937575 531 129
-0.025051992 0.14225028 0.6562103 0.0016982732 531 129
-0.022079883 0.14260435 0.65786964 0.0016966574 534 130
-0.019040059 0.14256424 0.65770704 0.0017020791 527 128
-0.015933992 0.14191888 0.65474844 0.0016966001 535 130
-0.01286052 0.14132993 0.65204638 0.0017818898 528 128
-0.0098322788 0.14103025 0.65067577 0.0017145864 522 127
-0.0068389107 0.14118718 0.65140861 0.0019212349 531 129
-0.0038411613 0.14142869 0.65252841 0.0017043507 527 128
-0.00082613056 0.14047948 0.64815122 0.0017262381 530 129
0.0021519496 0.13975406 0.64480358 0.0016931021 530 129
0.0051759034 0.14112112 0.65110725 0.0017864793 534 130
0.0081152692 0.1400248 0.64604205 0.0016804986 536 130
0.011073804 0.13975926 0.64480692 0.0018235641 545 132
0.014035101 0.13963363 0.64421403 0.0016693467 540 131
0.017013835 0.13969505 0.64448088 0.0016831058 538 131
0.019963359 0.13953407 0.64371824 0.0016671187 546 133
0.022855788 0.13906735 0.64154172 0.0016971428 547 133
0.025788669 0.13892555 0.64086062 0.0018092633 539 131
0.028729359 0.13885066 0.64048433 0.0016775235 547 133
0.031800959 0.13936344 0.64281482 0.00166795 545 132
0.034648079 0.13888891 0.64058691 0.0016718314 545 132
0.037475847 0.13841748 0.6383695 0.0016809397 545 132
0.040435057 0.13846487 0.63854015 0.0019009599 539 131
0.043365709 0.13841467 0.63825601 0.001686346 533 129
0.045814294 0.13693005 0.63135296 0.0016901119 548 133
0.048939336 0.13752386 0.63402814 0.0018335229 547 133
0.051678732 0.13702811 0.63167441 0.0016383476 555 135
0.054504618 0.13680243 0.63055992 0.001666129 543 132
0.057510938 0.13702953 0.63152623 0.0016538143 552 134
0.060376212 0.13691485 0.63091058 0.0016719531 538 131
0.063002378 0.13629347 0.62795341 0.0018394392 551 134
0.065869421 0.13622496 0.62753677 0.0016508814 547 133
0.068734214 0.13615775 0.62711841 0.0016529443 551 134
0.071434744 0.13578376 0.62527919 0.0017430774 545 132
0.074221715 0.13559675 0.62429309 0.0016628103 543 132
0.077114552 0.13560991 0.62421948 0.0016620029 544 132
0.079766817 0.13521433 0.62225556 0.0017504407 546 133
0.082093023 0.13431281 0.61795473 0.0017136148 553 134
0.08469972 0.13391544 0.61596447 0.0018578685 567 138
0.087357156 0.13362156 0.61444044 0.0016256154 567 138
0.089912742 0.13319531 0.61229736 0.0017341806 570 138
0.092538886 0.13289644 0.61072904 0.0016295114 562 137
0.094255894 0.13134842 0.60341078 0.001668467 583 142
0.098339245 0.13309211 0.61120152 0.0016411797 563 137
0.10117176 0.13309273 0.61097109 0.0016311405 561 136
0.10399757 0.13308471 0.6106872 0.0016405486 563 137
0.10635436 0.13249284 0.60771072 0.0016342163 558 136
0.10903115 0.13231988 0.60664213 0.0017276978 569 138
0.11133433 0.13171363 0.60357308 0.0016331752 566 137
0.1139886 0.13154233 0.60248262 0.0016410368 557 135
0.11688537 0.13165236 0.60266399 0.0016344556 565 137
0.11891192 0.13080002 0.59842449 0.0017234328 560 136
0.12084746 0.12988885 0.59390253 0.0016501454 562 137
0.12321939 0.12947699 0.59164882 0.0017795698 574 139
0.12553096 0.12902109 0.58917731 0.0017382617 570 138
0.12771359 0.12845503 0.58618623 0.0017284402 583 142
0.12981802 0.12783569 0.58293563 0.0016790314 593 144
nan nan nan 0 583 142
nan nan nan 0 594 144
nan nan nan 0 607 147
nan nan nan 0 607 147
nan nan nan 0 604 147
0.14364021 0.12564963 0.57001293 0.0016780359 572 139
0.14625601 0.12559995 0.56921411 0.0018294265 574 139
0.1471618 0.12410986 0.5618698 0.0015849133 620 151
0.1460367 0.12098977 0.5471434 0.0019062498 521 127
nan nan nan 0 272 66
0.16813862 0.13455665 0.60707432 0.0024410451 334 81
0.17474498 0.13750203 0.61959189 0.0019026303 446 108
0.17803498 0.1377838 0.6200586 0.0017791355 483 117
0.18224896 0.13875999 0.62361163 0.001807296 474 115
0.18569119 0.13912676 0.62438601 0.0018523393 453 110
0.18894745 0.13934493 0.62445736 0.0018284093 468 114
0.19154358 0.13907699 0.62231803 0.0017663602 485 118
0.19444422 0.13903497 0.62115872 0.0017458727 506 123
0.1976555 0.139213 0.62094855 0.0017033478 518 126
0.20123395 0.13964057 0.62181371 0.0017526103 499 121
0.20470478 0.13998209 0.6222567 0.0018388686 501 122
0.20780781 0.14006592 0.62151796 0.0017084766 508 123
0.21087374 0.14012273 0.62062532 0.0018289166 541 131
0.21369606 0.14001833 0.6189872 0.0016096415 565 137
0.2172254 0.14037368 0.61934805 0.0016475462 542 132
0.22057354 0.14060389 0.61912143 0.0016509204 539 131
0.22393695 0.14083754 0.61887699 0.0018183574 526 128
0.22727092 0.14104673 0.61849391 0.001858771 523 127
0.23072 0.14132099 0.61836648 0.0017133513 515 125
0.23410997 0.14155246 0.61802441 0.0017906608 514 125
0.23748048 0.14176643 0.61758173 0.0017745192 494 120
0.24039344 0.14170532 0.61592287 0.0017329314 504 122
0.24319421 0.14158042 0.61397624 0.0017876235 525 127
0.24630505 0.14163685 0.61280859 0.0017535189 517 126
0.24984728 0.14193699 0.61268884 0.0018643346 511 124
0.25374144 0.14242753 0.61338562 0.0018059704 490 119
0.25703049 0.14257082 0.61258942 0.0019742346 474 115
0.26044172 0.14277777 0.61207867 0.0019655791 479 116
0.2637938 0.1429479 0.61142898 0.0018571051 452 110
0.2671414 0.14311171 0.61077958 0.0018682802 441 107
0.2706756 0.1433707 0.61057073 0.0019399058 428 104
0.2742396 0.14363952 0.61044562 0.001956343 421 102
0.27730766 0.14364551 0.60925615 0.0020163006 399 97
0.27998707 0.14345224 0.60728651 0.0023970958 388 94
0.28331044 0.14358954 0.60678816 0.0022376988 390 95
0.28675148 0.14378288 0.60660368 0.0021275065 365 88
0.28985476 0.14380458 0.60578024 0.0021171807 366 89
0.29206705 0.14338839 0.60320771 0.002551334 350 85
0.29582849 0.1437335 0.60393739 0.0026390476 328 79
0.30002552 0.14428103 0.60561788 0.0023679372 319 77
0.30361187 0.14452676 0.60613704 0.002846403 282 68
0.30644104 0.14441071 0.60525048 0.0028083397 278 67
0.30826822 0.14382951 0.60253 0.0026113333 282 68
0.31075913 0.14356634 0.60125834 0.002703917 261 63
0.31378824 0.14355452 0.60115474 0.0030663854 251 61
0.31666169 0.1434724 0.60087162 0.0028236848 242 58
0.31884515 0.14308225 0.59941137 0.0034001772 233 56
-0.42024362 0.17052896 0.71428633 0.0086053982 78 19
-0.41312453 0.16906957 0.70651507 0.0070725232 81 19
-0.40985417 0.16917373 0.70536864 0.008785326 63 15
-0.40806255 0.16989531 0.70687115 0.0082664024 72 17
-0.40626469 0.17062695 0.70848918 0.0074316068 86 20
-0.40280819 0.17066874 0.70732695 0.0061254371 103 25
-0.39841616 0.17031132 0.70460767 0.0066074864 109 26
-0.39638534 0.17096594 0.70617265 0.0061997506 112 27
-0.39239514 0.17077966 0.70436466 0.0063836835 119 29
-0.38965473 0.17113887 0.70491374 0.0060732956 123 29
-0.38463476 0.17049429 0.70144147 0.0049123219 120 29
-0.38077551 0.17035697 0.70017588 0.0050470494 124 30
-0.37838086 0.1708785 0.70173651 0.004814154 130 31
-0.37607518 0.17145051 0.70362455 0.0048236609 127 30
-0.37229994 0.1713571 0.7029075 0.0050245374 134 32
-0.3696233 0.17177239 0.70440644 0.0045471406 135 32
-0.36635816 0.17191966 0.70493758 0.0044850288 140 34
-0.3611235 0.1711365 0.70178658 0.0048199296 144 35
-0.3569912 0.17086531 0.70086783 0.0043933243 160 39
-0.35259557 0.17046137 0.69953573 0.0040030964 170 41
-0.34807378 0.16998759 0.69804603 0.0039757877 164 39
-0.34482142 0.17013039 0.69921523 0.0038060092 173 42
-0.34116828 0.17007636 0.6997003 0.003590327 182 44
-0.33670297 0.16961208 0.69861466 0.0036517344 180 43
-0.33250809 0.1692756 0.69816494 0.0042218128 190 46
-0.32767746 0.16860481 0.69643712 0.00352775 183 44
-0.32386878 0.168451 0.69693857 0.0038780856 198 48
-0.3197535 0.1681326 0.69684607 0.0032472764 208 50
-0.31501126 0.16747385 0.69541711 0.0031711506 215 52
-0.31063387 0.16699646 0.69480431 0.003009615 231 56
-0.30691049 0.16686384 0.69568342 0.0030808845 240 58
-0.3020367 0.16609557 0.69395763 0.0029269387 237 57
-0.29779947 0.16566359 0.69366968 0.002813502 252 61
-0.29230046 0.16451132 0.69038564 0.0026990662 268 65
-0.28804153 0.16403794 0.68996125 0.0027176891 260 63
-0.2843208 0.16386335 0.6908052 0.0028995981 270 65
-0.28042582 0.16358289 0.69120884 0.0026218521 274 66
-0.27564359 0.1627716 0.68936205 0.0025683613 283 68
-0.2720328 0.16264042 0.69038403 0.0027192668 285 69
-0.26847181 0.16253613 0.69150931 0.0025214422 290 70
-0.26370966 0.16169269 0.68946749 0.0025056077 293 71
-0.25839978 0.1604872 0.6858446 0.0026063286 296 72
-0.25490519 0.16039236 0.68693453 0.0024215053 308 75
-0.25069374 0.1598379 0.68602556 0.0027620434 301 73
-0.24659641 0.15934229 0.6853323 0.0025589278 292 71
-0.24253362 0.15885578 0.68463981 0.0024137611 310 75
-0.2388082 0.15857981 0.68481678 0.002749949 321 78
-0.23473686 0.15806317 0.68391472 0.0023978383 317 77
-0.23052415 0.1574353 0.68248796 0.0023274457 343 83
-0.22574802 0.15639894 0.67924237 0.0023630073 322 78
-0.22102031 0.15536629 0.67596126 0.0023012001 337 82
nan nan nan 0 384 93
nan nan nan 0 677 165
-0.17148605 0.12608626 0.55132824 0.0012024534 900 219
-0.17278197 0.12901555 0.56501794 0.0014618099 654 159
-0.17997779 0.13651249 0.59875125 0.0015583126 604 147
-0.18171179 0.14004089 0.6151194 0.0016097481 568 138
-0.18096139 0.1417385 0.62344736 0.0016020625 587 143
-0.17876764 0.14234322 0.62695068 0.001612577 577 140
-0.17648625 0.14289738 0.63020694 0.0016159366 574 139
-0.17501333 0.14413638 0.63646263 0.0016812045 586 142
-0.17339355 0.14529561 0.64234853 0.0016192388 572 139
-0.17119102 0.14599901 0.64619911 0.0016652212 544 132
-0.16854216 0.14634034 0.64842266 0.0016841219 532 129
-0.16555734 0.14639717 0.64935875 0.0016510118 553 134
-0.1639201 0.14767011 0.65566653 0.0016907799 545 132
-0.16079468 0.14762545 0.656102 0.0016644076 537 130
-0.15819532 0.14807145 0.6586926 0.0016568028 556 135
-0.15532963 0.14828096 0.66020751 0.0016538771 551 134
-0.15266544 0.14869523 0.66261071 0.0016250869 567 138
-0.14958824 0.14871606 0.66323751 0.0016385161 557 135
-0.14646791 0.14869398 0.66364837 0.0017549967 558 136
-0.14411554 0.14946744 0.66758889 0.0016429957 561 136
-0.14077063 0.1492229 0.66696149 0.0018345512 565 137
-0.13694015 0.14844099 0.66390699 0.0017028328 558 136
-0.1341134 0.14873609 0.66564679 0.0016454274 559 136
-0.1316039 0.14940532 0.66904277 0.0016381765 557 135
-0.12844658 0.14935373 0.66919261 0.0018224902 554 135
-0.1250174 0.1489756 0.66785908 0.0016494829 554 135
-0.12172871 0.14874989 0.66718882 0.0016565502 549 133
-0.11826722 0.14829573 0.66547453 0.0016734777 546 133
-0.11536013 0.14853102 0.66683644 0.0016736414 551 134
-0.11203828 0.14823052 0.66577631 0.0017404774 537 130
-0.1089709 0.14825919 0.66617835 0.0019021746 534 130
-0.10601442 0.14844486 0.66727096 0.0018371155 532 129
-0.10294773 0.14848268 0.66768479 0.0016904083 532 129
-0.099757582 0.1483393 0.66726959 0.0017024284 527 128
-0.09659595 0.14823051 0.66699606 0.0018863687 528 128
-0.093028434 0.14747109 0.66378111 0.0016824198 539 131
-0.090063177 0.14764713 0.66476357 0.0019054445 531 129
-0.087104976 0.14784764 0.66584492 0.0018561902 535 130
-0.083662152 0.14721006 0.66314036 0.001714268 527 128
-0.080583863 0.14718981 0.66320521 0.0017526258 523 127
-0.077516682 0.14718904 0.66334766 0.0018990698 535 130
-0.074429594 0.14714886 0.66330284 0.0017047581 531 129
-0.071236648 0.14688696 0.66224903 0.0017122736 520 126
-0.067815125 0.14610906 0.65885943 0.0017027049 530 129
-0.065135062 0.14693062 0.66267395 0.0018955092 530 129
-0.061880261 0.1464728 0.66071069 0.0017116341 519 126
-0.058678981 0.14610071 0.65912634 0.0016939761 539 131
-0.055527594 0.14581895 0.65794182 0.0016971618 527 128
-0.052469179 0.14576286 0.65776867 0.0017224955 516 125
-0.049317714 0.14542547 0.65631956 0.0018827163 520 126
-0.046246514 0.14529605 0.65580285 0.0017024621 530 129
-0.043191157 0.14520185 0.65543908 0.0016940631 524 127
-0.040113542 0.14501293 0.65464234 0.0018566737 535 130
-0.036999457 0.14465068 0.65305769 0.0018207235 524 127
-0.033722892 0.14353259 0.64805543 0.0017002685 526 128
-0.030871699 0.14418359 0.65103573 0.0017067224 530 129
-0.02788114 0.14425391 0.6513896 0.0019004474 531 129
-0.024814231 0.14389843 0.64981675 0.0019401154 523 127
-0.021740161 0.14339802 0.64758497 0.0017923687 527 128
-0.018739469 0.14329925 0.64716315 0.0017025626 522 127
-0.015786732 0.14359926 0.64853835 0.0018447272 514 125
-0.012788868 0.14353311 0.64825624 0.0019071194 520 126
-0.0097877719 0.14337923 0.64757437 0.0017557055 521 127
-0.0068023652 0.14342095 0.64777219 0.0017225115 524 127
-0.0038113603 0.14331755 0.64731127 0.0018963015 520 126
-0.00082045794 0.14248358 0.64354724 0.001715051 526 128
0.0021426089 0.14210837 0.64185172 0.0017439895 535 130
0.0051088561 0.14225709 0.6425193 0.0016941401 534 130
0.0080974698 0.14269073 0.64447027 0.0017165222 523 127
0.011053162 0.14246713 0.64344943 0.0017033106 529 128
0.013965517 0.14189786 0.64086384 0.0017476121 534 130
0.016737362 0.1403493 0.63385201 0.001669375 544 132
0.019837879 0.14160749 0.6395126 0.0016781857 533 129
0.02268585 0.14097056 0.63661075 0.0016723784 539 131
0.025360195 0.1395244 0.63005102 0.0016837446 536 130
0.028399538 0.14017729 0.6329661 0.0016667049 550 134
0.031493809 0.14095427 0.63643688 0.001813066 528 128
0.034168601 0.13988139 0.63155079 0.0016943164 537 130
0.036777772 0.13872966 0.62630481 0.0017945748 544 132
0.040199332 0.14058687 0.63463777 0.0018876496 536 130
0.042672861 0.13910149 0.62787652 0.0016561907 548 133
0.045403287 0.13858919 0.625503 0.0018698154 542 132
0.048209347 0.13835526 0.62438047 0.0016721168 546 133
0.051208582 0.13867079 0.62573183 0.0018679659 543 132
0.054045662 0.13853697 0.62504923 0.0018997918 538 131
0.056986582 0.13866942 0.62556136 0.0016658722 547 133
0.059582748 0.13799064 0.62240744 0.001672622 546 133
0.06229623 0.13763353 0.62069798 0.0016607582 553 134
0.065376438 0.13808243 0.62261569 0.0016810835 537 130
0.068168469 0.1379105 0.62172592 0.0016764626 543 132
0.070710659 0.13726746 0.61870462 0.0016923674 534 130
0.073696293 0.13750178 0.61962956 0.0016820969 543 132
0.076429412 0.13726507 0.61842245 0.00178439 536 130
0.07893499 0.1366515 0.61550891 0.0016606408 549 133
0.081250258 0.13576266 0.61134702 0.0017898439 558 136
0.083799884 0.13531204 0.60914963 0.001644638 557 135
0.086323172 0.13484965 0.60688949 0.0016443476 559 136
0.088987082 0.13462912 0.60570741 0.0016266969 567 138
0.091724671 0.13453016 0.60506082 0.0016386635 559 136
0.094153546 0.13399768 0.60245305 0.001625545 565 137
0.096475445 0.13334803 0.59930748 0.0016227127 571 139
0.098991893 0.13299611 0.59748834 0.0016957966 576 140
0.1016157 0.13280368 0.59637278 0.0017111014 577 140
0.10355379 0.13174905 0.59137344 0.0017096878 597 145
nan nan nan 0 614 149
nan nan nan 0 608 148
nan nan nan 0 604 147
nan nan nan 0 610 148
nan nan nan 0 615 149
nan nan nan 0 632 154
nan nan nan 0 631 153
nan nan nan 0 652 158
nan nan nan 0 670 163
nan nan nan 0 681 166
nan nan nan 0 703 171
nan nan nan 0 723 176
nan nan nan 0 792 193
nan nan nan 0 840 204
nan nan nan 0 858 209
nan nan nan 0 881 214
nan nan nan 0 893 217
0.13794893 0.11881573 0.52620733 0.001378223 741 180
nan nan nan 0 413 100
nan nan nan 0 319 77
0.17191558 0.14050679 0.620094 0.0022734615 340 82
0.17476524 0.1404442 0.6190331 0.0019179769 464 113
0.1790686 0.14153266 0.6230092 0.0019078761 482 117
0.18240264 0.14183213 0.62347305 0.0018658341 449 109
0.1859113 0.14225566 0.62444615 0.002050898 469 114
0.18893057 0.14229731 0.62370783 0.0017920451 480 117
0.19169107 0.14214577 0.62209105 0.0017827945 507 123
0.19476044 0.14222442 0.62144929 0.0019370044 519 126
0.1979703 0.14240175 0.62120426 0.0018467042 519 126
0.20136546 0.14270517 0.62147301 0.0018513928 512 124
0.20477948 0.14301293 0.62172312 0.0019886068 501 122
0.20809394 0.14324333 0.62160051 0.0017010336 516 125
