# .PCD v0.7 - Point Cloud Data file format
VERSION 0.7
FIELDS x y z noise intensity gray
SIZE 4 4 4 4 2 1
TYPE F F F F U U
COUNT 1 1 1 1 1 1
WIDTH 968
HEIGHT 1
VIEWPOINT 0 0 0 1 0 0 0
POINTS 968
DATA ascii
0.073756836 -0.21570915 0.52960896 0.0035609705 213 46
0.076558232 -0.21636932 0.53079474 0.0029029108 250 55
0.079631723 -0.21773051 0.5336802 0.0026273476 296 66
0.082432218 -0.21828291 0.53456318 0.0024593396 303 68
0.084781893 -0.2176443 0.53251374 0.0024116263 306 69
0.087742947 -0.21856649 0.53426653 0.0026348047 292 65
0.090660244 -0.2193297 0.53561115 0.00263934 290 65
0.09325812 -0.21929906 0.53499979 0.0025040319 294 66
0.095904149 -0.21938021 0.5346458 0.0027423822 288 64
0.098511837 -0.21937171 0.53405809 0.0027570562 276 61
0.10133155 -0.2198236 0.53457534 0.002662644 287 64
0.10422684 -0.22041255 0.53540891 0.0025291166 296 66
0.10697123 -0.2206613 0.53540003 0.0025487486 288 64
0.10963388 -0.22073357 0.53494889 0.0025660165 290 65
0.11266562 -0.22152816 0.53623325 0.0025465388 283 63
0.1160621 -0.22298719 0.53910762 0.0025777405 281 63
0.11867972 -0.22291799 0.5382722 0.0026926382 272 60
0.12200449 -0.22415107 0.54056782 0.0025637052 285 64
0.1243755 -0.22361656 0.53858966 0.0026817948 276 61
0.12685134 -0.22328894 0.53710502 0.002578517 280 62
0.13026257 -0.22458753 0.53952265 0.0027427082 278 62
0.13336366 -0.22530995 0.54054505 0.0027518384 271 60
0.13619827 -0.2255625 0.540434 0.0029348193 260 58
0.13873689 -0.2253246 0.53914654 0.0026468111 272 60
0.14208327 -0.22638278 0.54095817 0.0028165726 271 60
0.144756 -0.22634815 0.54015797 0.0026633074 271 60
0.14746986 -0.22637792 0.53951633 0.002594135 285 64
0.15052994 -0.22692858 0.54012161 0.0026700532 276 61
0.1538367 -0.22782515 0.54155546 0.0027932501 269 60
0.15624246 -0.22737941 0.53980947 0.0029189074 272 60
0.15939276 -0.22801393 0.54064286 0.0026245662 279 62
0.16309406 -0.2294022 0.5432753 0.0027674499 255 56
0.16617776 -0.22989042 0.54379183 0.0030809559 260 58
0.16912454 -0.23017645 0.54385173 0.0026703936 266 59
0.1720698 -0.23045129 0.54391056 0.0029539254 257 57
0.17486057 -0.23051387 0.54349726 0.0027604797 259 57
0.17777869 -0.23073982 0.54350114 0.0029424957 250 55
0.18085751 -0.23116423 0.54400659 0.0029138075 241 53
0.1839377 -0.23157774 0.54452294 0.0028255724 251 55
0.18721993 -0.23222959 0.5456388 0.0029283867 242 53
0.19010185 -0.2323731 0.5456025 0.0029552674 233 51
0.19285023 -0.23235171 0.54522467 0.0029937513 231 51
0.19605419 -0.23287201 0.54616547 0.0030748541 218 47
0.19914147 -0.23324113 0.54680085 0.0030563194 224 49
0.20184818 -0.2331605 0.54643345 0.003156346 213 46
0.20466317 -0.23320544 0.54641372 0.0036903233 203 44
0.20798168 -0.23381525 0.54777217 0.0033362485 197 42
0.21156889 -0.23470703 0.54984677 0.0039606788 177 38
0.21404287 -0.23435667 0.54906821 0.0036775647 177 38
0.2161829 -0.23365438 0.54752225 0.003748504 170 36
0.21833405 -0.23298182 0.5461027 0.0035432891 183 39
0.22131951 -0.23320526 0.54684067 0.0036561526 178 38
0.22434321 -0.23346293 0.54771709 0.003598372 178 38
0.2275942 -0.23394795 0.54918545 0.0037084357 171 36
0.23033752 -0.23390567 0.54947376 0.0038390302 171 36
0.23332065 -0.23410505 0.55038679 0.0044860635 159 33
0.23587415 -0.23387374 0.55034322 0.0041048992 152 32
0.23860796 -0.23382452 0.55078298 0.0048662666 139 28
0.24098061 -0.2334266 0.55045456 0.004300979 145 30
0.24361895 -0.23329215 0.55079943 0.0040963646 150 31
0.24685907 -0.23373055 0.55255008 0.004426627 137 28
0.25098169 -0.2349854 0.55628765 0.0049354406 121 24
0.25654694 -0.2375484 0.56318587 0.006273475 93 17
0.26224029 -0.24017285 0.57029814 0.0056688618 110 21
0.26595852 -0.24095125 0.57308906 0.0040695551 153 32
0.26915246 -0.24124312 0.57477528 0.0034866361 193 41
0.27223191 -0.2414273 0.57625359 0.0026022741 286 64
0.27626428 -0.2424439 0.57976991 0.00234008 339 77
0.27889735 -0.24222419 0.58037746 0.0021833025 389 89
0.28088948 -0.24145798 0.57971364 0.0021090088 372 85
nan nan nan 0 424 97
nan nan nan 0 626 146
nan nan nan 0 473 109
nan nan nan 0 162 34
nan nan nan 0 118 23
nan nan nan 0 121 24
nan nan nan 0 108 21
nan nan nan 0 84 15
nan nan nan 0 88 16
nan nan nan 0 102 20
nan nan nan 0 108 21
nan nan nan 0 114 22
-0.27224153 -0.19948944 0.49394134 0.005383451 109 21
-0.27014807 -0.19971851 0.49579829 0.0048365593 124 25
-0.26794088 -0.19986691 0.49680787 0.0051413733 117 23
-0.26541451 -0.19977771 0.49667382 0.0050613345 124 25
-0.26224914 -0.19920149 0.49489892 0.0046570189 125 25
nan nan nan 0 121 24
nan nan nan 0 118 23
-0.25529248 -0.19939129 0.49284986 0.0053813071 116 23
-0.25513133 -0.20115823 0.49613112 0.0048877965 126 25
-0.25359517 -0.2018645 0.4967452 0.0045789145 135 27
-0.25182715 -0.20239809 0.49691671 0.004687984 130 26
-0.24909173 -0.20215705 0.49519169 0.005062168 131 26
-0.24702373 -0.2024582 0.49481279 0.0052727032 125 25
-0.24493594 -0.20274901 0.49443075 0.0043191919 141 29
-0.24382924 -0.20386598 0.4960863 0.0044242013 140 29
-0.24300812 -0.20524685 0.49840462 0.0044295662 139 28
-0.24100085 -0.20564401 0.49836096 0.0047416813 126 25
-0.23878106 -0.20586617 0.49792793 0.0046364358 133 27
-0.23653933 -0.20607392 0.49749693 0.0045024594 134 27
-0.23440866 -0.20638382 0.49735072 0.0046493611 141 29
-0.2324966 -0.20689493 0.4977276 0.0044463859 140 29
-0.2303496 -0.20720576 0.49766201 0.0046143592 144 30
-0.22891973 -0.20817554 0.49921843 0.0042757085 161 34
-0.22604862 -0.20784166 0.49769166 0.0042934353 163 34
-0.22358371 -0.20787799 0.49709874 0.0039719022 155 32
-0.22147688 -0.20825179 0.49735907 0.0043026358 165 35
-0.21959348 -0.2088467 0.49819311 0.0037197662 172 36
-0.21743032 -0.20918624 0.49846515 0.0039774515 184 39
-0.21488753 -0.2091642 0.49792555 0.0034399584 190 41
-0.21262355 -0.20941627 0.49808913 0.0033182683 203 44
-0.21063589 -0.20994978 0.49897316 0.0035256357 211 46
-0.2079801 -0.20982224 0.49833798 0.0034244894 187 40
-0.20326145 -0.20758483 0.49274838 0.0034774197 206 45
nan nan nan 0 230 50
nan nan nan 0 313 70
nan nan nan 0 303 68
-0.15841392 -0.17015764 0.40343896 0.0028397618 281 63
-0.16225961 -0.17657338 0.41864172 0.0023452495 329 74
-0.17041397 -0.18791065 0.44555926 0.0023558177 325 73
-0.16847451 -0.18827315 0.44650325 0.0023515944 330 74
nan nan nan 0 343 78
nan nan nan 0 360 82
nan nan nan 0 367 83
nan nan nan 0 378 86
nan nan nan 0 391 89
nan nan nan 0 429 98
nan nan nan 0 421 96
-0.13643859 -0.17087689 0.40723822 0.0018343214 469 108
nan nan nan 0 495 114
-0.12892874 -0.16649579 0.3975966 0.0017783843 500 115
-0.12701678 -0.16661897 0.39832708 0.0017206152 520 120
-0.1238964 -0.16513543 0.39523405 0.0016378269 573 133
-0.1198371 -0.1623316 0.38898784 0.0015539413 617 144
-0.11889372 -0.16372563 0.39281321 0.0015655545 598 139
-0.11643628 -0.16304654 0.39168116 0.0016301208 626 146
-0.1137596 -0.16203186 0.38974985 0.001494324 643 150
-0.11154532 -0.16165188 0.38935089 0.0014600044 665 155
-0.10970061 -0.16180347 0.39023966 0.0015831678 631 147
-0.10774692 -0.16179691 0.3907536 0.0016313104 605 141
-0.10572023 -0.16167846 0.39100122 0.0016108344 646 151
-0.10378139 -0.16169244 0.3915714 0.0015297816 641 149
-0.10224558 -0.16234688 0.39369586 0.0015675188 600 140
-0.10035357 -0.16245027 0.3944861 0.0015802016 595 138
-0.098435365 -0.16251449 0.39517996 0.0017620634 540 125
-0.098167107 -0.16536063 0.40264481 0.0017659831 502 116
-0.0972948 -0.16728611 0.4078792 0.0019986888 451 104
nan nan nan 0 422 97
nan nan nan 0 402 92
nan nan nan 0 344 78
nan nan nan 0 310 70
nan nan nan 0 313 70
nan nan nan 0 298 67
nan nan nan 0 304 68
-0.097509369 -0.20095596 0.49489248 0.0022918922 332 75
-0.095872305 -0.20261271 0.49953875 0.0023299158 331 75
-0.093735635 -0.20327261 0.50171977 0.0021731521 364 83
-0.091678835 -0.20414574 0.50441706 0.0021861515 360 82
-0.0892682 -0.20425741 0.50522071 0.0021944141 356 81
-0.08691223 -0.20450406 0.50634414 0.0022981041 336 76
-0.085047379 -0.20595437 0.51043695 0.002392692 343 78
-0.082169585 -0.20496516 0.50846952 0.0021271212 374 85
-0.079704821 -0.20497684 0.5089674 0.0022885576 391 89
-0.077285632 -0.20511024 0.50975221 0.0020634779 389 89
-0.075316854 -0.20648725 0.51361543 0.0023672373 353 80
-0.072946161 -0.20681883 0.51486641 0.0023192102 347 79
-0.070313126 -0.20640376 0.51424271 0.0022756846 345 78
-0.06786181 -0.20651126 0.51490474 0.0023395706 347 79
-0.065619275 -0.20728648 0.51721781 0.0023650588 358 81
-0.063115239 -0.20726424 0.51752687 0.0022749249 350 79
-0.060497202 -0.20685044 0.51684207 0.0022472895 359 81
-0.057893462 -0.20645201 0.51617914 0.0023944229 351 80
-0.055363119 -0.20629133 0.51609445 0.0022455449 342 77
-0.053023901 -0.20686121 0.51782304 0.0023050818 329 74
-0.050597999 -0.20713237 0.51879019 0.0024125266 331 75
-0.048186254 -0.20749271 0.5199666 0.0022819205 333 75
-0.045707013 -0.20758589 0.52045935 0.0022182832 347 79
-0.043207556 -0.20759273 0.52072114 0.0022932033 341 77
-0.040656764 -0.2073386 0.5203135 0.0023726933 317 71
-0.038128655 -0.20717447 0.52011681 0.0024042462 311 70
-0.035617653 -0.20708682 0.52009761 0.0026002091 315 71
-0.03314523 -0.20722713 0.52063692 0.0023147499 331 75
-0.030661013 -0.2073106 0.52101952 0.0023215518 328 74
-0.028180616 -0.20743696 0.52149618 0.0023633824 322 73
-0.025733642 -0.20785788 0.52269983 0.0024199707 323 73
-0.023264742 -0.20817335 0.52362502 0.0022488686 342 77
-0.020650374 -0.20710614 0.5210582 0.00224726 346 78
-0.018214704 -0.20778412 0.52286816 0.00236948 346 78
-0.015724175 -0.20795259 0.52338302 0.0023576135 327 74
-0.01322003 -0.20797074 0.52350599 0.0025932945 321 72
-0.010725526 -0.20818453 0.52410793 0.0023809727 319 72
-0.0081953779 -0.20762578 0.52275151 0.0025251247 318 72
-0.0056687659 -0.20670505 0.52047026 0.0023113005 330 74
-0.0031434004 -0.20442259 0.51474649 0.0023233546 327 74
nan nan nan 0 296 66
nan nan nan 0 281 63
nan nan nan 0 256 57
nan nan nan 0 274 61
nan nan nan 0 273 61
0.0095556658 -0.16791505 0.42270723 0.0026489107 279 62
0.011728538 -0.17008929 0.42812344 0.0026867334 280 62
0.013786928 -0.17020345 0.42834258 0.0024815563 304 68
0.015918696 -0.17107663 0.43046039 0.0024616988 305 68
0.018024942 -0.17150679 0.43145165 0.0028464079 267 59
0.020425458 -0.17436048 0.43852648 0.0027452731 266 59
0.022550052 -0.1745462 0.43887782 0.0032620609 237 52
0.024854276 -0.17597206 0.44233462 0.0034717873 215 47
0.027306376 -0.17813849 0.44763836 0.0031811655 217 47
nan nan nan 0 190 41
nan nan nan 0 171 36
nan nan nan 0 176 37
nan nan nan 0 180 38
nan nan nan 0 197 42
nan nan nan 0 209 45
nan nan nan 0 215 47
nan nan nan 0 210 46
nan nan nan 0 235 52
0.048149489 -0.17588094 0.43989518 0.0030244391 251 55
nan nan nan 0 256 57
0.051957857 -0.17443907 0.43572843 0.003102683 255 56
0.053601075 -0.17296013 0.43173707 0.0032322428 228 50
nan nan nan 0 194 42
nan nan nan 0 181 39
nan nan nan 0 145 30
0.076216921 -0.21284051 0.52966285 0.0039070188 170 36
0.078823552 -0.21295524 0.52950245 0.0028941031 272 60
0.081719168 -0.21381879 0.53118569 0.0024046325 316 71
0.084684901 -0.21480742 0.53315938 0.0024222459 313 70
0.087754942 -0.21599421 0.53560376 0.0023789338 319 72
0.090380721 -0.21605061 0.53522599 0.0025692661 305 68
0.09306667 -0.21624365 0.53517008 0.0026808339 302 68
0.09565068 -0.21619578 0.53450167 0.0024712987 321 72
0.09842559 -0.21657053 0.53486168 0.002565067 320 72
0.10137152 -0.21729249 0.53606075 0.0025159828 300 67
0.10418243 -0.21769595 0.53645599 0.0025157977 297 67
0.10699274 -0.21807837 0.53678256 0.002470101 298 67
0.10965855 -0.21815503 0.53634077 0.0025961418 289 65
0.11260504 -0.21877338 0.53721517 0.0025182657 295 66
0.11548811 -0.21924306 0.53770828 0.0027063754 285 64
0.11814807 -0.21927767 0.53712052 0.0025060088 297 67
0.1210454 -0.21974166 0.53757149 0.0024509726 304 68
0.12391788 -0.22014162 0.53785282 0.002564478 304 68
0.1265395 -0.22008856 0.53701681 0.0026598361 291 65
0.12917262 -0.22005722 0.53622609 0.0026461408 276 61
0.13249041 -0.22117011 0.53821319 0.0026691551 288 64
0.13566338 -0.2220021 0.53950542 0.0026173249 280 62
0.13853045 -0.22231105 0.53951901 0.0027784668 278 62
0.14117242 -0.22225387 0.53864169 0.0026749815 271 60
0.14424606 -0.22286582 0.53938431 0.0025968184 283 63
0.14796892 -0.22444007 0.54245114 0.0027761406 277 62
0.15063018 -0.22437653 0.54155928 0.0027552405 294 66
0.15310355 -0.22404025 0.54001766 0.0028604295 280 62
0.15580732 -0.22404696 0.5393135 0.00249048 294 66
0.159087 -0.22486745 0.54057783 0.0027449182 292 65
0.16284323 -0.22632281 0.54337656 0.0027720365 273 61
0.16575499 -0.22657591 0.54330188 0.0028480752 278 62
0.1684598 -0.22654247 0.54256052 0.0026614137 273 61
0.17161717 -0.22710899 0.54327875 0.0027345265 270 60
0.17442948 -0.22720827 0.54290485 0.0025952708 279 62
0.17802374 -0.22830735 0.54494709 0.0028786256 265 59
0.18121307 -0.22886151 0.54571813 0.0027756977 251 55
0.18434519 -0.22932792 0.54631418 0.002804945 249 55
0.18743557 -0.2297294 0.54679298 0.0028012786 254 56
0.19001606 -0.22950335 0.54582018 0.0029080862 240 53
0.19276312 -0.22948207 0.5453797 0.0029890363 231 51
0.19584411 -0.22985333 0.54591894 0.0032277715 234 51
0.19891886 -0.23020698 0.54646474 0.0032364905 233 51
0.20153914 -0.23003222 0.54580766 0.0030961041 217 47
0.20415106 -0.22985277 0.5451932 0.0032917471 215 47
0.20742172 -0.23040989 0.54638034 0.0032720936 204 44
0.2107193 -0.23098178 0.54765832 0.0036440417 200 43
0.21355677 -0.23104097 0.54777813 0.0033141833 195 42
0.21670526 -0.23143084 0.54874009 0.0034584291 188 40
0.21934502 -0.23127435 0.54846555 0.0037335751 187 40
0.22167884 -0.23080328 0.54750377 0.0034763445 186 40
0.22430535 -0.23064485 0.54734248 0.0035134174 185 40
0.22702949 -0.23058946 0.54748476 0.0039771101 174 37
0.23073426 -0.23151937 0.5500263 0.0040268055 169 36
0.23361062 -0.23160577 0.55062413 0.004394033 159 33
0.23691839 -0.23211275 0.55228126 0.0043188231 158 33
0.23913321 -0.23154967 0.55144942 0.0043398584 144 30
0.24127263 -0.23092739 0.55053043 0.0039042255 159 33
0.2439495 -0.23082781 0.55091125 0.0041388441 155 32
0.24779256 -0.23182152 0.55395848 0.004512507 136 28
0.25195095 -0.23308481 0.55771029 0.0056919535 119 24
0.25830323 -0.23632751 0.56626582 0.0065368633 93 17
0.26296973 -0.23797391 0.57106572 0.005897338 111 22
0.26794541 -0.23986158 0.57650894 0.0044528474 154 32
0.27067593 -0.2397206 0.57713318 0.0037854156 183 39
0.27327666 -0.23946887 0.57753855 0.002498284 312 70
0.27731234 -0.24046664 0.5810082 0.002301574 388 88
0.27965236 -0.23998867 0.58096087 0.001978921 432 99
0.28197333 -0.23950429 0.58093822 0.002044667 398 91
0.28405008 -0.23882434 0.58047861 0.0019993898 407 93
nan nan nan 0 523 121
nan nan nan 0 413 94
nan nan nan 0 166 35
nan nan nan 0 139 28
nan nan nan 0 139 28
nan nan nan 0 111 22
nan nan nan 0 94 18
nan nan nan 0 97 18
-0.28213224 -0.1989767 0.49328867 0.0059588212 107 21
-0.27919751 -0.19861507 0.49512079 0.0053456537 116 23
nan nan nan 0 118 23
-0.27099186 -0.19618143 0.4926773 0.0053051673 112 22
-0.26879361 -0.19632316 0.49384049 0.0048873532 119 24
-0.2682423 -0.19768117 0.49747825 0.0049499846 120 24
-0.26592919 -0.19775367 0.49741241 0.0049584717 124 25
-0.26328811 -0.19758132 0.49638519 0.0047759274 131 26
-0.26084509 -0.19755587 0.49548957 0.0052504181 133 27
-0.26008549 -0.19881676 0.49766123 0.0048661488 123 25
-0.25741792 -0.19862916 0.49611154 0.0050731217 125 25
-0.2549471 -0.19859125 0.49489099 0.0047019823 129 26
-0.25414744 -0.19986683 0.49692056 0.0046845265 127 26
-0.25200716 -0.20010266 0.49636024 0.0048178728 144 30
-0.24944423 -0.20000419 0.4949863 0.0045249993 131 26
-0.24683848 -0.1998691 0.49354771 0.0046827001 135 27
-0.24499959 -0.20035848 0.4936789 0.004122383 149 31
-0.24399097 -0.20154351 0.49554864 0.0045177764 138 28
-0.24307269 -0.20282806 0.49768618 0.0042597298 143 29
-0.24153239 -0.20361461 0.49862918 0.0044691353 139 28
-0.23840399 -0.20306487 0.49633783 0.0044854772 133 27
-0.23617022 -0.20327355 0.49594265 0.0042502205 146 30
-0.23464081 -0.20409937 0.49709055 0.0044081896 142 29
-0.23292033 -0.20477489 0.49790949 0.004302158 141 29
-0.23064946 -0.20497595 0.49761587 0.0041450853 153 32
-0.22900726 -0.20574622 0.49874645 0.0040240865 155 32
-0.22698607 -0.20618926 0.49912685 0.0039488138 161 34
-0.22440602 -0.20612891 0.49833569 0.003638858 176 37
-0.22223282 -0.20644514 0.49850363 0.0043060267 172 36
-0.2202847 -0.20698011 0.49924806 0.0037015069 182 39
-0.2178428 -0.20705813 0.49894038 0.0036283932 181 39
-0.21495859 -0.20671263 0.49766523 0.0035229232 188 40
-0.21275556 -0.20702179 0.49801964 0.0032653862 202 44
-0.2108916 -0.20767225 0.49924734 0.00324853 206 45
-0.20856231 -0.20787473 0.4994514 0.0032709306 201 43
-0.20397796 -0.2058069 0.49425793 0.003154031 209 45
nan nan nan 0 278 62
-0.15569785 -0.16105708 0.38656446 0.0019989824 420 96
-0.15408689 -0.16142693 0.38740423 0.0018952335 492 114
nan nan nan 0 386 88
-0.16774656 -0.18034519 0.43284079 0.0022744457 355 80
-0.1711617 -0.18646134 0.44761038 0.0023449284 328 74
-0.16918652 -0.18679105 0.44853932 0.0024370367 348 79
-0.16716357 -0.18707624 0.44940779 0.0022653153 346 78
-0.16413985 -0.18623386 0.44761139 0.0022213841 354 80
-0.16126972 -0.18554455 0.44622359 0.0023345524 375 85
-0.15800571 -0.18437602 0.44372129 0.002166426 372 85
-0.15554366 -0.18412302 0.4434585 0.0022195259 379 86
-0.15128928 -0.18170995 0.43802422 0.0020240629 405 93
-0.14885299 -0.18144122 0.43778726 0.0020938113 419 96
-0.14645496 -0.18121172 0.43767518 0.0021237121 407 93
-0.14217375 -0.17860942 0.43185386 0.0020140759 429 98
nan nan nan 0 457 105
nan nan nan 0 464 107
nan nan nan 0 457 105
nan nan nan 0 490 113
nan nan nan 0 482 111
nan nan nan 0 523 121
nan nan nan 0 514 119
nan nan nan 0 579 134
-0.11306988 -0.16476381 0.40303823 0.0016843207 602 140
-0.10937457 -0.16226237 0.39747798 0.0015071948 645 150
-0.10699112 -0.16165082 0.39653909 0.0014567754 679 159
-0.10435441 -0.16062649 0.39458275 0.0014214468 700 164
-0.10211122 -0.16018027 0.39404076 0.0014809413 706 165
-0.1002058 -0.16025682 0.39478144 0.0013938936 742 174
-0.098108038 -0.16002272 0.3947528 0.0014077727 713 167
-0.095737189 -0.15932463 0.39357185 0.0014686821 722 169
-0.093453676 -0.15874599 0.39267582 0.0014460398 694 162
-0.091047429 -0.15792996 0.39118129 0.0014345009 745 174
-0.088921525 -0.15757546 0.39081866 0.0014492957 742 174
-0.087247916 -0.1580245 0.39244092 0.0014161352 705 165
-0.085689701 -0.15870754 0.39463905 0.0015021072 690 161
-0.08368288 -0.15857209 0.39479402 0.0014935064 662 154
-0.081775442 -0.158623 0.39540255 0.0015886471 593 138
-0.080184571 -0.15930533 0.39757663 0.001666368 556 129
-0.07874196 -0.16032338 0.40058252 0.0017707481 540 125
-0.077688619 -0.16220604 0.40574557 0.0017519679 512 118
nan nan nan 0 448 103
nan nan nan 0 374 85
nan nan nan 0 348 79
nan nan nan 0 346 78
nan nan nan 0 349 79
nan nan nan 0 364 83
nan nan nan 0 366 83
nan nan nan 0 385 88
-0.072947249 -0.19758141 0.49859437 0.002154134 368 84
-0.070929706 -0.19867899 0.50177437 0.0022277765 352 80
-0.068897597 -0.19981194 0.50503278 0.0021754685 360 82
-0.06703867 -0.20154861 0.50980747 0.0022721933 352 80
-0.065153554 -0.20333576 0.51470083 0.0022313667 349 79
-0.062880315 -0.20400509 0.51675379 0.0021162995 370 84
-0.060374238 -0.20394304 0.51693982 0.0021907233 354 80
-0.057774842 -0.2035469 0.51626295 0.0022167468 356 81
-0.055278566 -0.2034948 0.51644289 0.0022168618 352 80
-0.052856605 -0.20372427 0.5173226 0.0022715088 346 78
-0.050541274 -0.20440757 0.51934141 0.0023139587 336 76
-0.048073281 -0.20451234 0.51987654 0.0023067675 359 81
-0.045641925 -0.20479296 0.52084464 0.0021515656 364 83
-0.04308594 -0.20451449 0.52037632 0.0024645578 331 75
-0.040482491 -0.20396267 0.51919717 0.0023157157 328 74
-0.037988055 -0.20392382 0.51930904 0.0023618476 323 73
-0.035530843 -0.20409329 0.5199374 0.0023164127 337 76
-0.033055101 -0.20417386 0.52032578 0.0022608098 341 77
-0.030610932 -0.20447849 0.52127153 0.0023167138 334 75
-0.028132137 -0.2045853 0.52169967 0.0023720034 322 73
-0.025643894 -0.20463753 0.5219751 0.0022700676 339 77
-0.023141285 -0.20457402 0.52194178 0.0024118994 341 77
-0.02064018 -0.20451005 0.5218938 0.0022140401 356 81
-0.018154183 -0.2045988 0.52222216 0.0022593499 341 77
-0.015667645 -0.20470873 0.52259147 0.0021491323 366 83
-0.013144543 -0.20429204 0.52160311 0.0022191417 359 81
-0.010637809 -0.20399436 0.5209052 0.002349694 335 76
-0.0080557019 -0.20162843 0.51491225 0.0024814473 326 73
-0.0055660475 -0.20051436 0.51210266 0.0025402287 326 73
nan nan nan 0 315 71
nan nan nan 0 307 69
0.0014049907 -0.15921946 0.4066613 0.0023810018 327 74
0.00336781 -0.16022998 0.40922979 0.00224131 364 83
0.0053314725 -0.16052385 0.40995765 0.0022443135 352 80
0.0072740978 -0.16019656 0.40908894 0.0022175824 375 85
0.0092368694 -0.16035761 0.40945703 0.0022710683 346 78
0.011506881 -0.16486435 0.42090958 0.0022777936 352 80
0.013575004 -0.16556822 0.42264074 0.0024883058 327 74
0.015853733 -0.16832587 0.42960232 0.00296205 268 60
0.017877357 -0.16805322 0.42881787 0.0024987992 296 66
0.020029249 -0.16891842 0.43092537 0.0026646324 271 60
0.022120839 -0.16916114 0.43143317 0.0029349031 261 58
0.024639064 -0.17234668 0.43943274 0.0028970628 250 55
0.026718628 -0.17220429 0.43893334 0.0030111538 232 51
0.028560767 -0.17066394 0.43486056 0.0031322951 218 47
nan nan nan 0 186 40
nan nan nan 0 190 41
nan nan nan 0 196 42
nan nan nan 0 205 44
nan nan nan 0 212 46
0.042273674 -0.17576161 0.44668952 0.003230925 211 46
nan nan nan 0 226 49
0.044907235 -0.1695215 0.43036151 0.0026915267 271 60
0.046683252 -0.16847067 0.42744225 0.0027853011 275 61
0.047917064 -0.16563416 0.41998598 0.0025338205 297 67
0.050030265 -0.16594397 0.42049921 0.0025198483 299 67
0.052505244 -0.16738299 0.42385837 0.0027098195 291 65
0.055817023 -0.17128214 0.43342516 0.0031386551 237 52
nan nan nan 0 189 40
nan nan nan 0 161 34
nan nan nan 0 163 34
0.07824254 -0.20883885 0.52680433 0.0032264669 206 45
0.080988608 -0.20935433 0.52764881 0.0026803138 267 59
0.084383048 -0.21146312 0.53248692 0.0024368903 309 69
0.086980961 -0.21150996 0.53211129 0.0023335868 323 73
0.090133287 -0.2128634 0.53500319 0.0024848341 303 68
0.09277875 -0.21297756 0.53476018 0.0024351776 319 72
0.095515735 -0.21328986 0.53499734 0.0025487139 316 71
0.098433398 -0.21397842 0.53615928 0.002667015 305 68
0.10128149 -0.21448401 0.53684366 0.002672764 297 67
0.10430797 -0.21533243 0.53836644 0.0027283195 295 66
0.10691324 -0.21529102 0.53764665 0.0025022114 300 67
0.10941466 -0.21504746 0.53640783 0.0024161215 309 69
0.11177786 -0.21455 0.53452313 0.0024834033 300 67
0.11520903 -0.21607833 0.53766811 0.0025079164 297 67
0.11789414 -0.21617034 0.53722078 0.0025138382 293 66
0.12048722 -0.21609324 0.53634036 0.0025673921 324 73
0.12352638 -0.21680239 0.5373975 0.0024925559 307 69
0.12606624 -0.21662383 0.53624159 0.0025373865 304 68
0.12874295 -0.21668294 0.53566468 0.0025070366 291 65
0.13198528 -0.21767251 0.53737599 0.0027581295 297 67
0.13539749 -0.2188977 0.53965425 0.0025650093 282 63
0.13827446 -0.21922693 0.53971267 0.0024800841 297 67
0.14092718 -0.21919487 0.53887683 0.0025321413 296 66
0.14381368 -0.21952085 0.53891802 0.0025541191 289 65
0.14817984 -0.22205222 0.5443635 0.0026664319 272 60
0.15071797 -0.22180256 0.54298556 0.0026574223 288 64
0.1531601 -0.2214229 0.54129595 0.0025809195 289 65
0.15582933 -0.22137903 0.54043573 0.0026382594 291 65
0.15917729 -0.22228447 0.5418998 0.0025209787 292 65
0.16217963 -0.22268501 0.54214096 0.0024987624 294 66
0.16522452 -0.22312985 0.54250282 0.0026069202 289 65
0.16818638 -0.22344996 0.54257721 0.0025114019 292 65
0.17142713 -0.22412445 0.54353058 0.0025109893 287 64
0.17493366 -0.22511987 0.54528195 0.0027357514 277 62
0.17805184 -0.22559248 0.54579091 0.0026375048 275 61
0.18130384 -0.2262176 0.54669708 0.0026264861 271 60
0.18439457 -0.22662582 0.5471108 0.0030345016 252 56
0.18699569 -0.22642913 0.54610121 0.0028686197 252 56
0.18955489 -0.22618812 0.54502624 0.0027744847 251 55
0.19226648 -0.22613329 0.54444396 0.0028018875 258 57
0.19572468 -0.22694571 0.5459944 0.0028590711 247 54
0.19874191 -0.22723128 0.54632407 0.0028393804 245 54
0.20101713 -0.22667231 0.54467458 0.0031867195 237 52
0.20315738 -0.22597836 0.54275519 0.0033255694 225 49
0.2061525 -0.22624114 0.54318893 0.0032084077 207 45
0.20958705 -0.22697288 0.5448041 0.0033386734 202 44
0.21325892 -0.22793917 0.54703903 0.0032642751 209 45
0.215957 -0.22785319 0.54680729 0.0035621072 194 42
0.21800275 -0.2270899 0.54500985 0.0033220791 201 43
0.22174758 -0.2280934 0.54751289 0.003212468 212 46
0.22438724 -0.22794938 0.54732251 0.0032933964 208 45
0.22676346 -0.22754452 0.54656601 0.0040506036 181 39
0.22967246 -0.22767758 0.54716194 0.0037231667 173 37
0.23323263 -0.22844528 0.54934448 0.0040620966 161 34
0.23537734 -0.22782478 0.54824871 0.0038628583 162 34
0.23969735 -0.22929975 0.55225658 0.0038576704 165 35
0.24188106 -0.22872062 0.55137759 0.0040363506 171 36
0.24477959 -0.2288229 0.55219787 0.0045679775 153 32
0.24829327 -0.22949147 0.55444336 0.004264046 146 30
0.25317201 -0.23139277 0.55973047 0.004817599 124 25
0.26023766 -0.2352289 0.56977087 0.006714033 107 21
0.2652517 -0.23714712 0.57523948 0.005632692 106 20
0.26875621 -0.23768896 0.57743198 0.0040557939 158 33
0.27128613 -0.2373665 0.57757795 0.0036159975 193 41
0.27409026 -0.23728822 0.57836765 0.0026216428 293 66
0.27808616 -0.23823254 0.58170354 0.0019619761 435 100
0.28023189 -0.23758876 0.58121097 0.0017537465 537 124
0.2825743 -0.23712316 0.58119625 0.0018106624 515 119
0.28530714 -0.23699133 0.58204186 0.001860692 455 105
0.28670844 -0.23576719 0.58024108 0.0019063003 436 100
0.28835142 -0.23476407 0.57901347 0.0023211145 344 78
nan nan nan 0 177 38
nan nan nan 0 170 36
nan nan nan 0 163 34
nan nan nan 0 123 25
nan nan nan 0 96 18
nan nan nan 0 99 19
-0.28162113 -0.1961942 0.49436229 0.0061049983 103 20
-0.27881342 -0.19592319 0.49604613 0.0061940607 107 21
nan nan nan 0 107 21
-0.2703335 -0.19331831 0.49212459 0.0058107763 108 21
-0.26852059 -0.19373213 0.49355042 0.0053099296 110 21
-0.26748386 -0.19471844 0.49592826 0.0054465118 124 25
-0.2660802 -0.19545308 0.49728066 0.0054431232 122 24
-0.26373091 -0.19550018 0.49661374 0.0051577496 115 23
-0.26177537 -0.19584277 0.49652082 0.0054981657 121 24
-0.25905669 -0.19561546 0.49487719 0.0047628679 122 24
-0.25778916 -0.19648997 0.49596134 0.0048745647 124 25
-0.25726211 -0.19795083 0.49848971 0.0044765691 132 27
-0.25471479 -0.19787034 0.49712828 0.0045117829 135 27
-0.25257689 -0.1981094 0.49658307 0.0045467522 139 28
-0.249772 -0.19782487 0.49474925 0.0043188264 143 29
-0.24748453 -0.19794858 0.49396652 0.0042218659 149 31
-0.24575084 -0.19852209 0.49433541 0.0042910995 145 30
-0.24473937 -0.19969645 0.49622703 0.0042298282 146 30
-0.24375048 -0.20091335 0.49825004 0.0045095631 137 28
-0.24233139 -0.20179701 0.49947599 0.0045576328 132 27
-0.2383341 -0.2005298 0.49542093 0.0045032948 137 28
-0.23608308 -0.20072065 0.49501535 0.0042350679 145 30
-0.23415372 -0.20119196 0.49534228 0.0050390693 138 28
-0.23273909 -0.20212041 0.49683389 0.0043622735 149 31
-0.23082206 -0.2026279 0.49733168 0.0038668979 160 33
-0.22950047 -0.20367497 0.49919596 0.004054233 152 32
-0.22790098 -0.20449588 0.50054872 0.0037470208 175 37
-0.22580789 -0.20488729 0.50089687 0.003840684 164 34
-0.2230923 -0.20471635 0.49992117 0.0036674677 176 37
-0.22022437 -0.20440011 0.49864456 0.003822363 169 36
-0.21778297 -0.20447701 0.49838102 0.0035076689 185 40
-0.21534233 -0.20455641 0.49817777 0.0034409103 197 42
-0.2131011 -0.20482942 0.49850035 0.003295924 202 44
-0.21102323 -0.20526785 0.49928036 0.0032487714 205 44
-0.20865636 -0.2054324 0.49944967 0.0031593768 214 46
-0.20503518 -0.20435087 0.49664685 0.0034648492 208 45
-0.16208492 -0.16355631 0.39740765 0.0023315845 333 75
-0.15536214 -0.15875006 0.38568234 0.0019498939 479 110
-0.15443642 -0.15982014 0.38827851 0.0017396669 504 116
nan nan nan 0 413 94
-0.16835034 -0.1787872 0.43449497 0.0022086771 361 82
-0.17216155 -0.18526353 0.45037803 0.0022647893 342 77
-0.17035815 -0.185791 0.45185226 0.0024703306 336 76
-0.1688744 -0.18668625 0.45426869 0.0021380305 367 83
-0.16683176 -0.18697985 0.45526743 0.0021908127 356 81
-0.1640802 -0.18647605 0.45436701 0.0022594561 376 86
-0.1619608 -0.18668653 0.4552474 0.0020744882 391 89
-0.158765 -0.18564451 0.4531101 0.0020720498 397 91
-0.15569897 -0.1847259 0.45130548 0.0021981315 407 93
-0.15391383 -0.18532223 0.45323482 0.0021632949 414 95
-0.14937197 -0.18256721 0.4469927 0.0021472496 423 97
-0.14745221 -0.18298171 0.44853216 0.001909483 446 102
-0.14517568 -0.1829595 0.44902739 0.0019238561 450 103
-0.14286196 -0.18288895 0.44942605 0.001889383 453 104
-0.14014788 -0.1822954 0.44855702 0.0018737295 458 105
-0.13737336 -0.18160252 0.44745645 0.0018484674 462 106
-0.13481799 -0.18118122 0.44703531 0.0019183739 468 108
-0.13178587 -0.18009417 0.44497824 0.0018164417 487 112
nan nan nan 0 485 112
nan nan nan 0 503 116
nan nan nan 0 521 120
nan nan nan 0 525 121
nan nan nan 0 551 128
nan nan nan 0 597 139
nan nan nan 0 587 136
nan nan nan 0 622 145
-0.10104065 -0.16279633 0.40747193 0.0014973771 667 156
-0.098900877 -0.16258252 0.40750435 0.0014800839 665 155
-0.0962267 -0.16146316 0.4052552 0.0014563312 665 155
-0.093563862 -0.16031584 0.40291998 0.0015195592 692 162
-0.091062874 -0.15940227 0.40115643 0.0013639778 752 176
-0.088770591 -0.15882175 0.40021658 0.0014930344 696 163
-0.086078092 -0.15748276 0.39734924 0.0013752113 777 182
-0.083862014 -0.1569737 0.39655939 0.0014124337 771 181
-0.081942387 -0.15700857 0.39713123 0.0013446157 775 182
-0.079628445 -0.15627129 0.39573666 0.0013480852 762 179
-0.077777617 -0.15642881 0.39659467 0.0013671555 790 185
-0.075729713 -0.15618789 0.39643037 0.0013613543 804 189
-0.073514543 -0.15558043 0.39532134 0.0012743772 836 196
-0.071620151 -0.15563743 0.39588696 0.0013311837 785 184
-0.069867834 -0.15601483 0.3972564 0.0013981041 731 171
-0.067597173 -0.15522337 0.39563611 0.0014187397 711 166
-0.065586336 -0.15499975 0.39544821 0.0015419676 686 160
-0.064637102 -0.15734696 0.40181187 0.0015586138 633 147
-0.062753178 -0.1574938 0.40254983 0.0015972079 594 138
nan nan nan 0 502 116
nan nan nan 0 423 97
nan nan nan 0 363 82
nan nan nan 0 381 87
nan nan nan 0 379 86
nan nan nan 0 367 83
nan nan nan 0 378 86
nan nan nan 0 383 87
nan nan nan 0 388 88
-0.054182772 -0.19702859 0.50728911 0.0021864048 358 81
-0.051741168 -0.19699319 0.50748432 0.0022684562 340 77
-0.049577679 -0.19806533 0.51051974 0.0022211259 353 80
-0.047599476 -0.20002735 0.51583868 0.0022697754 362 82
-0.045359984 -0.201046 0.51871425 0.0023794989 358 81
-0.042724021 -0.20032361 0.51708394 0.0022615697 368 84
-0.040423486 -0.20118181 0.51951969 0.0023470817 350 79
-0.037922844 -0.20109126 0.51949227 0.0023262128 325 73
-0.035388838 -0.20079875 0.51892895 0.0023403645 345 78
-0.032928783 -0.20091335 0.51940387 0.0022597155 341 77
-0.030449836 -0.200922 0.51959151 0.0024137462 332 75
-0.028016927 -0.20126286 0.52062505 0.002309564 332 75
-0.025567958 -0.20154352 0.52148998 0.0024306155 343 78
-0.023067236 -0.20143273 0.52132899 0.0022389132 350 79
-0.020570427 -0.20133346 0.52118456 0.0022142516 354 80
-0.018098777 -0.201487 0.52168155 0.0021703886 363 82
-0.015595382 -0.20127977 0.52123147 0.0022896151 352 80
-0.013052219 -0.20038341 0.51898354 0.0023152288 350 79
-0.01039159 -0.19684274 0.50987291 0.0023043051 335 76
nan nan nan 0 331 75
nan nan nan 0 325 73
-0.0025062745 -0.15906164 0.4120937 0.0022691339 345 78
-0.00053172634 -0.15585262 0.40378752 0.0020681273 415 95
0.0013939796 -0.15604526 0.40428436 0.0019897968 418 96
0.0033136597 -0.15573117 0.40345863 0.0018893215 467 107
0.0053144884 -0.15806119 0.40947297 0.0020070588 426 98
0.0072496617 -0.15771148 0.40853488 0.0020169856 410 94
0.0092121782 -0.15797873 0.40918505 0.0021133183 386 88
0.011227433 -0.15889899 0.4115161 0.0022517194 343 78
0.013356898 -0.16092148 0.41669059 0.0024031051 321 72
0.015447893 -0.16201681 0.41945255 0.0023663049 323 73
0.017305918 -0.1606977 0.41595346 0.0024800277 325 73
0.019314401 -0.16090335 0.41639119 0.0024630541 309 69
0.021549171 -0.16277999 0.42114124 0.0024790608 308 69
0.023636593 -0.16331837 0.42241669 0.0025210073 314 71
0.025731158 -0.16381763 0.42357928 0.0026412159 277 62
0.027735665 -0.16371253 0.42316797 0.0028889794 246 54
0.030061303 -0.16538848 0.42734781 0.0029729374 246 54
0.032130226 -0.1655287 0.42754656 0.0030882382 251 55
0.033985093 -0.16461533 0.4250133 0.0028923862 259 57
0.036304973 -0.16593033 0.42822143 0.0029475938 255 56
nan nan nan 0 249 55
0.040821914 -0.1676559 0.43226123 0.0028223235 255 56
0.041677374 -0.16290969 0.41980582 0.0027588024 296 66
0.043394148 -0.16181214 0.41674882 0.0025151048 323 73
0.045515824 -0.16225462 0.41764718 0.0024260818 329 74
0.047291301 -0.16147766 0.4153952 0.00244042 336 76
0.049556818 -0.16236916 0.41742289 0.0022988378 337 76
0.051814791 -0.1631676 0.41919613 0.0026080846 310 70
0.054899547 -0.1664124 0.4272348 0.0029615839 270 60
0.058464397 -0.17082593 0.43824703 0.0030372941 233 51
0.062770955 -0.17702386 0.45380348 0.0038792721 190 41
0.066033669 -0.17995998 0.46096638 0.0034284934 195 42
nan nan nan 0 202 44
nan nan nan 0 193 41
0.083367236 -0.20636986 0.52726489 0.0030264428 242 53
0.086608782 -0.20803674 0.53103679 0.0026571667 297 67
0.089649335 -0.20913868 0.53334337 0.0026233669 300 67
0.092560992 -0.20988664 0.53472602 0.0024731958 311 70
0.095384061 -0.21039848 0.535487 0.0026115596 322 73
0.09819027 -0.21084698 0.53606772 0.0024495514 349 79
0.10091578 -0.21110348 0.53614175 0.0023643489 321 72
0.10362074 -0.21130517 0.5360589 0.0024363876 307 69
0.10648504 -0.21181391 0.53673667 0.0024266066 306 69
0.10882325 -0.21127689 0.53474867 0.0025228164 306 69
0.11150844 -0.21142289 0.53447521 0.0025284709 299 67
0.11497027 -0.21300104 0.53780174 0.0024058272 312 70
0.11768328 -0.21315235 0.53750569 0.0023463904 329 74
0.12054066 -0.2135528 0.53782219 0.0023912769 330 74
0.12331225 -0.21378738 0.53770566 0.0024552152 321 72
0.1260547 -0.21396266 0.53742629 0.0025497903 311 70
0.12879123 -0.21412089 0.53709161 0.0024481711 320 72
0.13170944 -0.21456875 0.53747118 0.0024075008 307 69
0.13507293 -0.21571007 0.53957307 0.0025981835 299 67
0.1382193 -0.21646717 0.54069966 0.0024520399 304 68
0.14087076 -0.21643522 0.53984678 0.0026461978 305 68
0.14360218 -0.21652502 0.53929311 0.0024741257 297 67
0.14708735 -0.21772727 0.54150295 0.0025638798 292 65
0.15055813 -0.21886545 0.54354483 0.0027714022 288 64
0.15306556 -0.21858779 0.54206926 0.0025227719 290 65
0.15581802 -0.21866354 0.54147524 0.0025127404 296 66
0.15858103 -0.21875136 0.54091734 0.0025350568 288 64
0.16149268 -0.21903779 0.54085886 0.0024544559 303 68
0.16450123 -0.21944405 0.54110652 0.0024525668 299 67
0.168355 -0.2209464 0.54406595 0.0025255827 293 66
0.17163156 -0.22165543 0.54508322 0.0025253291 292 65
0.17432135 -0.22159629 0.5442313 0.0025455577 292 65
0.17732678 -0.22193404 0.54437858 0.0026762576 282 63
0.18087471 -0.22293007 0.54616547 0.002654247 272 60
0.1835676 -0.22285827 0.54536521 0.0027494857 268 60
0.18631367 -0.22285219 0.54476142 0.0025648528 284 63
0.18900208 -0.22277829 0.54403049 0.0026679863 269 60
0.19203323 -0.22310473 0.5443182 0.0027008248 265 59
0.19563511 -0.2240756 0.54621994 0.0030566556 251 55
0.19866057 -0.22436845 0.54651374 0.0027933973 253 56
0.20088942 -0.22376592 0.5446772 0.0029780618 259 57
0.20333412 -0.22341686 0.54351157 0.0028746454 257 57
0.20616408 -0.22349481 0.54343933 0.0030428281 226 49
0.20968252 -0.22430721 0.54520857 0.0030114884 223 49
0.21275587 -0.22462848 0.54584092 0.0032830492 228 50
0.21586584 -0.22497965 0.54660511 0.003337591 213 46
0.21862388 -0.22495979 0.5465281 0.0032138613 203 44
0.22145338 -0.22501302 0.54669005 0.003009832 228 50
0.22454587 -0.22532885 0.54755193 0.0033136087 208 45
0.22711697 -0.22512014 0.54720145 0.0034345794 193 41
0.22967951 -0.22490808 0.54690462 0.0034837881 187 40
0.23284216 -0.22528176 0.54809415 0.0038875057 173 37
0.23678336 -0.22639093 0.55113691 0.0039618541 175 37
0.23897132 -0.22581752 0.55014557 0.004253793 162 34
0.24153069 -0.22560425 0.55009067 0.0037976382 169 36
0.24614508 -0.22729348 0.55473763 0.0044093234 154 32
0.25051397 -0.22872046 0.55881119 0.0050244448 133 27
0.25630057 -0.23139562 0.56600386 0.0057708393 118 23
0.26320106 -0.23500633 0.57556152 0.0062647243 109 21
0.26682416 -0.23564397 0.57790846 0.0055089588 107 21
0.26922867 -0.23520324 0.5776673 0.0041995505 144 30
0.27172276 -0.2348493 0.57769138 0.003642949 200 43
0.27393255 -0.23425978 0.57718521 0.00263255 281 63
0.27758211 -0.23490089 0.57976323 0.0018509693 448 103
0.28081009 -0.23517576 0.58149147 0.0015474883 597 139
0.28341356 -0.23492728 0.58197492 0.0015142565 622 145
0.28583306 -0.23453288 0.58214092 0.0017221038 511 118
0.28790861 -0.23386702 0.58167326 0.0018252019 469 108
0.28773549 -0.23140591 0.5767675 0.0020852967 379 86
0.28919992 -0.23029722 0.57525396 0.0027918955 261 58
nan nan nan 0 210 46
nan nan nan 0 209 45
nan nan nan 0 163 34
nan nan nan 0 96 18
nan nan nan 0 97 18
nan nan nan 0 106 20
nan nan nan 0 118 23
nan nan nan 0 114 22
nan nan nan 0 109 21
-0.26927766 -0.19188 0.49488908 0.0061521363 109 21
-0.26737449 -0.19223601 0.49538159 0.0053140367 114 22
-0.26664901 -0.19345291 0.49778694 0.0050557218 121 24
-0.26452097 -0.19366521 0.49740127 0.0052696471 129 26
-0.26193377 -0.19354212 0.49603042 0.0050353021 131 26
-0.25982642 -0.19377467 0.49550238 0.0047126492 127 26
-0.25840366 -0.19452691 0.49626747 0.0050129863 129 26
-0.25761014 -0.19577162 0.49827227 0.0044599525 136 28
-0.25546643 -0.19600433 0.49770403 0.0046550864 142 29
-0.25230947 -0.19545661 0.49517784 0.0044031069 139 28
-0.25077367 -0.19616629 0.49586478 0.0047360114 145 30
-0.24890433 -0.19662651 0.49594739 0.0039483439 159 33
-0.2467647 -0.19688027 0.49554101 0.0047878954 141 29
-0.24528342 -0.19766968 0.49651542 0.0042525958 154 32
-0.24428128 -0.19886519 0.49853954 0.0047386582 145 30
-0.23910852 -0.1966552 0.49207228 0.0044379863 139 28
-0.23954011 -0.19905648 0.49718532 0.0043453714 144 30
-0.23712307 -0.1991161 0.49648264 0.0041507436 151 31
-0.2348045 -0.19926055 0.49603614 0.0042101024 149 31
-0.2332546 -0.20006739 0.49728176 0.0045488225 156 33
-0.231619 -0.20081745 0.4984287 0.0042886841 164 34
-0.22851926 -0.20030059 0.49647975 0.0036654621 171 36
-0.22814623 -0.20218875 0.50053883 0.0044196458 160 33
-0.22645731 -0.20293994 0.50182778 0.0037708154 168 35
-0.22381994 -0.20284861 0.5010851 0.0036170948 178 38
-0.22013603 -0.20179585 0.49802479 0.0034047607 194 42
-0.21762915 -0.20181012 0.4976556 0.0036180797 194 42
-0.21567661 -0.20234482 0.4986248 0.0035851104 200 43
-0.2134527 -0.20263457 0.49904609 0.0035597584 218 47
-0.21093883 -0.20265275 0.49885556 0.0037781969 194 42
-0.20768437 -0.20195121 0.49695188 0.0031237246 217 47
-0.1998222 -0.19669676 0.48390606 0.00322472 232 51
-0.15910287 -0.15856527 0.3900483 0.0020932492 393 90
-0.15620284 -0.15763874 0.38776612 0.0018328496 528 122
-0.15493333 -0.15835506 0.38956976 0.0017936922 489 113
nan nan nan 0 394 90
-0.1699867 -0.17829643 0.43886894 0.0021584581 363 82
-0.17238224 -0.18321101 0.45116374 0.0022289723 354 80
-0.17085321 -0.18403068 0.45342824 0.0022273052 346 78
-0.16903816 -0.1845604 0.45502633 0.0022238872 369 84
-0.1677103 -0.18564409 0.45803693 0.0020900578 387 88
-0.16581295 -0.18611898 0.4595907 0.0021383865 371 84
-0.16307881 -0.18565474 0.45886555 0.0021221824 402 92
-0.16102353 -0.18596104 0.46008193 0.0020069683 404 92
-0.15892668 -0.18622763 0.46123654 0.002045874 415 95
-0.15641625 -0.18601035 0.46122497 0.0019542614 427 98
-0.15405942 -0.1859719 0.46168542 0.0021065169 428 98
-0.15138647 -0.18554483 0.46120614 0.0019838342 441 101
-0.14939871 -0.1859573 0.46283734 0.001895659 449 103
-0.14686258 -0.18568951 0.46279642 0.0019884682 453 104
-0.14358419 -0.18445954 0.46037012 0.0019867094 461 106
-0.14068569 -0.18368541 0.4590894 0.0018255044 474 109
-0.13843976 -0.18375175 0.45991904 0.0017860542 492 114
-0.1357493 -0.18322037 0.45926043 0.0017781198 500 115
-0.13427518 -0.18434063 0.46275121 0.0018735278 496 114
-0.13200329 -0.18438563 0.46355185 0.0018616688 503 116
-0.12687159 -0.18036656 0.45412311 0.0017239481 512 118
-0.12454455 -0.18026151 0.45453393 0.0017474695 518 120
-0.1221216 -0.18001118 0.4545759 0.0016996068 533 123
-0.11827949 -0.17762028 0.44919944 0.0017865455 540 125
nan nan nan 0 536 124
-0.11364555 -0.17731805 0.44974014 0.001740937 545 126
nan nan nan 0 552 128
nan nan nan 0 566 131
nan nan nan 0 571 133
nan nan nan 0 590 137
nan nan nan 0 600 140
nan nan nan 0 601 140
nan nan nan 0 611 142
nan nan nan 0 626 146
nan nan nan 0 637 148
nan nan nan 0 625 146
-0.080321975 -0.15955184 0.4105024 0.001518977 664 155
-0.077767961 -0.15841165 0.40802538 0.001422761 743 174
-0.075443216 -0.15769111 0.40661106 0.0014321788 723 169
-0.072467089 -0.15553385 0.40147141 0.0013371547 795 187
-0.070058644 -0.15450968 0.39923516 0.001315316 792 186
-0.068070829 -0.15438139 0.39929795 0.0013117018 823 193
-0.065672807 -0.15328814 0.39684922 0.0013548378 840 197
-0.063761324 -0.15329894 0.39724344 0.0012750416 876 206
-0.061702829 -0.15294604 0.39668185 0.0012163632 914 215
-0.059715413 -0.15275234 0.39651939 0.0013122467 863 203
-0.057804957 -0.15274923 0.39683884 0.0012904123 863 203
-0.055806059 -0.15250422 0.39651704 0.0013341255 785 184
-0.053554907 -0.15152818 0.39427981 0.00130595 823 193
-0.051998053 -0.15251701 0.39714316 0.0014471665 722 169
-0.050355475 -0.1533201 0.39951423 0.001618458 595 138
-0.048776601 -0.15438838 0.40256771 0.0017279148 524 121
nan nan nan 0 477 110
nan nan nan 0 444 102
nan nan nan 0 396 90
nan nan nan 0 366 83
nan nan nan 0 368 84
nan nan nan 0 386 88
nan nan nan 0 412 94
nan nan nan 0 392 89
nan nan nan 0 350 79
-0.036990028 -0.19372351 0.50772905 0.0022279844 344 78
-0.035100527 -0.19670421 0.51572806 0.0023989435 329 74
-0.032671794 -0.19688447 0.51637435 0.0023806712 355 80
-0.030233143 -0.19702946 0.51691526 0.0021806471 361 82
-0.02787105 -0.19774334 0.51893622 0.0022992857 337 76
-0.025383478 -0.19761926 0.51874566 0.0022970845 335 76
-0.023000184 -0.19836776 0.52083308 0.0022785151 341 77
-0.020528348 -0.19844127 0.52113575 0.0023495657 352 80
-0.017986555 -0.19776577 0.51945859 0.0023698737 354 80
-0.015483513 -0.19736898 0.51850033 0.0022963001 354 80
-0.012849608 -0.19483751 0.51192057 0.0022810074 355 80
nan nan nan 0 325 73
nan nan nan 0 361 82
-0.004340135 -0.15253821 0.40089038 0.0020141448 412 94
-0.0024400128 -0.15294461 0.40197539 0.001957437 431 99
-0.00052768225 -0.15275791 0.40149218 0.001777136 498 115
0.0013841409 -0.15303113 0.40220812 0.001786069 506 117
0.0032781409 -0.15216002 0.39990696 0.0017634894 513 119
0.0051852302 -0.15231307 0.40028813 0.0017042232 524 121
0.0070810756 -0.15214235 0.39980876 0.0017842166 493 114
0.0091631273 -0.15519769 0.40779686 0.0020500585 401 92
0.0111644 -0.15605631 0.41000187 0.0022429817 365 83
0.013146182 -0.15642759 0.41091624 0.0020970125 391 89
0.015316044 -0.15865098 0.41668484 0.0022119377 352 80
0.017067635 -0.15652859 0.41102958 0.0021619496 374 85
0.019136168 -0.15745054 0.41335881 0.0021651958 374 85
0.021184409 -0.15804915 0.41482803 0.002399757 315 71
0.02345185 -0.16004151 0.41994333 0.0025517025 325 73
0.025359338 -0.15945736 0.41828638 0.0025745535 321 72
0.02747542 -0.16017437 0.42003185 0.0026846996 312 70
0.029690851 -0.16133381 0.42292514 0.0024616462 304 68
0.031626854 -0.16092403 0.42169312 0.0027075945 300 67
0.033718109 -0.16130593 0.42252463 0.0026657546 307 69
0.03568434 -0.16108038 0.42175362 0.0024638418 310 70
0.037130319 -0.15865593 0.41521713 0.0024952937 327 74
0.039052717 -0.15840982 0.4143734 0.0024599151 323 73
0.040824756 -0.15760697 0.41206333 0.0023130788 370 84
0.042709079 -0.15729158 0.41101775 0.002287497 383 87
0.044688854 -0.15734002 0.41091162 0.0021386985 416 95
0.046734028 -0.1576049 0.41135862 0.0020183905 408 93
0.049064633 -0.15877204 0.41414627 0.0022689791 382 87
0.051321037 -0.15961765 0.41607982 0.0022504136 360 82
0.053883918 -0.16131747 0.42022327 0.0024494044 316 71
0.057215139 -0.16511197 0.42980054 0.0029069295 264 59
0.062610567 -0.17439179 0.45361844 0.0031994572 211 46
0.066039823 -0.17775497 0.46200764 0.0036180499 209 45
0.068431765 -0.17819802 0.46278507 0.002693909 272 60
0.071395494 -0.18005517 0.46721554 0.0027868908 283 63
nan nan nan 0 207 45
0.085662581 -0.20322378 0.5263986 0.0032621988 232 51
0.08882907 -0.20466694 0.5296402 0.0027326455 292 65
0.091809481 -0.20561257 0.53157145 0.0023988569 314 71
0.095228247 -0.20746168 0.5358144 0.0023594524 321 72
0.097932883 -0.20769823 0.53587008 0.0023435683 335 76
0.10064384 -0.2079356 0.53590953 0.0025410303 316 71
0.10321306 -0.20787555 0.53516507 0.0024634448 320 72
0.1060167 -0.20827903 0.53559607 0.0023293018 325 73
0.10899907 -0.20900585 0.53683877 0.0024492063 317 71
0.11167537 -0.20912549 0.53650302 0.0026765796 311 70
0.1147384 -0.20994729 0.53794968 0.0026112713 313 70
0.11761786 -0.21040398 0.53844118 0.0022848698 337 76
0.12037434 -0.2106255 0.53831357 0.0024162182 330 74
0.12326469 -0.21106675 0.53873104 0.0024149644 322 73
0.12597363 -0.21118538 0.5383094 0.0023133124 333 75
0.12934823 -0.21239221 0.54064417 0.0024157735 321 72
0.13146399 -0.21152501 0.53768647 0.0023531772 322 73
0.13437648 -0.21194865 0.538001 0.0024766775 298 67
0.13792606 -0.21334137 0.54075921 0.0024059 308 69
0.14058731 -0.21333326 0.53995377 0.0026063928 311 70
0.14318292 -0.21322766 0.53889555 0.0023734458 328 74
0.14627936 -0.2138582 0.53969121 0.0025336135 306 69
0.14981262 -0.21509323 0.54200262 0.0024385366 303 68
0.15277384 -0.21547791 0.54216456 0.0024959689 296 66
0.15542205 -0.21541539 0.54120183 0.0024905112 297 67
0.15808643 -0.21537705 0.54030448 0.0026009937 319 72
0.16102304 -0.21570466 0.54033095 0.0023964695 312 70
0.16416799 -0.21629599 0.54102421 0.0025668112 308 69
0.16783969 -0.21755095 0.54338348 0.0026246621 293 66
0.17112164 -0.21826869 0.54440957 0.0026852805 294 66
0.1740967 -0.21857868 0.54443431 0.0025900558 302 68
0.17693451 -0.21870941 0.54403353 0.0026214544 283 63
0.17988843 -0.21897747 0.54399884 0.002550849 285 64
0.1828419 -0.21923697 0.54397064 0.0025883997 280 62
0.18556011 -0.21921089 0.54326582 0.0027801874 281 63
0.1886871 -0.21966143 0.54377723 0.0026426855 280 62
0.19189121 -0.22018757 0.54451251 0.0026794409 286 64
0.19537677 -0.2210172 0.54603767 0.0028570823 276 61
0.19839141 -0.22129843 0.54625148 0.0026306761 269 60
0.20111316 -0.2212497 0.54569918 0.0026857285 267 59
0.20393361 -0.22130933 0.54546553 0.0030189315 252 56
0.20703903 -0.22167259 0.54603362 0.0030757035 227 50
0.2096004 -0.2214514 0.54521787 0.0029376417 245 54
0.21309933 -0.22221361 0.54688096 0.0031084931 237 52
0.21609351 -0.22243668 0.54727608 0.0031155066 223 49
0.21838637 -0.22194134 0.54596478 0.0030022059 229 50
0.22107524 -0.22185577 0.54572403 0.0029395304 230 50
0.22458059 -0.2225816 0.54754186 0.003146762 211 46
0.2276157 -0.2228293 0.54824728 0.0032643822 205 44
0.23036678 -0.22279632 0.54832584 0.0034326063 193 41
0.23335081 -0.22298673 0.54901814 0.0036332125 185 40
0.23663093 -0.22345224 0.55045217 0.0038275896 162 34
0.23956846 -0.22358713 0.55113566 0.0039043105 161 34
0.24324532 -0.22440098 0.5535571 0.0041608587 155 32
0.25029624 -0.22827348 0.56359553 0.0054982482 119 24
0.25513309 -0.23006219 0.56856376 0.0060911416 107 21
0.25954011 -0.23142774 0.57255578 0.0076053715 83 15
0.26413527 -0.23292907 0.57695222 0.0066255718 83 15
0.26747692 -0.23330434 0.57862508 0.0069037327 94 18
0.27055341 -0.23344271 0.57977051 0.0047196932 140 29
0.2731804 -0.2331944 0.58001208 0.0033437242 195 42
0.27484602 -0.23213939 0.57829785 0.002724407 260 58
0.27701133 -0.23152407 0.57772619 0.0020459048 432 99
0.28128311 -0.23266378 0.58158839 0.0016026833 615 143
0.28430441 -0.23275645 0.5828898 0.0014404577 711 166
0.28660789 -0.23226553 0.58277696 0.0015852577 591 137
0.2882238 -0.23123285 0.58134496 0.0015567114 591 137
