# .PCD v0.7 - Point Cloud Data file format
VERSION 0.7
FIELDS x y z noise intensity gray
SIZE 4 4 4 4 2 1
TYPE F F F F U U
COUNT 1 1 1 1 1 1
WIDTH 855
HEIGHT 1
VIEWPOINT 0 0 0 1 0 0 0
POINTS 855
DATA ascii
-0.1857741 -0.051838394 0.52070528 0.0012295394 884 177
-0.18200807 -0.051471278 0.51788014 0.0010996304 1074 219
-0.17910016 -0.051340137 0.51738799 0.0010583538 1142 235
-0.17581251 -0.051095005 0.51570839 0.0010976361 1158 238
-0.17343459 -0.051111095 0.5166297 0.0010340011 1189 245
-0.17130604 -0.051202174 0.51827884 0.0010828038 1118 229
-0.16905572 -0.051258951 0.51955175 0.0011026402 1108 227
-0.16650514 -0.051225036 0.51987511 0.0010829192 1147 236
-0.16383553 -0.051152937 0.51977962 0.0010633315 1115 229
-0.16080847 -0.050965369 0.51847839 0.0010650485 1138 234
-0.15861447 -0.051040135 0.51981616 0.001148911 1083 221
-0.15587203 -0.050938003 0.51932412 0.0011314178 1115 229
-0.15331244 -0.050893329 0.51938939 0.0010958556 1122 230
-0.15012144 -0.050634257 0.51723713 0.0010682656 1130 232
-0.14834782 -0.050852604 0.51993591 0.0011006026 1050 214
-0.14588095 -0.050836597 0.52021545 0.0011503771 1052 214
-0.14313751 -0.050722063 0.51946145 0.0011606723 1065 217
-0.14100993 -0.050825566 0.52091694 0.0011091499 1041 212
-0.1386973 -0.050864823 0.5216924 0.0011171375 1042 212
-0.13619885 -0.05083612 0.52174878 0.0011277087 1050 214
-0.13363749 -0.050782468 0.52152729 0.0010935618 1073 219
-0.13091554 -0.050664693 0.52062571 0.001097516 1082 221
-0.12858449 -0.050696619 0.5212419 0.0011135634 1074 219
-0.12605838 -0.050651386 0.52104568 0.0011188628 1061 216
-0.1238628 -0.050739788 0.52220595 0.0011558615 984 199
-0.12154747 -0.050781678 0.52287018 0.0011663769 959 194
-0.11896569 -0.050711684 0.52236533 0.0011881673 966 195
-0.11645561 -0.050669994 0.52213508 0.0011808479 990 201
-0.11391226 -0.050611746 0.52171803 0.0011923534 981 199
-0.11154681 -0.050631747 0.52209222 0.0011373135 1006 204
-0.10915102 -0.050638545 0.52231604 0.0011670806 1001 203
-0.1066251 -0.050583921 0.52189219 0.0011559749 987 200
-0.10434913 -0.050648089 0.52268082 0.0012682703 941 190
-0.10202131 -0.050689526 0.52322257 0.001180548 954 192
-0.09952303 -0.050646234 0.52287769 0.0012469575 932 187
-0.096962996 -0.050568573 0.52216631 0.0011786816 958 193
-0.094883837 -0.050744142 0.52405912 0.0011954315 933 188
-0.092702016 -0.050872549 0.525455 0.001181273 930 187
-0.090186328 -0.050819699 0.52496922 0.0012563277 953 192
-0.087745003 -0.050807003 0.52488893 0.0011972114 919 185
-0.0852888 -0.050784737 0.52470118 0.0011970721 946 191
-0.082790993 -0.05073566 0.52422845 0.0012259117 954 192
-0.080414072 -0.050759941 0.52450615 0.0012260508 931 187
-0.078062899 -0.050802495 0.52496564 0.0011948756 930 187
-0.075805582 -0.050910797 0.52609807 0.0012967875 874 174
-0.073406696 -0.05092803 0.52628362 0.0012119323 931 187
-0.071075656 -0.050995126 0.52697891 0.0011921115 935 188
-0.068619207 -0.050973807 0.52675557 0.001263227 917 184
-0.066004321 -0.050828919 0.52525079 0.0012042013 929 187
-0.063807428 -0.051007137 0.52708077 0.0012426598 939 189
-0.061514009 -0.051119234 0.52822393 0.0012306239 890 178
-0.05922807 -0.051247049 0.52952611 0.0012907091 859 171
-0.056748338 -0.051210966 0.52913195 0.0012731245 904 181
-0.054351203 -0.051249519 0.52950674 0.0012619139 878 175
-0.051993035 -0.051330172 0.53031433 0.0012186009 899 180
-0.049612571 -0.051395677 0.5309639 0.0011681056 976 197
-0.047442857 -0.051697638 0.53405488 0.0012053001 921 185
-0.044985481 -0.051702019 0.53407073 0.001233611 899 180
-0.042476855 -0.051644597 0.53344774 0.001212071 904 181
-0.040047742 -0.05168274 0.53381163 0.0012093757 932 187
-0.037645474 -0.051762789 0.53460848 0.0011881007 949 191
-0.035183929 -0.051766843 0.5346207 0.0011795708 946 191
-0.032738868 -0.051797576 0.53490931 0.0012616968 914 183
-0.030294508 -0.051834516 0.53526294 0.0011965401 926 186
-0.027845398 -0.051869154 0.53559405 0.0012314939 942 190
-0.025377437 -0.051872015 0.5355984 0.0012758287 896 179
-0.022903446 -0.051861841 0.53546983 0.0012059619 918 184
-0.020416915 -0.051817376 0.534989 0.0011851364 937 189
-0.017927799 -0.051753223 0.53430718 0.0012941858 892 178
-0.015427946 -0.051632695 0.53304547 0.0012807555 868 173
-0.012949596 -0.051552083 0.53219825 0.0012445899 861 172
-0.010499229 -0.051571224 0.53238326 0.0012777981 860 171
-0.0080287876 -0.051473342 0.53136283 0.0012637847 905 181
-0.005573709 -0.051431239 0.5309208 0.0011574513 978 198
-0.0031222422 -0.05138259 0.53041375 0.001189393 979 198
-0.00067802973 -0.051533211 0.53196657 0.0011923146 936 188
0.001776188 -0.051557951 0.53222251 0.0012263794 909 182
0.0042291414 -0.051538583 0.53202587 0.0011813605 974 197
0.0067047104 -0.051707845 0.5337792 0.0012312006 905 181
0.0091545852 -0.051641267 0.53310043 0.0012233418 898 180
0.011623091 -0.051685713 0.53357053 0.0012284858 885 177
0.01407517 -0.05165435 0.53326041 0.0012175748 904 181
0.016545206 -0.051688414 0.53362817 0.0011994229 921 185
0.019044721 -0.051793825 0.53473485 0.0012302609 889 178
0.021539781 -0.051864348 0.53548342 0.0012349822 884 177
0.024017891 -0.051883742 0.53570628 0.0012185293 902 181
0.026468778 -0.051846202 0.53534287 0.0012617079 906 182
0.028935814 -0.051843997 0.53534597 0.001278452 894 179
0.03141338 -0.051859532 0.53553355 0.0012797309 892 178
0.033895027 -0.051879037 0.53576344 0.0012442764 872 174
0.036330346 -0.0518298 0.53528416 0.0012712855 881 176
0.03881526 -0.051853091 0.53555441 0.0012151683 902 181
0.041434508 -0.052042309 0.53753901 0.0012429061 861 172
0.043959241 -0.05209817 0.53814632 0.001249568 869 173
0.046455514 -0.05211613 0.53836173 0.001240066 859 171
0.048921071 -0.052099556 0.53821987 0.0012905526 863 172
0.051379133 -0.052076992 0.53801507 0.0012960604 876 175
0.053831205 -0.052050706 0.53777045 0.001236394 877 175
0.056213889 -0.051962599 0.5368852 0.0012441411 873 174
0.05877189 -0.052037138 0.53767836 0.0012868011 890 178
0.061280943 -0.052064076 0.53797704 0.001229403 921 185
0.063839324 -0.05212919 0.53866726 0.0012425253 887 177
0.066357791 -0.052158058 0.53897965 0.0012166693 907 182
0.068812512 -0.052136544 0.5387674 0.0012683927 914 183
0.07135994 -0.052184332 0.53926694 0.0012030811 925 186
0.073888369 -0.052215464 0.53958964 0.0012681719 905 181
0.076220691 -0.052110512 0.53850055 0.001200536 920 185
0.078592278 -0.052038163 0.53774267 0.0012126364 940 189
0.081389874 -0.052243691 0.53984982 0.0012034343 902 181
0.084019288 -0.052332278 0.54074174 0.0011913385 929 187
0.086542919 -0.052351769 0.54091203 0.0012182409 917 184
0.088702261 -0.052155975 0.53885031 0.0011605972 968 196
0.09114816 -0.052134749 0.5385837 0.0011918581 929 187
0.093823843 -0.052242592 0.53964132 0.001197779 921 185
0.096437491 -0.052311216 0.54028398 0.0012317762 905 181
0.098962843 -0.052329693 0.5403983 0.001187445 944 190
0.10150299 -0.052354902 0.54057133 0.0011831261 929 187
0.1039257 -0.052319776 0.54010987 0.0012084502 961 194
0.10641648 -0.052319754 0.53999889 0.0012087491 949 191
0.10895629 -0.052343294 0.54011834 0.0011731748 963 194
0.11159046 -0.052410107 0.54067063 0.001254664 930 187
0.11426112 -0.052490752 0.54135138 0.001223834 883 176
0.11715066 -0.052666336 0.54299575 0.0013585882 794 156
0.12106862 -0.053287219 0.54921311 0.0014326207 710 138
0.12423144 -0.053557076 0.55179334 0.0015357346 687 132
0.12711273 -0.05369715 0.55301762 0.0014626676 669 128
0.12952588 -0.053637832 0.55217046 0.0014843284 660 126
0.1308914 -0.053155363 0.54695147 0.0014634155 671 129
0.13290857 -0.052950814 0.54457641 0.001523238 664 127
0.13430321 -0.052510489 0.53976035 0.0015102843 643 123
0.13650312 -0.052395336 0.5382697 0.0015541918 639 122
0.13734147 -0.051771086 0.53153276 0.0014916901 649 124
0.13868491 -0.051355887 0.52692753 0.0015107511 637 121
0.14026685 -0.051041849 0.52334338 0.0015771177 636 121
0.14084792 -0.050380509 0.51618296 0.0015079362 644 123
0.14141069 -0.049734876 0.50917089 0.0014931534 649 124
0.14216958 -0.049178351 0.5030576 0.0015129605 667 128
0.14377585 -0.048928227 0.50006181 0.0014758335 664 127
0.14253917 -0.047734015 0.4874064 0.0015169851 690 133
nan nan nan 0 758 148
0.13257086 -0.043023944 0.43843442 0.0011891129 956 193
0.12947045 -0.041378442 0.42121062 0.0011029327 1193 246
0.13142887 -0.041374817 0.42069563 0.0012293973 927 186
nan nan nan 0 218 27
0.17373219 -0.053100567 0.53860414 0.0031022541 275 40
0.17613178 -0.053061891 0.5375067 0.0017529154 526 96
0.18030931 -0.053552359 0.54173106 0.0016084741 580 108
0.18340874 -0.053713415 0.54258132 0.0017015761 589 110
0.18667571 -0.053918432 0.54383659 0.0016701915 564 105
0.18941431 -0.053967342 0.54347938 0.0016523169 594 111
0.19258554 -0.054136563 0.54429561 0.0015428747 608 115
0.19597028 -0.054360542 0.54562086 0.0015450798 600 113
0.19913086 -0.054517306 0.54622954 0.0015270832 609 115
0.20205349 -0.054605737 0.54611355 0.0015957177 609 115
0.20489067 -0.054669116 0.5457086 0.0015100631 628 119
0.20750546 -0.054672316 0.54466629 0.001569328 601 113
0.21033357 -0.054730941 0.54413992 0.0015038694 643 123
0.21425363 -0.055068791 0.54634702 0.0016054356 624 118
0.21718691 -0.055147905 0.54594463 0.0016647282 602 113
0.22012979 -0.055227552 0.54551148 0.0016746069 587 110
0.22327217 -0.055354767 0.54551262 0.0016498388 595 112
0.22646973 -0.055492535 0.54558271 0.0016150809 582 109
0.22999923 -0.055707537 0.54637688 0.0015968125 580 108
0.23341908 -0.055891365 0.54683185 0.0015776101 588 110
0.23625331 -0.055932414 0.54586399 0.0015994083 577 108
0.23932941 -0.056029178 0.54541981 0.0017720092 551 102
0.24285074 -0.056226879 0.54593909 0.0017004113 540 99
0.24635263 -0.05641583 0.54635733 0.0016194682 562 104
0.25056055 -0.056760635 0.548271 0.0017850504 546 101
0.25375563 -0.056871086 0.54791588 0.0016918641 528 97
0.25688544 -0.056964744 0.54740775 0.0018140188 521 95
0.26090756 -0.057252236 0.54877508 0.0017680778 481 86
0.26405814 -0.057344526 0.54829305 0.0019387243 478 85
0.26756769 -0.057512075 0.54856473 0.0019159076 452 80
0.27057055 -0.057568423 0.54782039 0.0019299224 432 75
0.27514175 -0.057953995 0.55025893 0.0020025393 399 68
0.27799633 -0.057973921 0.54928672 0.0020154666 401 68
0.28116834 -0.058059003 0.54900867 0.0022617194 377 63
0.28350535 -0.057971686 0.54718816 0.0023693 368 61
0.2858201 -0.057881534 0.54543972 0.0021902372 351 57
0.2913183 -0.058431637 0.54982126 0.00244698 346 56
-0.30324483 -0.051290438 0.5072816 0.002895799 245 33
-0.30330375 -0.051737834 0.51101112 0.0027219653 259 36
-0.30274114 -0.052085996 0.51384556 0.0026452437 274 40
-0.30040729 -0.052132815 0.51380235 0.0024998579 291 43
-0.29777724 -0.052128594 0.51335931 0.0026477051 325 51
-0.2948736 -0.052075997 0.51254731 0.0023461429 319 50
-0.292009 -0.052029401 0.51190484 0.0023139764 323 51
-0.28924698 -0.052000426 0.51154828 0.0022634312 346 56
-0.28714854 -0.052091297 0.51248527 0.0021756876 362 59
-0.28479281 -0.052136719 0.51309061 0.0021240874 367 60
-0.28192508 -0.052088398 0.51288915 0.002102372 376 62
-0.27911142 -0.052049257 0.51289207 0.0022012903 395 67
-0.27659607 -0.052065533 0.51355356 0.0019428256 415 71
-0.27366143 -0.05200243 0.51354116 0.0019645505 442 77
-0.27052572 -0.05189956 0.51323885 0.0019350952 457 81
-0.26757216 -0.051829964 0.51336247 0.0018700344 469 83
-0.26360825 -0.051561397 0.5116024 0.001767699 511 93
-0.26085189 -0.051526047 0.51223594 0.0017565949 487 87
-0.25828803 -0.051528394 0.51332062 0.0018095913 529 97
-0.25473082 -0.051330626 0.51247573 0.0016776217 569 106
-0.25191534 -0.051279821 0.51315159 0.0016129052 560 104
-0.24842378 -0.051088925 0.51247001 0.0015773375 582 109
-0.24444461 -0.050792754 0.5107612 0.0017291997 568 106
-0.24135157 -0.05067642 0.5108822 0.0015605392 603 114
nan nan nan 0 736 143
-0.18343896 -0.039342407 0.39867407 0.0010444853 1292 255
-0.17981684 -0.038983501 0.39606664 0.00092311529 1455 255
nan nan nan 0 1066 218
nan nan nan 0 803 158
-0.20626722 -0.046220507 0.47324365 0.0013776601 745 145
-0.2082193 -0.047186472 0.48435539 0.0013954086 724 141
-0.2065503 -0.047344565 0.48718652 0.0014162493 722 140
-0.20664546 -0.04791538 0.49426255 0.0014168629 716 139
-0.20718929 -0.048604846 0.50257021 0.0014248862 702 136
-0.2059758 -0.048893526 0.50673133 0.0014795603 691 133
-0.20500715 -0.049247954 0.51156092 0.0015052742 707 137
-0.20403671 -0.04961057 0.51646185 0.0014077172 710 138
-0.20286877 -0.049933489 0.52093339 0.0014909433 709 137
-0.20121223 -0.050142691 0.52419746 0.0014146881 721 140
-0.19916169 -0.05025775 0.52645063 0.0014608012 738 144
-0.19695854 -0.050336745 0.5282957 0.0013666837 748 146
-0.19439772 -0.050325189 0.52915722 0.0014340444 766 150
-0.19195516 -0.050344355 0.53030753 0.0013047974 805 159
-0.18516102 -0.049207564 0.51922649 0.0012644243 905 181
-0.18220402 -0.049073637 0.5186708 0.0011357157 1077 220
-0.17835997 -0.048693888 0.51547486 0.0010967706 1143 235
-0.17593186 -0.048695534 0.51627755 0.0010417181 1177 243
-0.17362922 -0.048732448 0.51742256 0.0010653597 1187 245
-0.17126197 -0.048752017 0.51835257 0.0011133119 1155 238
-0.1689425 -0.048785947 0.51940489 0.0010736083 1122 230
-0.16638306 -0.048750572 0.51968861 0.0010511825 1152 237
-0.16301301 -0.04847309 0.51735765 0.0010503816 1162 239
-0.16123776 -0.048668619 0.52004486 0.0011055637 1153 237
-0.15827642 -0.048506644 0.51888388 0.0010645484 1140 234
-0.15590452 -0.048523076 0.51960194 0.0010847695 1089 223
-0.15352841 -0.048538703 0.52028471 0.001100432 1071 219
-0.15108171 -0.048532158 0.52070349 0.0010973816 1061 216
-0.14863184 -0.048524361 0.521083 0.0010869302 1075 220
-0.14610294 -0.048490074 0.52115285 0.0011578033 1068 218
-0.14311588 -0.048300009 0.51952249 0.0010789084 1103 226
-0.14106216 -0.048423816 0.52124411 0.0011454929 1055 215
-0.13874063 -0.048458412 0.52198398 0.0011165965 1023 208
-0.136179 -0.048408881 0.52179557 0.001136036 1009 205
-0.13370965 -0.048390955 0.52192622 0.0011239183 1020 207
-0.13134553 -0.048411157 0.52244753 0.0011757134 999 203
-0.12887782 -0.048393227 0.52253741 0.0011140961 1047 213
-0.12638964 -0.048366763 0.52251583 0.0011511429 1004 204
-0.12395123 -0.04835869 0.52267438 0.0011867877 1017 207
-0.12108499 -0.048180066 0.52097088 0.0012064381 979 198
-0.11907167 -0.048340451 0.52291602 0.0011998717 954 192
-0.11664005 -0.048334155 0.52304226 0.0011834227 943 190
-0.11418099 -0.048315968 0.52302402 0.0012350853 958 193
-0.11172152 -0.048296824 0.52298015 0.0012271276 957 193
-0.10943346 -0.048352569 0.52373308 0.0011649226 971 196
-0.1067789 -0.048245233 0.5227055 0.0011602363 984 199
-0.10441719 -0.048268318 0.52307761 0.001203186 996 202
-0.10209347 -0.048310477 0.52364397 0.0012108267 991 201
-0.09944687 -0.048198182 0.52252424 0.0011598674 984 199
-0.096985236 -0.04817218 0.52232826 0.0012210577 965 195
-0.094716489 -0.048243105 0.52317256 0.0012349548 941 190
-0.092603043 -0.048398905 0.52492762 0.0011966947 954 192
-0.090214968 -0.048415676 0.52516526 0.0011533025 980 198
-0.087789185 -0.048412573 0.52517843 0.0011978371 960 194
-0.085357971 -0.048406228 0.52514786 0.0011926576 933 188
-0.082886942 -0.048376262 0.52485299 0.0011924946 932 187
-0.080458477 -0.048370086 0.52480888 0.0012246352 984 199
-0.078203499 -0.048471056 0.52592039 0.0012539719 900 180
-0.075721867 -0.048433512 0.52552265 0.0012052163 917 184
-0.073287606 -0.048424784 0.52543169 0.0012150987 950 192
-0.070981883 -0.048503298 0.52628201 0.001266197 943 190
-0.068544015 -0.048493881 0.52617329 0.0011728026 948 191
-0.066080369 -0.048464853 0.52584743 0.001169638 960 194
-0.063739166 -0.048526835 0.52650505 0.0011664289 958 193
-0.061538197 -0.048704725 0.52841663 0.0011904726 920 185
-0.059216999 -0.048798181 0.52940899 0.0013163037 853 170
-0.056756135 -0.048779637 0.52918357 0.0011848159 927 186
-0.054361638 -0.048819028 0.52958435 0.0012206559 880 176
-0.051994022 -0.048887391 0.53029758 0.0011891956 939 189
-0.049785722 -0.049119692 0.53278744 0.0011897862 925 186
-0.047444686 -0.049238339 0.53404325 0.0012255689 901 181
-0.044973001 -0.049226958 0.53388798 0.0012176718 893 179
-0.042519588 -0.049235411 0.53394747 0.0011906803 930 187
-0.040072814 -0.049253065 0.53410655 0.0012426462 951 192
-0.037636861 -0.049287211 0.53444475 0.0011954952 916 184
-0.035177052 -0.049292713 0.53447288 0.0011958401 918 184
-0.032708969 -0.049286567 0.53437561 0.0012450371 931 187
-0.030242532 -0.049282108 0.53429776 0.0012434502 944 190
-0.027824853 -0.049363349 0.53515029 0.0011999062 919 185
-0.025386868 -0.049420882 0.53574735 0.0012276687 918 184
-0.022907831 -0.049402282 0.53552091 0.0012207051 898 180
-0.020418355 -0.049353957 0.53497428 0.0012230292 885 177
-0.017923824 -0.049278453 0.53413516 0.0013030109 865 172
-0.015416998 -0.049139693 0.53261298 0.0012454434 875 175
-0.012953524 -0.049112704 0.53230458 0.0012485529 857 171
-0.010499441 -0.049117036 0.53233832 0.0012909286 845 168
-0.0080742175 -0.04930022 0.53431308 0.0012285119 880 176
-0.0055773994 -0.049015153 0.53121585 0.0012221982 982 199
-0.0031305936 -0.049067289 0.53177571 0.001162609 976 197
-0.00067633222 -0.048956975 0.53057796 0.0012311337 929 187
0.0017718271 -0.048982847 0.53085905 0.0012209534 939 189
0.0042218748 -0.049000613 0.53105503 0.001211849 927 186
0.006688775 -0.049129121 0.53245407 0.0012171405 941 190
0.0091793127 -0.049315598 0.53448421 0.0012270282 887 177
0.011624893 -0.049232714 0.53359765 0.0012865446 878 175
0.014067654 -0.049168941 0.5329209 0.0012545604 922 185
0.01653799 -0.04920619 0.53334159 0.0013133925 883 176
0.019051464 -0.049345512 0.53487104 0.00135185 834 165
0.021522785 -0.049356241 0.53500897 0.0013405968 842 167
0.02399132 -0.049359024 0.53506285 0.0013098209 895 179
0.026471864 -0.049383696 0.53535593 0.0012785398 898 180
0.028949529 -0.049399234 0.53555179 0.0012033897 923 185
0.031446539 -0.049442761 0.53605258 0.0012042896 914 183
0.033924598 -0.049452312 0.53618628 0.0012946832 877 175
0.036386728 -0.04943892 0.53607225 0.0012554582 882 176
0.038873397 -0.049458463 0.53631604 0.0012291803 883 176
0.04147109 -0.049608469 0.53797513 0.001229536 873 174
0.043997165 -0.049660712 0.53857422 0.001242246 889 178
0.046460062 -0.049639869 0.53838062 0.0012550942 854 170
0.048900161 -0.04959802 0.53795856 0.0012364372 886 177
0.051348437 -0.049568102 0.53766489 0.0012289828 880 176
0.053802162 -0.049545959 0.53745437 0.0012206349 901 181
0.056280635 -0.049547553 0.53749955 0.0012025492 914 183
0.058731921 -0.049526088 0.53729272 0.0011967965 928 187
0.061202973 -0.049522344 0.53727555 0.0011952015 914 183
0.063858733 -0.049662542 0.53881723 0.0012186712 905 181
0.066410571 -0.049714457 0.53939778 0.0011969417 913 183
0.06893234 -0.049740929 0.53969842 0.0012788859 873 174
0.071387216 -0.049718954 0.5394693 0.0012107001 917 184
0.074049532 -0.049838088 0.54076636 0.0012083978 931 187
0.07638441 -0.049736261 0.53966075 0.0012664297 930 187
0.078791022 -0.049686085 0.53910989 0.00120525 914 183
0.081274047 -0.049685687 0.53909284 0.0012128551 941 190
0.084041372 -0.049853969 0.54089916 0.0012348016 914 183
0.086456478 -0.049809638 0.54039121 0.0012026735 937 189
0.088672325 -0.049656194 0.53869188 0.0012615114 942 190
0.091159932 -0.049659155 0.53868091 0.001180948 947 191
0.093750194 -0.049716398 0.53924984 0.0011961119 957 193
0.096334979 -0.049767852 0.53974628 0.0011922069 961 194
0.098940164 -0.049826983 0.54031563 0.0011710953 964 195
0.10147322 -0.049847789 0.54045838 0.00122016 969 196
0.10401634 -0.049872421 0.54063129 0.0011734738 961 194
0.10647327 -0.04985553 0.54034209 0.001229564 968 196
0.10902665 -0.049883552 0.54052699 0.001224364 960 194
0.11154351 -0.049893986 0.54050791 0.001200588 914 183
0.11404531 -0.049897365 0.54039854 0.001223446 902 181
0.11712106 -0.050146349 0.54293376 0.0013701884 785 154
0.12125127 -0.050826915 0.55012321 0.0014102297 699 135
0.12430366 -0.05103701 0.55220121 0.0014809365 677 130
0.12723954 -0.051191777 0.55366212 0.001473925 668 128
0.12926979 -0.050983261 0.55117667 0.0015914154 675 130
0.13147041 -0.050848715 0.54947406 0.0014691274 662 127
0.13209677 -0.050121933 0.54135734 0.0014819304 653 125
0.13421179 -0.049976554 0.53950536 0.0014911448 654 125
0.13607673 -0.049745057 0.53670591 0.0014933641 643 123
0.13736504 -0.049314857 0.53174615 0.0014907647 649 124
0.13859425 -0.048878983 0.52670956 0.0015300184 641 122
0.14018016 -0.048581831 0.5231514 0.0016100005 624 118
0.14032076 -0.047802433 0.514386 0.0015185935 628 119
0.14127544 -0.047321819 0.5088231 0.0014986614 645 123
0.14263411 -0.046990126 0.50484514 0.0015850875 667 128
0.14348218 -0.046503693 0.49918842 0.0014734379 664 127
0.14273779 -0.045524877 0.48823607 0.001467415 679 131
nan nan nan 0 767 150
0.13211106 -0.040833566 0.43705869 0.0011588946 1007 204
0.12946984 -0.03940833 0.42135343 0.0010642594 1154 237
0.13144311 -0.039409336 0.42089093 0.0012233829 870 174
nan nan nan 0 208 25
0.17027661 -0.049566679 0.52809203 0.0026897155 289 43
0.17613193 -0.050535787 0.53771824 0.0018145692 553 102
0.18058217 -0.051080041 0.54277068 0.0015878996 581 109
0.18307906 -0.051064305 0.54183221 0.0016591226 586 110
0.18594852 -0.051151477 0.54195106 0.0015682555 622 118
0.18943052 -0.051402494 0.54376632 0.0015266797 633 120
0.19242276 -0.051515676 0.54408294 0.0016226678 636 121
0.19566464 -0.05169183 0.54502434 0.001551492 609 115
0.19908386 -0.051909614 0.54636234 0.0015231878 624 118
0.20204686 -0.052004386 0.54636383 0.0015565942 594 111
0.20481698 -0.052047737 0.54578668 0.0016347368 613 116
0.20756197 -0.052083679 0.54509479 0.0016543277 612 116
0.21036083 -0.052132092 0.5444963 0.0015267167 620 117
0.21408045 -0.052404717 0.54619783 0.0015036508 620 117
0.21709436 -0.052500073 0.54600972 0.0016072276 625 118
0.22040394 -0.052663803 0.54649377 0.0016611177 620 117
0.22363654 -0.052805498 0.54671049 0.0017390308 569 106
0.22702233 -0.052979641 0.54722565 0.0017004714 543 100
0.23009367 -0.053077228 0.54691607 0.0016035232 568 106
0.23304205 -0.053144537 0.54626554 0.0015960304 577 108
0.23633988 -0.053289134 0.54638261 0.0016196151 566 105
0.23965107 -0.053433489 0.54647231 0.0017366093 556 103
0.24300793 -0.053584721 0.54661155 0.0015965558 577 108
0.24708325 -0.05388936 0.54829586 0.0016491993 553 102
0.25071606 -0.054091964 0.54892677 0.0016808324 553 102
0.25401658 -0.054219302 0.54879016 0.0017172043 527 96
0.25793266 -0.05447397 0.5499447 0.0018407655 492 89
0.2615402 -0.054658815 0.55040336 0.0019356859 480 86
0.26439756 -0.054684695 0.54928505 0.0018567898 461 82
0.26650703 -0.054556947 0.54666471 0.0018579025 449 79
0.27083156 -0.05488063 0.54861104 0.0019588897 458 81
0.27480799 -0.055128001 0.54983908 0.0019605269 420 72
0.27832016 -0.055278245 0.55015743 0.0020070584 400 68
0.28110564 -0.055282626 0.54909813 0.0022520388 385 64
0.28385407 -0.055279702 0.54805285 0.0021036728 383 64
0.28658926 -0.055274293 0.54707766 0.0021733572 364 60
0.29007593 -0.055412527 0.54762459 0.0022554423 341 55
-0.30886385 -0.049629461 0.51655895 0.0034225553 236 31
-0.30312273 -0.049122266 0.51059955 0.0031470906 249 34
-0.30195883 -0.049354494 0.51242614 0.0026770199 270 39
-0.30040443 -0.049526364 0.51372206 0.0024430393 300 45
-0.29801729 -0.04956276 0.51371527 0.0024357685 304 46
-0.29499242 -0.049492799 0.51271421 0.0025462653 300 45
-0.29223862 -0.049467467 0.51228684 0.0023451338 325 51
-0.28963825 -0.049467895 0.51223958 0.002296628 346 56
-0.2870113 -0.049463741 0.51225984 0.0022659309 358 58
-0.28474471 -0.049522184 0.51304454 0.0022701819 391 66
-0.2821798 -0.049529351 0.5134142 0.0022250977 385 64
-0.27975979 -0.049562328 0.51416659 0.0020341147 404 69
-0.2770071 -0.049536418 0.51442105 0.0019622571 441 77
-0.27367803 -0.049405973 0.51369715 0.0018826383 440 77
-0.27054662 -0.049309049 0.5134232 0.0018163951 463 82
-0.2673279 -0.049194183 0.51305771 0.0019310549 483 87
-0.26367745 -0.04899684 0.51191837 0.001744787 499 90
-0.26110455 -0.048997827 0.51293129 0.0017526289 523 96
-0.25856045 -0.049004268 0.51407701 0.0016691481 547 101
-0.2552886 -0.048871536 0.51382691 0.0016318421 561 104
-0.25166678 -0.048668414 0.51288646 0.0016840035 578 108
-0.24782014 -0.048417199 0.51147592 0.0016382182 591 111
-0.24455608 -0.048275769 0.51125419 0.0015748582 597 112
-0.24150701 -0.048174251 0.5114792 0.001585254 625 118
nan nan nan 0 723 140
-0.18179032 -0.03703988 0.3953062 0.00094577722 1485 255
-0.17987271 -0.037046332 0.39640796 0.00093492342 1491 255
nan nan nan 0 1154 237
nan nan nan 0 814 161
-0.20809002 -0.044298105 0.47769096 0.0014719104 744 145
-0.20748463 -0.044669587 0.48291355 0.0014387345 739 144
-0.20578326 -0.044810914 0.4856441 0.0014631116 757 148
-0.20776626 -0.045767125 0.49721384 0.0015326632 725 141
-0.20551209 -0.045801431 0.49876988 0.0014014303 729 142
-0.20599371 -0.046453521 0.50704408 0.0014135318 706 137
-0.20594428 -0.047000054 0.51416743 0.0014086734 716 139
-0.20427008 -0.047184579 0.51731753 0.0014576984 705 136
-0.20253628 -0.047359705 0.5203411 0.0014217405 708 137
-0.20118497 -0.047629744 0.5243845 0.0014125409 713 138
-0.19949546 -0.047825519 0.52758682 0.0014574028 726 141
-0.19713676 -0.047863822 0.52902251 0.0013763848 755 148
-0.19455431 -0.047848091 0.52982688 0.0014151995 764 150
-0.19174019 -0.047774222 0.5299508 0.0013524895 802 158
-0.18530683 -0.046784632 0.51986182 0.0012062732 919 185
-0.18153438 -0.04644924 0.51698369 0.0010945154 1098 225
-0.17874537 -0.046359774 0.51680166 0.001066328 1130 232
-0.1762044 -0.046333045 0.51728439 0.0011283162 1111 228
-0.17374747 -0.046327982 0.51797611 0.001110575 1133 233
-0.17075811 -0.046178784 0.51702231 0.0011195062 1111 228
-0.16817556 -0.046136878 0.51723564 0.0011143994 1140 234
-0.16586106 -0.046168361 0.51824117 0.0010544916 1136 233
-0.16370317 -0.046245024 0.5197255 0.0010384106 1177 243
-0.16092376 -0.046145774 0.51920331 0.0010543544 1151 237
-0.15849473 -0.046145491 0.51976508 0.0010880815 1081 221
-0.15593502 -0.046106569 0.51986325 0.0011390101 1077 220
-0.15350534 -0.046105459 0.52036029 0.0011077494 1066 218
-0.15101178 -0.046084829 0.52061057 0.0011241056 1031 210
-0.14866006 -0.046107519 0.52132463 0.0011867192 1024 208
-0.14619064 -0.046093844 0.52160275 0.0011591192 1016 206
-0.14349933 -0.046008572 0.52104563 0.0011169286 1044 213
-0.14096804 -0.045972556 0.52102196 0.0011407805 1011 205
-0.13855852 -0.045975685 0.52141905 0.0011813592 990 201
-0.13617054 -0.045986205 0.52187824 0.0011816936 1018 207
-0.13397646 -0.04606377 0.52307761 0.0011322742 1009 205
-0.13124734 -0.045956846 0.52216142 0.0011587507 998 202
-0.12891714 -0.04598821 0.52279615 0.0011281766 1020 207
-0.12633806 -0.045930292 0.5223968 0.0011952757 1000 203
-0.12379087 -0.045881938 0.52208716 0.0012148025 1001 203
-0.12145121 -0.045910116 0.52263057 0.0011643849 964 195
-0.11880834 -0.04582249 0.52183861 0.0012304671 960 194
-0.11660761 -0.045905292 0.52297109 0.0012000753 961 194
-0.11423066 -0.045920752 0.52332109 0.0011528149 981 199
-0.1117091 -0.045877505 0.52298695 0.0011457283 990 201
-0.10930461 -0.045881476 0.52317667 0.0011726025 958 193
-0.10694197 -0.04590359 0.52355945 0.001182149 945 190
-0.10455199 -0.045914713 0.52380407 0.0012477011 925 186
-0.10209665 -0.045896996 0.52370697 0.0011866053 925 186
-0.099418797 -0.045775965 0.52241892 0.0011429819 1015 206
-0.097007439 -0.045774665 0.52248579 0.0011376461 1006 204
-0.094823159 -0.045883182 0.52379566 0.0011887347 928 187
-0.092569172 -0.045962762 0.52476543 0.0012610055 928 187
-0.090126365 -0.045950342 0.52467525 0.0011666156 982 199
-0.087825328 -0.046011504 0.52541637 0.0012279007 946 191
-0.085451894 -0.046037134 0.52574342 0.0011901072 922 185
-0.082923576 -0.045978382 0.52509898 0.0011891071 938 189
-0.080545522 -0.046001915 0.52538681 0.0011932665 916 184
-0.0781589 -0.046021871 0.52562708 0.0012163247 898 180
-0.075821273 -0.046072859 0.52621555 0.0012146847 920 185
-0.073303834 -0.046014354 0.52554762 0.0011998524 932 187
-0.070853367 -0.045995332 0.5253253 0.0011825666 940 189
-0.068619952 -0.046120845 0.52674896 0.0012494313 920 185
-0.066304721 -0.046198547 0.52762228 0.0011966057 928 187
-0.063771397 -0.046124432 0.52675778 0.001171217 961 194
-0.061500538 -0.046241798 0.52807659 0.0011707895 945 190
-0.05926156 -0.046393789 0.52978778 0.001307897 863 172
-0.056834936 -0.046405625 0.52989578 0.0012508188 918 184
-0.054341584 -0.046361592 0.52936375 0.0013024294 895 179
-0.052017637 -0.046464745 0.53051049 0.0011953745 919 185
-0.049676277 -0.046561752 0.53158563 0.0011817373 955 193
-0.047370113 -0.046703525 0.5331707 0.0012372698 904 181
-0.045004103 -0.046798576 0.53422159 0.0012658525 883 176
-0.042592514 -0.046854503 0.53482544 0.0012323443 915 184
-0.040190112 -0.046928015 0.53563005 0.0012070589 916 184
-0.03758692 -0.046761353 0.53369373 0.0012148282 912 183
-0.035103828 -0.046731237 0.53331673 0.0011983165 962 194
-0.03267578 -0.046775363 0.53378791 0.0012104932 908 182
-0.030234031 -0.046805475 0.53410041 0.001208691 958 193
-0.027778473 -0.046817645 0.53420967 0.0012038946 912 183
-0.02539923 -0.046973329 0.53595799 0.0012404535 868 173
-0.022922037 -0.046961904 0.53580147 0.001231786 887 177
-0.020423785 -0.046899348 0.53506386 0.0012190545 893 179
-0.0179263 -0.046821624 0.53415549 0.0012440173 881 176
-0.015410214 -0.046662796 0.53232431 0.0012474949 871 174
-0.012951024 -0.046648696 0.53214699 0.0013013048 864 172
-0.010511538 -0.046715576 0.5328961 0.0012854862 881 176
-0.0080669532 -0.046793703 0.53377616 0.0012448014 886 177
-0.0056098965 -0.046836346 0.53425431 0.0011845572 932 187
-0.0031281547 -0.046578232 0.53130484 0.0011695423 953 192
-0.00067715941 -0.046566635 0.53117025 0.0011912878 950 192
0.0017707876 -0.046507038 0.53049111 0.0011751103 952 192
0.0042173662 -0.046501502 0.53043163 0.0011877437 955 193
0.0066781011 -0.046598814 0.5315482 0.0011765023 948 191
0.0091830874 -0.046869714 0.53464782 0.0012499302 913 183
0.011652645 -0.046883363 0.53481585 0.0012559417 856 170
0.014068767 -0.04671482 0.53290838 0.0012403684 897 180
0.01656701 -0.046828538 0.53422338 0.001216376 885 177
0.01903766 -0.046844911 0.5344305 0.0013216774 848 169
0.021522969 -0.046889469 0.53496152 0.0013285317 865 172
0.023987075 -0.046883404 0.53491735 0.0013069045 867 173
0.026464887 -0.046902772 0.53516519 0.0012461217 869 173
0.02897496 -0.046971131 0.53597414 0.0012690694 889 178
0.031481281 -0.047023151 0.53659821 0.0012439974 880 176
0.03394432 -0.047007643 0.53645313 0.0012212161 887 177
0.03635779 -0.046930254 0.53560287 0.0012321413 888 178
0.038801871 -0.046899714 0.5352881 0.0012521269 869 173
0.041391447 -0.047038168 0.53690279 0.0012382735 873 174
0.043970313 -0.047149517 0.53820848 0.0012529313 849 169
0.046474133 -0.0471728 0.53850895 0.0012691857 843 167
0.048924346 -0.047142055 0.53819221 0.0013163419 861 172
0.051339883 -0.047082487 0.53754562 0.0012845258 891 178
0.053824067 -0.047088459 0.53764606 0.0012081601 935 188
0.056317732 -0.047101837 0.53782952 0.001288704 898 180
0.058788795 -0.047095969 0.53779137 0.0012481615 929 187
0.061211333 -0.047053285 0.53733033 0.0012300089 907 182
0.063629165 -0.047010448 0.53686464 0.0012053377 940 189
0.066436566 -0.047247857 0.53959638 0.001292362 882 176
0.069013909 -0.047310431 0.54032779 0.0012650425 879 176
0.071641132 -0.047401652 0.54138231 0.0012088114 913 183
0.07405784 -0.047352131 0.54082465 0.0011871814 926 186
0.076467492 -0.047301479 0.54024893 0.0012263899 921 185
0.078914054 -0.047276124 0.53995645 0.0012298647 877 175
0.081472762 -0.047317449 0.5404194 0.001223592 892 178
0.084175542 -0.047437523 0.54177493 0.0012238208 894 179
0.086669117 -0.047436174 0.54173654 0.0012102628 910 183
0.088624299 -0.04714847 0.53842026 0.0011671098 986 200
0.091306075 -0.047252465 0.53956872 0.0011891334 933 188
0.093784884 -0.047248691 0.53947765 0.0012231205 925 186
0.096287131 -0.047256608 0.53951061 0.0011687229 968 196
0.098915949 -0.047324687 0.5402202 0.0011553786 975 197
0.10133864 -0.047293235 0.53978276 0.0011765134 964 195
0.10407153 -0.047404572 0.54096377 0.0011934518 960 194
0.10670356 -0.047465835 0.54156113 0.0012507736 926 186
0.10912748 -0.047433846 0.54108179 0.0011696108 960 194
0.11149716 -0.047380228 0.54034287 0.0011749115 938 189
0.11406536 -0.047411475 0.54055798 0.0012539169 909 182
0.11668 -0.04746028 0.5409584 0.0013841883 784 154
0.12123987 -0.048281681 0.55014688 0.0014167617 694 134
0.1243307 -0.048496358 0.55240214 0.0014913162 675 130
0.127151 -0.048599005 0.55336303 0.0014567651 668 128
0.12951441 -0.048526406 0.55231088 0.0015079161 659 126
0.13136916 -0.04826973 0.54914689 0.0014833409 654 125
0.13239773 -0.047724966 0.54269087 0.0014968996 644 123
0.13439982 -0.047544874 0.54036623 0.0015061861 640 122
0.13618682 -0.047296673 0.53724998 0.0015453484 640 122
0.13784182 -0.047012359 0.53370631 0.0015009678 645 123
0.13883494 -0.046516307 0.5277431 0.0015537147 644 123
0.14025179 -0.04617694 0.52354193 0.0015106334 637 121
0.1409833 -0.045627341 0.51694185 0.0014926068 649 124
0.14185672 -0.045141298 0.51104772 0.0014951209 650 124
0.14225957 -0.044523999 0.50365412 0.0014682722 667 128
0.1427284 -0.043947011 0.49670425 0.0014694069 669 128
0.14218615 -0.043082073 0.48649007 0.0014333449 705 136
0.14128543 -0.042137358 0.47536981 0.0013735134 751 147
0.13281856 -0.039000154 0.43953642 0.0012348074 966 195
0.12957351 -0.037468392 0.4218272 0.0011189209 1131 232
0.13150658 -0.037457451 0.42123529 0.0012650526 807 159
nan nan nan 0 181 19
0.17050746 -0.047152821 0.52899754 0.0027001735 282 41
0.17561205 -0.047867939 0.53632957 0.0017214589 517 94
0.18083279 -0.048594043 0.54373163 0.0015531827 595 112
0.18374318 -0.048687715 0.54401189 0.0015995146 560 104
0.18648861 -0.048735701 0.54374576 0.0015749482 596 112
0.18908654 -0.048744354 0.54300576 0.0014579298 654 125
0.19228013 -0.048904277 0.54391319 0.0015945713 625 118
0.19538164 -0.049036872 0.54447627 0.0015762958 610 115
0.198926 -0.0492757 0.54617631 0.0015921681 619 117
0.20193775 -0.049378153 0.54632241 0.0015377578 609 115
0.20494267 -0.049476359 0.54638135 0.0015765391 575 107
0.20777038 -0.049529847 0.54590756 0.0015413153 611 115
0.21062951 -0.049589407 0.54546267 0.0015804645 586 110
0.21364294 -0.049683407 0.54535806 0.0015143104 617 117
0.2172813 -0.049918693 0.54676223 0.0015785809 637 121
0.2205445 -0.0500632 0.54712969 0.0016252486 608 115
0.22390142 -0.050225321 0.54765004 0.0015774374 598 112
0.22706819 -0.050341498 0.54763204 0.0017519823 552 102
0.23000498 -0.050404601 0.54700404 0.0016004026 565 105
0.23314223 -0.050509699 0.54680181 0.0016541735 537 99
0.23663934 -0.050689504 0.54737842 0.0016760468 560 104
0.2399032 -0.050815903 0.54735148 0.0016263897 560 104
0.2431833 -0.050942909 0.54730999 0.0016285509 557 103
0.2467929 -0.051135425 0.5479545 0.0016804688 527 96
0.25066125 -0.05137682 0.54910773 0.0018121955 521 95
0.25444031 -0.051594954 0.55000311 0.0018065616 533 98
0.25754195 -0.05167257 0.54940301 0.0019019286 490 88
0.2608701 -0.051793531 0.54927742 0.0017490946 497 90
0.26349699 -0.051774208 0.54768884 0.0018025461 478 85
0.26698118 -0.051922008 0.54790151 0.0018040832 479 86
0.27108747 -0.052186567 0.54938185 0.0018304992 464 82
0.27485189 -0.05238067 0.55016559 0.0020124242 437 76
0.27798358 -0.052451532 0.54971474 0.0020751737 413 71
0.2809622 -0.052492406 0.54902309 0.0020141886 424 73
0.28385442 -0.052516494 0.54823965 0.0021936847 386 65
0.28717315 -0.052618265 0.54835844 0.0020823681 390 66
0.29139999 -0.052882899 0.5502699 0.0021322498 366 60
-0.30536509 -0.046485472 0.5105949 0.0026673598 269 38
-0.3039701 -0.046667676 0.5119279 0.0029254286 254 35
-0.30204308 -0.046770629 0.51248479 0.0027377629 269 38
-0.30031115 -0.046905845 0.51349372 0.0028776464 280 41
-0.29710266 -0.046810791 0.51208657 0.0026876836 305 46
-0.29413253 -0.046751939 0.51118511 0.0024132081 308 47
-0.2929824 -0.046983894 0.51357424 0.0023679745 327 51
-0.29079863 -0.047052778 0.51429433 0.0024342316 344 55
-0.28788593 -0.047003895 0.513843 0.0023540661 361 59
-0.28472307 -0.04691289 0.51304746 0.0021467838 389 65
-0.28245804 -0.046969514 0.51398259 0.0020196869 394 67
-0.27973503 -0.046950325 0.51420343 0.0020230461 449 79
-0.2768884 -0.046909835 0.51430291 0.0019149503 429 74
-0.2733528 -0.046750739 0.51320839 0.0019009645 442 77
-0.27006391 -0.046631191 0.51264787 0.0017861479 474 85
-0.26674953 -0.046504878 0.5121063 0.0018991756 474 85
-0.26367113 -0.046417642 0.51208162 0.0017292096 515 94
-0.2611115 -0.046420917 0.51313663 0.0017932655 536 98
-0.25835785 -0.04638942 0.51388091 0.0016659786 578 108
-0.25491324 -0.046231963 0.51329094 0.0016631675 579 108
-0.25209081 -0.046185303 0.51398182 0.0017017934 569 106
-0.24766113 -0.045840181 0.51138788 0.0016401303 589 110
-0.2441863 -0.045666471 0.51072943 0.0015528951 599 113
-0.24131487 -0.045603141 0.51132756 0.0015317373 607 114
nan nan nan 0 730 142
-0.18138309 -0.035012327 0.39462507 0.00094359077 1435 255
-0.17988057 -0.035098586 0.39663288 0.00091978197 1440 255
nan nan nan 0 1039 212
nan nan nan 0 798 157
-0.20760509 -0.041869462 0.4768289 0.0014111715 736 143
-0.20567857 -0.041950814 0.47896099 0.0013786961 742 145
-0.20545062 -0.042384457 0.48511127 0.0013829244 735 143
-0.20656094 -0.043107431 0.49458385 0.0013918657 729 142
-0.20554602 -0.043398649 0.49910593 0.0014543999 721 140
-0.20603983 -0.044019103 0.50741178 0.0014086158 709 137
-0.20519076 -0.044364125 0.51253879 0.0014508615 720 140
-0.20348343 -0.044529703 0.51557487 0.0014024822 728 142
-0.202455 -0.044849757 0.52037919 0.001400527 718 139
-0.20027435 -0.044919349 0.52225363 0.0014523988 725 141
-0.1994839 -0.045306444 0.52779603 0.001485193 720 140
-0.19728313 -0.045379024 0.52965045 0.0014725071 749 146
-0.19452772 -0.045324251 0.52998382 0.0013636547 762 149
-0.19157694 -0.045221932 0.52972299 0.0013226887 795 157
-0.18518695 -0.044294275 0.51973909 0.001220027 909 182
-0.18189855 -0.044093482 0.51822782 0.0010969547 1080 221
-0.17889926 -0.043958258 0.51744747 0.0010841907 1137 234
-0.17627804 -0.043913469 0.51769567 0.0010324091 1201 248
-0.17377685 -0.043897741 0.51825303 0.0010447126 1158 238
-0.17125396 -0.043876015 0.51870739 0.0010703752 1118 229
-0.16823652 -0.043725122 0.51760072 0.001118549 1139 234
-0.16578133 -0.043718081 0.5181641 0.0010748885 1113 228
-0.16332109 -0.043709479 0.51867884 0.001122033 1102 226
-0.16120586 -0.043794338 0.52027464 0.0010715234 1114 228
-0.15857229 -0.043738827 0.52017486 0.0010795804 1090 223
-0.1559795 -0.043693013 0.52016127 0.0011310005 1013 206
-0.15322967 -0.04360107 0.51956999 0.0011048053 1056 215
-0.15079291 -0.043596689 0.51999474 0.0011533524 1053 215
-0.14858894 -0.043660559 0.5212087 0.0011251596 1024 208
-0.14626732 -0.043691412 0.52200472 0.001131675 1016 206
-0.14333571 -0.043538023 0.52057427 0.0011232629 1028 209
-0.14085747 -0.043519434 0.52073073 0.0011745902 1028 209
-0.13852519 -0.043546088 0.52140611 0.0011555975 1014 206
-0.1360734 -0.043535449 0.52161318 0.0011714686 1015 206
-0.13318273 -0.043381471 0.52008063 0.0011713818 1009 205
-0.13138966 -0.043585926 0.522825 0.0012247927 954 192
-0.12862709 -0.043470405 0.52171224 0.0011439177 1008 205
-0.12614396 -0.043446708 0.52168161 0.0011233446 1030 210
-0.12376813 -0.043459769 0.52207398 0.0011270177 1024 208
-0.1212808 -0.043433417 0.52197516 0.0011581094 982 199
-0.11874935 -0.043389875 0.52165258 0.0011807879 995 202
-0.11626276 -0.043361258 0.52149302 0.0011390202 1013 206
-0.11409351 -0.043452293 0.52275699 0.0012032215 962 194
-0.11178835 -0.043494377 0.52341759 0.0011897 983 199
-0.10931488 -0.043471396 0.52328104 0.0011658047 977 198
-0.10683332 -0.043444078 0.52307844 0.0011588158 966 195
-0.10446549 -0.04346282 0.52341735 0.0011692063 962 194
-0.10210325 -0.043484826 0.52378321 0.0011704911 970 196
-0.099688493 -0.043484997 0.52387434 0.0011477504 995 202
-0.097187057 -0.043446418 0.52348745 0.0012092083 951 192
-0.094840087 -0.04347669 0.52391934 0.0011859222 941 190
-0.092391387 -0.043460693 0.5237838 0.0011743689 955 193
-0.089936428 -0.043440808 0.52359188 0.0011672693 981 199
-0.087804459 -0.043580141 0.52531028 0.0011989204 922 185
-0.085394293 -0.043585382 0.52540398 0.0012295112 918 184
-0.082882136 -0.043537352 0.52484787 0.0012017537 915 184
-0.080485284 -0.043548822 0.52500165 0.0011666244 970 196
-0.078281097 -0.043668479 0.52645302 0.0012186238 888 178
-0.075886823 -0.043686368 0.52667135 0.0012345453 895 179
-0.07332439 -0.043605424 0.52569252 0.0012347508 925 186
-0.07126689 -0.043829489 0.52838534 0.0012206859 889 178
-0.06859415 -0.043677658 0.52654195 0.0012050959 915 184
-0.066289686 -0.043757781 0.52749062 0.0011737564 958 193
-0.063836753 -0.043742273 0.5272826 0.0011869133 943 190
-0.061632324 -0.04390255 0.52919012 0.0012034201 920 185
-0.059368782 -0.04403219 0.53072542 0.0012157897 906 182
-0.056749932 -0.043898128 0.52907979 0.001195193 936 188
-0.054410435 -0.043977816 0.53000826 0.0012126332 903 181
-0.051913079 -0.04393141 0.52941555 0.0012043056 909 182
-0.049753897 -0.044180717 0.53238499 0.0011993838 932 187
-0.047411725 -0.044284977 0.5336054 0.0012365374 894 179
-0.045144491 -0.044474468 0.53585202 0.0013001759 861 172
-0.042718589 -0.044520535 0.5363704 0.0012359075 878 175
-0.040240567 -0.0445146 0.53626221 0.0012369603 892 178
-0.037739437 -0.044480652 0.53581727 0.0011997232 916 184
-0.035124335 -0.044298217 0.53358448 0.0011594889 990 201
-0.032695413 -0.044340786 0.53406316 0.0012415141 916 184
-0.030276539 -0.044405032 0.53480422 0.001240798 872 174
-0.027818961 -0.044418868 0.53493965 0.001246012 929 187
-0.02537024 -0.044450924 0.53529632 0.0012541717 890 178
-0.022960935 -0.044566393 0.53665942 0.0012732181 906 182
-0.020409031 -0.044399545 0.53462523 0.0012929358 870 174
-0.017947206 -0.044409726 0.53472525 0.0012887289 870 174
-0.015433305 -0.044273764 0.53306818 0.0012697226 869 173
-0.012959727 -0.044223864 0.53245008 0.0012608474 854 170
-0.010518503 -0.044286855 0.53319395 0.0012471847 853 170
-0.0080754943 -0.044378478 0.53428549 0.0012868836 868 173
-0.0056077847 -0.044355232 0.53399718 0.0012157371 911 183
-0.0031370956 -0.044253536 0.53276724 0.0012096154 896 179
-0.00067838782 -0.044196445 0.53207755 0.0012432798 899 180
0.0017701352 -0.044043727 0.5302397 0.0012359138 964 195
0.0042224079 -0.044107389 0.53100985 0.0011561943 976 197
0.0067032073 -0.044312876 0.5334906 0.0011928655 914 183
0.009178347 -0.044380631 0.5343163 0.0012342212 879 176
0.011656993 -0.044433061 0.53496039 0.0013464291 855 170
0.01414112 -0.044484414 0.53559446 0.0012855607 847 168
0.016592771 -0.044433527 0.53500032 0.0012519136 849 169
0.019056674 -0.04442437 0.53491139 0.0012327175 880 176
0.021520771 -0.044417717 0.53485507 0.001242994 876 175
0.024032481 -0.044500601 0.53587914 0.001212926 902 181
0.026502622 -0.044498224 0.5358789 0.0013026027 867 173
0.028967382 -0.044487998 0.53578591 0.0013003501 888 178
0.031502474 -0.044578906 0.5369128 0.0012682055 879 176
0.03394407 -0.04453389 0.53640419 0.0012345534 917 184
0.036365971 -0.044470906 0.53568017 0.0012815462 904 181
0.038808618 -0.044439703 0.53534001 0.0012816339 908 182
0.041301236 -0.044466019 0.53569329 0.0012160924 904 181
0.043843355 -0.044539656 0.5366171 0.0012367438 875 175
0.046499569 -0.044715147 0.53876841 0.0012629672 842 167
0.048899055 -0.044638474 0.53788108 0.0012459462 880 176
0.051329691 -0.044596277 0.53740841 0.0012882398 883 176
0.053826045 -0.044612426 0.53763783 0.0012241383 907 182
0.05640405 -0.044691853 0.5386284 0.0012442576 930 187
0.058837641 -0.04465498 0.53821546 0.0012151183 951 192
0.061245929 -0.044602662 0.53761417 0.0011948923 933 188
0.063684419 -0.04457555 0.53731388 0.0012461257 918 184
0.066285409 -0.044659954 0.53835469 0.0012259872 892 178
0.068862393 -0.04472268 0.53913075 0.0012098569 907 182
0.071531244 -0.044838618 0.54054409 0.0012155765 887 177
0.074036323 -0.044847552 0.54066306 0.0012807556 906 182
0.076421469 -0.044785623 0.5399226 0.0012197589 921 185
0.078761585 -0.044702038 0.53891557 0.0011902866 935 188
0.081629112 -0.044913758 0.54146254 0.0012127683 898 180
0.084228948 -0.044970002 0.54212838 0.0012384574 915 184
0.08639586 -0.044798516 0.54004174 0.0011743158 955 193
0.089017488 -0.044865813 0.54082602 0.0011827181 945 190
0.091420449 -0.044822235 0.54026544 0.0012185206 945 190
0.093862921 -0.044799834 0.53995138 0.0011839042 953 192
0.096320175 -0.044785462 0.53972465 0.0011439775 990 201
0.098835185 -0.044797983 0.53981203 0.00116108 981 199
0.10153759 -0.044892747 0.54087979 0.0011843052 943 190
0.10388757 -0.044830877 0.54004896 0.0011854293 948 191
0.10681021 -0.045013256 0.54214835 0.0012123225 932 187
0.10903472 -0.044899803 0.54067194 0.0012194738 954 192
0.11155502 -0.044910498 0.54067785 0.0012059996 904 181
0.11410987 -0.04493434 0.54082811 0.0012307151 874 174
0.1165434 -0.044910397 0.54038876 0.0013268717 772 152
0.12138561 -0.045796212 0.55087799 0.0014372543 698 135
0.12439749 -0.045969289 0.55277365 0.0014394202 685 132
0.12690976 -0.045954496 0.55239278 0.0014440523 679 131
0.12940016 -0.045932528 0.55190825 0.0015521678 658 126
0.13088132 -0.045560084 0.54719651 0.0014771435 660 126
0.13258624 -0.04527818 0.54355687 0.0014963187 637 121
0.13451146 -0.045080602 0.54091299 0.0015951326 647 123
0.1362758 -0.044837322 0.53770357 0.0014965038 641 122
0.13761225 -0.044464514 0.53292412 0.0015131861 640 122
0.13861123 -0.043997724 0.52700341 0.001506724 643 123
0.14086351 -0.043938041 0.52594119 0.0015262014 635 121
0.14012833 -0.042964414 0.51392525 0.0014907032 647 123
0.14192818 -0.04278763 0.51142806 0.0014890325 646 123
0.14348333 -0.042544115 0.50811404 0.0015253384 655 125
0.14244698 -0.041552544 0.49585426 0.0015476259 675 130
0.14203145 -0.040770788 0.48609251 0.0014260777 698 135
nan nan nan 0 760 149
0.13200073 -0.036720559 0.43695799 0.0011703196 982 199
0.1296349 -0.035513718 0.42215526 0.0010565367 1182 244
0.13174143 -0.035549913 0.42212039 0.0012870855 780 153
nan nan nan 0 185 20
0.17110865 -0.044829275 0.5310415 0.0030074653 283 42
0.17538184 -0.045289807 0.53581303 0.0018180023 503 91
0.18095998 -0.046069536 0.54430968 0.0016046659 564 105
0.18387528 -0.046159055 0.54460478 0.0015525464 601 113
0.1864641 -0.046165284 0.54388195 0.0015952183 573 107
0.18907668 -0.046177141 0.54319096 0.0016206499 620 117
0.19213058 -0.046295028 0.54371005 0.0016048063 608 115
0.195398 -0.046460573 0.54474837 0.0015474232 598 112
0.19884057 -0.046662897 0.54617488 0.001545051 593 111
0.20169029 -0.046722677 0.54589182 0.0016384674 589 110
0.20519988 -0.04693187 0.54731256 0.0016628699 588 110
0.20818383 -0.047017086 0.54724503 0.0015560556 603 114
0.21091148 -0.047043037 0.54644924 0.001570735 584 109
0.21392635 -0.047131624 0.54634291 0.0016984006 592 111
0.21721421 -0.047277499 0.54686034 0.0015635933 594 111
0.22042993 -0.047404367 0.54711717 0.0015588095 592 111
0.22368528 -0.04753666 0.54739743 0.0015718838 582 109
0.22690518 -0.047658425 0.54751903 0.0017014003 563 105
0.2300023 -0.047751892 0.54728085 0.0017406066 560 104
0.23318103 -0.04785997 0.54717839 0.0016275864 552 102
0.23666628 -0.048027821 0.54772848 0.0017016666 550 102
0.23999849 -0.04816122 0.54785764 0.0018081976 549 101
0.24318677 -0.04826311 0.54760659 0.0017986984 529 97
0.24624893 -0.04833803 0.54703414 0.0018951441 507 92
0.24909826 -0.048370004 0.54596841 0.0017215839 510 93
0.25281855 -0.04856861 0.54677886 0.0017461124 498 90
0.25705495 -0.048861127 0.54864156 0.0017773076 482 86
0.26014593 -0.048932083 0.54802328 0.0019671412 471 84
0.26332143 -0.04901731 0.5475862 0.0018016833 468 83
0.26745319 -0.049276978 0.54912341 0.0018022705 475 85
0.27166221 -0.049545463 0.55078918 0.0018455191 458 81
0.27494964 -0.049642179 0.55059052 0.0019318328 429 74
0.27781379 -0.049661316 0.54959327 0.0019901705 413 71
0.28057793 -0.04966237 0.54846972 0.0020416162 401 68
0.28389254 -0.049759891 0.54849321 0.0021636239 385 64
0.28788289 -0.049972836 0.54987532 0.0020746866 379 63
0.29111823 -0.050051898 0.54987967 0.0021717001 361 59
-0.30536097 -0.043903086 0.51048356 0.0027246405 262 37
-0.30385593 -0.04405921 0.51164401 0.002599203 283 42
