# .PCD v0.7 - Point Cloud Data file format
VERSION 0.7
FIELDS x y z noise intensity gray
SIZE 4 4 4 4 2 1
TYPE F F F F U U
COUNT 1 1 1 1 1 1
WIDTH 892
HEIGHT 1
VIEWPOINT 0 0 0 1 0 0 0
POINTS 892
DATA ascii
nan nan nan 0 271 47
-0.18361303 -0.15324099 0.41883928 0.0019872934 430 84
-0.1796855 -0.15172169 0.41475621 0.0017637496 497 99
-0.17739433 -0.1515644 0.41445166 0.0017024 531 107
-0.17516033 -0.15145281 0.41432679 0.0018641918 510 102
-0.17269121 -0.1511327 0.41368476 0.0017906041 486 96
-0.17072348 -0.15124893 0.41428894 0.0017202822 532 107
-0.16853438 -0.15116948 0.41440758 0.001664045 546 110
-0.16746268 -0.15210295 0.41735342 0.0017115762 538 108
-0.16558418 -0.15231809 0.41837725 0.0016788427 595 121
-0.16355385 -0.15239733 0.41907224 0.0016301343 603 123
-0.16244222 -0.15334593 0.42220187 0.0015748232 599 122
nan nan nan 0 553 112
nan nan nan 0 578 117
nan nan nan 0 585 119
nan nan nan 0 572 116
nan nan nan 0 576 117
nan nan nan 0 609 124
nan nan nan 0 605 123
nan nan nan 0 585 119
nan nan nan 0 613 125
nan nan nan 0 587 119
nan nan nan 0 595 121
nan nan nan 0 583 118
nan nan nan 0 599 122
-0.14490743 -0.16754471 0.47194713 0.0016282282 594 121
-0.14266041 -0.16763851 0.47303089 0.0015676852 605 123
nan nan nan 0 604 123
-0.13949154 -0.16944537 0.47976473 0.0017213317 589 120
-0.13764305 -0.17006901 0.48233712 0.0016187798 594 121
-0.136621 -0.17175341 0.48791713 0.0016038396 579 117
-0.13412423 -0.17161076 0.4883014 0.0016620943 593 121
-0.13170849 -0.1715685 0.48895651 0.0015991713 585 119
-0.12968864 -0.17204992 0.49109122 0.0016228311 591 120
-0.12757722 -0.17242564 0.49291208 0.0015822971 592 120
-0.12685679 -0.17473169 0.50024635 0.0016482732 576 117
-0.1241162 -0.17429084 0.4997071 0.0017404192 569 115
-0.12114194 -0.1734978 0.4981356 0.0017215381 575 117
-0.1184415 -0.17307271 0.49759766 0.0016705401 562 114
-0.11614031 -0.17322546 0.49870199 0.001628468 578 117
-0.1133544 -0.17264642 0.49767971 0.0016627568 582 118
-0.11070342 -0.17225233 0.49716863 0.0016412809 584 119
-0.109585 -0.17427813 0.50362951 0.0017179493 588 119
-0.10658028 -0.17332779 0.50147527 0.0016451644 586 119
-0.10396031 -0.17297371 0.50102359 0.0015762047 594 121
-0.10161292 -0.17306712 0.50184894 0.0015914678 591 120
-0.099151954 -0.17296694 0.50209486 0.0016224328 583 118
-0.096012853 -0.17164946 0.4987849 0.001583282 591 120
-0.093771532 -0.17191075 0.50004208 0.0016279074 579 117
-0.09176442 -0.1726263 0.50260586 0.0016145568 572 116
-0.089545622 -0.17297131 0.50407672 0.0016709798 557 112
-0.087129347 -0.17294341 0.50444466 0.00166666 565 114
-0.084280923 -0.1720318 0.50221604 0.0015877886 588 119
-0.081898049 -0.17204502 0.50266868 0.0016354155 563 114
-0.079885721 -0.17286082 0.50545216 0.0016297763 565 114
-0.077286713 -0.17241837 0.5045417 0.0016281756 560 113
-0.07476332 -0.17212169 0.50404072 0.001634039 571 116
-0.072286867 -0.17191704 0.50379306 0.0016360874 560 113
-0.069858015 -0.17181551 0.50383216 0.0017641274 554 112
-0.067504264 -0.17189802 0.50439644 0.0016438973 557 112
-0.06512095 -0.17190857 0.50473547 0.0016485994 552 111
-0.062662676 -0.1717145 0.50445956 0.0016265163 561 113
-0.060210608 -0.17152274 0.50417608 0.0016500856 555 112
-0.057739187 -0.17125779 0.50366354 0.0016324861 563 114
-0.055340104 -0.17119382 0.50372851 0.0016386334 566 114
-0.052908607 -0.17101935 0.50345528 0.0016269473 561 113
-0.050572459 -0.17115119 0.50407118 0.0016316123 560 113
-0.048145082 -0.17097203 0.50375891 0.0016245453 567 115
-0.045722518 -0.17079228 0.50343239 0.0016499613 567 115
-0.043517798 -0.17145115 0.5055666 0.0016453289 562 114
-0.04116432 -0.17156626 0.50608677 0.001785523 558 113
-0.038775425 -0.17153881 0.5061751 0.0016301009 564 114
-0.036539894 -0.17223066 0.50837547 0.0016520752 555 112
-0.033962879 -0.17129716 0.50576699 0.0016752719 560 113
-0.031527489 -0.17099109 0.50499928 0.0017352732 553 112
-0.029234555 -0.17147072 0.50654161 0.0017641333 565 114
-0.026894594 -0.17173511 0.50743806 0.0016764723 558 113
-0.024537181 -0.1719287 0.50811547 0.0016461975 560 113
-0.022154223 -0.17196573 0.50831997 0.0017094687 557 112
-0.019737588 -0.17171873 0.50767481 0.001790902 557 112
-0.017368641 -0.17187573 0.508214 0.0016628013 540 109
-0.015016571 -0.17227641 0.50946403 0.0016470314 558 113
-0.012573279 -0.17158403 0.50747186 0.0017072434 555 112
-0.010199863 -0.17174442 0.50799191 0.0016456553 555 112
-0.0078237327 -0.17194311 0.50861567 0.001650837 555 112
-0.0054425285 -0.17215581 0.50927138 0.0016600387 548 110
-0.0030512891 -0.17213573 0.50922894 0.0016535273 558 113
-0.00065680471 -0.17112486 0.50624585 0.0016479666 554 112
0.0017291174 -0.1720559 0.5089981 0.0016839205 551 111
0.0041066641 -0.17155674 0.50750971 0.001651276 550 111
0.00649752 -0.17177597 0.50813705 0.0016430205 566 114
0.0088585373 -0.17130044 0.5066998 0.0016948857 570 115
0.011242725 -0.17137946 0.50689316 0.0017561406 564 114
0.013671559 -0.17199253 0.50865638 0.0016781093 558 113
0.015986834 -0.17120713 0.5062741 0.0016158499 570 115
0.018323064 -0.17082042 0.50506139 0.0016167049 565 114
0.02064975 -0.17044362 0.50386852 0.001592472 583 118
0.023145083 -0.17139319 0.50658637 0.001603323 577 117
0.025630688 -0.17210031 0.50857675 0.0017100477 569 115
0.027909627 -0.17141749 0.50644934 0.0016193572 575 117
0.030170072 -0.17073734 0.50432038 0.0017421592 574 116
0.032595161 -0.17102019 0.50502563 0.001608844 576 117
0.034950595 -0.17092393 0.50460076 0.0016521601 574 116
0.037408635 -0.17130983 0.50558805 0.0016234072 569 115
0.039562687 -0.17034076 0.50256604 0.0016105596 580 118
0.042250965 -0.17165135 0.50625825 0.001635749 578 117
0.044476844 -0.17104372 0.50428098 0.0016207009 568 115
0.046803538 -0.17086579 0.50355965 0.0017027952 577 117
0.049288157 -0.17125373 0.50449383 0.0016705943 578 117
0.051638991 -0.17116249 0.50400406 0.0015868981 590 120
0.053460449 -0.16940185 0.49858877 0.0015641492 607 124
0.056022096 -0.17003623 0.50021148 0.0016992656 586 119
0.058763877 -0.17114392 0.50321126 0.0016012074 578 117
0.06079556 -0.1701778 0.5001002 0.0015988455 585 119
0.063475661 -0.1710311 0.50232255 0.0017427424 578 117
0.065532662 -0.17020446 0.49959734 0.0015872472 582 118
0.067973189 -0.17039683 0.49985036 0.0016001919 590 120
0.07033775 -0.17039229 0.49951118 0.0015921859 586 119
0.072677955 -0.17033091 0.49899095 0.0015951648 587 119
0.075042419 -0.17032847 0.49862877 0.0015709155 599 122
0.077758975 -0.17110091 0.50051832 0.0016604842 586 119
0.080312349 -0.17147915 0.50123668 0.0015743652 596 121
0.0818507 -0.16973075 0.49572629 0.0016391707 596 121
0.084210977 -0.16973697 0.49532875 0.0015697448 601 122
0.086881563 -0.17035124 0.49668792 0.0016362091 590 120
0.089264832 -0.17038456 0.49633494 0.0016752223 598 122
0.091617219 -0.17035872 0.49579284 0.0016341116 594 121
0.094106294 -0.17058191 0.49595806 0.0015658342 602 123
0.096187115 -0.17007236 0.49397629 0.0015808988 594 121
0.098881833 -0.17064664 0.49512482 0.0015762487 599 122
0.10071384 -0.16974004 0.49196014 0.0015710719 598 122
0.10314644 -0.169864 0.49176687 0.0016224772 601 122
0.10558232 -0.16998769 0.49155426 0.0015443806 610 124
0.10693555 -0.16840102 0.48638275 0.0015950265 614 125
0.10918257 -0.16825965 0.48537385 0.0016406243 609 124
0.11210627 -0.16914523 0.48730662 0.0016707868 596 121
0.11454569 -0.16927873 0.48705116 0.0015665237 600 122
0.11705937 -0.16951442 0.48707053 0.0015606871 599 122
0.11920837 -0.16922311 0.48555824 0.0015641114 604 123
0.12100443 -0.16845177 0.48265553 0.0015572625 610 124
0.12241745 -0.16718654 0.47832951 0.001561949 601 122
0.12483747 -0.16731809 0.4779883 0.0015633418 603 123
0.12664656 -0.16664097 0.4753235 0.0016313092 628 129
0.12892856 -0.16659923 0.4744595 0.0015645783 603 123
0.13099666 -0.16628748 0.47281399 0.0015667549 604 123
0.13382657 -0.16693678 0.47388646 0.0015823619 591 120
0.13536471 -0.16598004 0.47038946 0.0017015581 581 118
0.13706675 -0.16525295 0.46754071 0.0016785818 538 108
0.13805279 -0.16370077 0.46235946 0.0016621525 546 110
0.13979565 -0.16308179 0.45981717 0.0016410026 555 112
0.13887084 -0.15942015 0.44871148 0.0015940953 592 120
nan nan nan 0 682 141
0.12693575 -0.14121614 0.39608228 0.001268451 848 179
0.12607874 -0.13812861 0.38674253 0.0013454112 824 173
nan nan nan 0 340 63
0.16832736 -0.17896901 0.49934548 0.0043769116 159 22
0.17103595 -0.17920272 0.49913868 0.0022910535 366 69
0.17407164 -0.17976758 0.49986476 0.0019636268 469 92
0.17832927 -0.18156049 0.50401318 0.0018478569 501 100
0.18102276 -0.18173318 0.50367707 0.0019459197 472 93
0.18363431 -0.18181998 0.50312823 0.0018994781 494 98
0.18576868 -0.18143834 0.50131488 0.0018478956 459 90
0.18826087 -0.18141174 0.50051874 0.0020354085 449 88
0.19088867 -0.18151481 0.50011861 0.0020047778 423 82
0.19365215 -0.18174249 0.50010312 0.0021167852 392 75
0.19634651 -0.18190029 0.49994048 0.0019842368 414 80
0.19877037 -0.18180668 0.49913654 0.0021217547 378 72
0.2013066 -0.18181688 0.49867135 0.0021221426 370 70
0.20383948 -0.18182388 0.49825361 0.0020192387 402 77
0.20656554 -0.18200092 0.49836072 0.0020630052 385 73
0.20957045 -0.18241635 0.49918127 0.002377949 352 66
0.21194398 -0.18227887 0.49855199 0.0023990064 362 68
0.21434155 -0.18216507 0.49805331 0.0023180014 345 64
0.21720941 -0.18244897 0.49870858 0.0025633543 319 58
0.21958159 -0.18231474 0.49828833 0.0023808538 314 57
0.22175561 -0.18202092 0.49750036 0.0025151577 294 53
0.22443281 -0.18214211 0.49791494 0.0027589914 291 52
0.22678764 -0.18200187 0.49768311 0.0025940128 280 49
0.22938189 -0.18205476 0.4980469 0.0026608217 263 45
0.23114032 -0.18145032 0.49667889 0.0027181655 260 45
0.23355575 -0.18136917 0.49680799 0.0033214681 237 40
0.23585285 -0.18119882 0.49675718 0.0029421982 229 38
0.23761699 -0.18062693 0.49566713 0.0029044577 240 40
0.24083008 -0.1811569 0.4976629 0.0028478685 235 39
0.24270073 -0.18067655 0.49694374 0.0031284131 215 35
0.24444282 -0.18011132 0.49604639 0.0034149804 198 31
0.24637729 -0.17969784 0.49562037 0.0033961961 194 30
0.24842577 -0.17937498 0.49549651 0.0034465049 182 27
0.24974416 -0.17853662 0.4939968 0.0036014926 178 26
0.25125334 -0.17784975 0.49296069 0.0037898773 183 27
0.25261021 -0.17706956 0.49170795 0.0037749696 169 24
0.2549884 -0.17701337 0.49250919 0.0039415378 159 22
0.25838608 -0.17765921 0.49531284 0.0047304542 147 19
-0.30912271 -0.18557633 0.53932291 0.0053990926 126 14
-0.30801606 -0.18648869 0.54151934 0.0049279234 119 13
-0.30556443 -0.18659544 0.54100108 0.0052171452 116 12
-0.30350894 -0.186948 0.54094958 0.005752367 120 13
-0.30247939 -0.18794422 0.5426054 0.0051899683 116 12
-0.30153996 -0.18901454 0.54438281 0.004892732 122 13
-0.2983129 -0.18865715 0.54201114 0.0048146406 123 14
-0.29599401 -0.18887289 0.5412848 0.0050204988 127 15
-0.29440635 -0.18956333 0.54192948 0.0047870371 125 14
-0.29146051 -0.18938391 0.54011226 0.0049549779 120 13
-0.28987947 -0.1900962 0.54087055 0.0046849167 129 15
-0.28750664 -0.19029766 0.54021001 0.0055319704 127 15
-0.28424802 -0.18991111 0.53792536 0.0050162985 132 16
-0.2824232 -0.19048426 0.53840476 0.0043953466 138 17
-0.28134733 -0.19157839 0.54039574 0.0044673975 147 19
-0.27950007 -0.19216338 0.5409922 0.004211803 146 19
-0.27611536 -0.19169238 0.53866833 0.0041155005 150 20
-0.27278867 -0.19125283 0.53649241 0.0039023773 161 22
-0.27020842 -0.19133301 0.53583318 0.0037766297 173 25
-0.26824203 -0.19185388 0.53646433 0.0042554904 165 23
-0.26697111 -0.19288781 0.53858459 0.0044362303 166 23
-0.26460972 -0.19314705 0.53859973 0.0038100157 166 23
-0.26087451 -0.19239846 0.53587115 0.0037757191 169 24
-0.25792664 -0.19222091 0.53480268 0.0038171273 176 26
-0.25578493 -0.19264676 0.5354805 0.0036542877 194 30
-0.25382382 -0.19321924 0.53663337 0.0034191853 191 29
-0.25115493 -0.19325951 0.5363782 0.0037399819 209 33
-0.24745451 -0.19249819 0.53397208 0.0029848213 231 38
-0.24395865 -0.19188093 0.53204077 0.0030845094 222 36
-0.24076003 -0.19148619 0.53080142 0.0032766722 232 38
nan nan nan 0 249 42
-0.1936287 -0.1575298 0.43661851 0.0021868083 365 69
-0.18936682 -0.15584815 0.43202046 0.0020522927 452 89
-0.18654239 -0.15532395 0.43068948 0.0018529097 473 93
-0.18422394 -0.15521365 0.43056417 0.0017967541 490 97
nan nan nan 0 477 94
nan nan nan 0 471 93
nan nan nan 0 468 92
nan nan nan 0 476 94
nan nan nan 0 491 97
nan nan nan 0 504 100
nan nan nan 0 526 105
nan nan nan 0 516 103
nan nan nan 0 508 101
nan nan nan 0 532 107
nan nan nan 0 529 106
nan nan nan 0 547 110
nan nan nan 0 550 111
nan nan nan 0 552 111
nan nan nan 0 562 114
nan nan nan 0 557 112
nan nan nan 0 561 113
-0.15857497 -0.16988911 0.48282036 0.0016508255 546 110
-0.15590775 -0.16959046 0.48283336 0.0016744697 569 115
-0.15357098 -0.1696475 0.48385829 0.0016113148 578 117
-0.15189217 -0.17044468 0.4869965 0.0016227599 563 114
-0.14972338 -0.17070884 0.48861241 0.0016576569 575 117
-0.14722742 -0.17060249 0.48916206 0.0016232432 588 119
-0.14564659 -0.1715706 0.49278793 0.0015863131 585 119
-0.14272648 -0.17096715 0.4918915 0.0016657619 582 118
-0.14008518 -0.17068262 0.49189645 0.0016032852 598 122
-0.13801669 -0.17109834 0.49390689 0.0016715607 599 122
-0.13674961 -0.17253996 0.49887314 0.0016594405 587 119
-0.13439263 -0.17263371 0.4999339 0.0015925083 583 118
-0.13152009 -0.17205648 0.49903303 0.0015920174 586 119
-0.12967648 -0.17282885 0.50203049 0.0016067082 582 118
-0.12742148 -0.17307203 0.50347757 0.0016067658 576 117
-0.1247008 -0.17267984 0.50305766 0.0016613196 586 119
-0.122013 -0.17231847 0.50270605 0.0016149562 578 117
-0.11888266 -0.17130479 0.50042731 0.001593143 584 119
-0.11711716 -0.17225647 0.50387102 0.0017500869 571 116
-0.11446523 -0.17191711 0.50352174 0.0016011996 580 118
-0.11216334 -0.17210016 0.50468302 0.0017020358 586 119
-0.10939217 -0.17155537 0.50368994 0.0016730115 585 119
-0.10743612 -0.17229313 0.50644422 0.001578278 598 122
-0.10471315 -0.17180666 0.50558227 0.0016868588 599 122
-0.10219933 -0.17164849 0.50566584 0.0017181474 585 119
-0.099982359 -0.17199332 0.50721347 0.0017304828 569 115
-0.096994147 -0.17099558 0.50478178 0.0016042435 579 117
-0.094603613 -0.17102753 0.50536919 0.0016049162 578 117
-0.092340522 -0.17129758 0.50664359 0.0017453723 576 117
-0.089783348 -0.17102195 0.50628668 0.0016100208 572 116
-0.087363608 -0.17100011 0.50666344 0.00169332 571 116
-0.085152775 -0.17139752 0.50826681 0.001654956 577 117
-0.08266519 -0.17124486 0.50822306 0.0017422892 569 115
-0.080116324 -0.1709522 0.50774682 0.0016098933 570 115
-0.077839568 -0.17124008 0.50897914 0.0016944583 578 117
-0.075079732 -0.17044963 0.50698984 0.0016038734 578 117
-0.072668664 -0.17042489 0.5072614 0.0016049162 571 116
-0.07026834 -0.17042452 0.50759077 0.0016329692 562 114
-0.068146124 -0.17112252 0.509987 0.0016834625 568 115
-0.065215304 -0.16976675 0.50624734 0.0016840595 568 115
-0.062933572 -0.17006177 0.50741464 0.0016286314 568 115
-0.060636587 -0.1703373 0.50851136 0.0016107678 568 115
-0.058321934 -0.17058381 0.50950915 0.0016360899 564 114
-0.055709925 -0.16994447 0.50784743 0.001609322 576 117
-0.053390939 -0.17018168 0.50879192 0.0017197569 569 115
-0.051070355 -0.17043588 0.5097757 0.0016963659 568 115
-0.048630159 -0.1702963 0.50956959 0.0016616035 551 111
-0.046430349 -0.17102768 0.51195842 0.0016787511 574 116
-0.043867789 -0.17042978 0.51035684 0.0016289955 566 114
-0.041585546 -0.17091478 0.51198643 0.0016878694 547 110
-0.039212409 -0.17106284 0.51259601 0.0016724662 549 111
-0.036721367 -0.17068224 0.51161045 0.001773596 544 109
-0.034421328 -0.17119834 0.51330197 0.001626162 562 114
-0.032028247 -0.17129456 0.51372439 0.0016780919 550 111
-0.029592402 -0.1711591 0.51344162 0.0016398565 556 112
-0.027123988 -0.17079453 0.51246089 0.0016316021 568 115
-0.024660937 -0.17039607 0.51136786 0.0016319432 562 114
-0.022267971 -0.17044817 0.51161689 0.001709493 558 113
-0.019841969 -0.17022943 0.51104301 0.0016921321 556 112
-0.017516853 -0.17093503 0.51323456 0.0017012811 559 113
-0.015096055 -0.17078304 0.51284182 0.0016948776 568 115
-0.012638309 -0.17007622 0.51077312 0.0016394254 559 113
-0.010238715 -0.17000437 0.51060176 0.0017268234 560 113
-0.0078532957 -0.17019586 0.51121199 0.0016196221 570 115
-0.00546483 -0.17046058 0.51203293 0.0017042175 557 112
-0.0030718266 -0.17088766 0.51333231 0.0016420286 561 113
-0.00066367211 -0.17051271 0.51221305 0.0016368206 560 113
0.0017373051 -0.17046979 0.51208216 0.0016977789 559 113
0.0041434416 -0.17068921 0.51272988 0.0016457883 562 114
0.0065261368 -0.17013641 0.51104873 0.0017609039 570 115
0.0089663053 -0.17097646 0.513542 0.0016964991 572 116
0.011374041 -0.1709733 0.51349312 0.0016184358 572 116
0.013669247 -0.16957524 0.50924575 0.0016739005 576 117
0.016075213 -0.16976275 0.5097509 0.0016825069 578 117
0.018371524 -0.16889359 0.50707388 0.001681015 589 120
0.020822991 -0.1694866 0.50877732 0.001591885 593 121
0.023273151 -0.16994807 0.51007569 0.0016690292 593 121
0.025722042 -0.1703151 0.51108027 0.0015972327 582 118
0.028162435 -0.170568 0.51173204 0.0016117087 575 117
0.030527027 -0.1703582 0.51098531 0.0015966827 580 118
0.03280938 -0.16975345 0.50904447 0.0015985084 579 117
0.035189681 -0.16970316 0.50875628 0.0016934619 583 118
0.037517995 -0.16942455 0.50777316 0.0017077712 584 119
0.039977077 -0.16973448 0.50854319 0.0016404708 581 118
0.042322312 -0.16955329 0.50783074 0.0015752038 593 121
0.044654679 -0.16934271 0.50701928 0.0016009026 577 117
0.047359999 -0.17049608 0.51027924 0.0016020919 585 119
0.049695142 -0.17026983 0.50939727 0.0015951215 583 118
0.05184301 -0.16945226 0.50673568 0.001691039 586 119
0.054253355 -0.16952683 0.50673074 0.0016237606 600 122
0.056625843 -0.1694818 0.50635588 0.0016331617 602 123
0.05898216 -0.16939399 0.5058406 0.0015828479 584 119
0.061328359 -0.16928507 0.50524974 0.0016883427 587 119
0.063588999 -0.16895698 0.5039922 0.0015810358 594 121
0.06600485 -0.16905007 0.50397789 0.0016785748 586 119
0.06826774 -0.16875856 0.50280356 0.0015693464 598 122
0.070833318 -0.16920969 0.50382757 0.0015750818 592 120
0.073041745 -0.16880614 0.50229222 0.0016831951 593 121
0.075333208 -0.16861382 0.5013718 0.0015585886 603 123
0.077947572 -0.1691339 0.50255412 0.0016102528 601 122
0.080479264 -0.16944911 0.50311047 0.0016165583 603 123
0.082517706 -0.16873752 0.50060338 0.0016409559 621 127
0.084903285 -0.16875571 0.50024718 0.0015434033 616 126
0.087213062 -0.16862638 0.4994376 0.0016219496 599 122
0.089519523 -0.16849767 0.49861401 0.0015540139 611 125
0.091933399 -0.16857255 0.49837625 0.00161897 602 123
0.094253473 -0.16847599 0.49761462 0.0016120418 621 127
0.097009934 -0.16914508 0.49909532 0.0015711791 604 123
0.099390127 -0.16914171 0.49857235 0.001626067 606 124
0.10150273 -0.16869384 0.49672252 0.0016202253 593 121
0.10381461 -0.16859001 0.49586946 0.0016362737 610 124
0.10636372 -0.1688675 0.4961192 0.0016126374 599 122
0.10828162 -0.16815262 0.4934366 0.0015643073 596 121
0.11055775 -0.16801274 0.49242598 0.0015483119 610 124
0.11308625 -0.1682542 0.49251422 0.0015638648 613 125
0.11564074 -0.16852365 0.49266395 0.0016273655 611 125
0.11802601 -0.16854058 0.49205598 0.0015368201 622 127
0.12015072 -0.16819212 0.49036431 0.0015948344 607 124
0.12241227 -0.16804498 0.48924357 0.0016423231 616 126
0.12364142 -0.16651307 0.48408043 0.0015475433 613 125
0.1265009 -0.16719295 0.4853338 0.0015620012 614 125
0.12881398 -0.16713896 0.48443726 0.0015948039 607 124
0.12999535 -0.16564485 0.47935769 0.0015526856 608 124
0.13177721 -0.16495515 0.47660047 0.0016564212 597 122
0.1338838 -0.1646888 0.47505641 0.0015931455 586 119
0.1360653 -0.16452207 0.47378853 0.0018004407 543 109
0.13734491 -0.16328862 0.46944344 0.0017093056 524 105
0.13857563 -0.16203871 0.4650524 0.0016468057 561 113
0.14077286 -0.16194108 0.46396586 0.0017086254 561 113
0.13898677 -0.15733734 0.44998547 0.0015646425 609 124
nan nan nan 0 696 144
0.12754185 -0.13991991 0.39875305 0.0012497826 871 184
0.12566859 -0.13576718 0.38622794 0.0012476729 864 182
0.13217708 -0.14065854 0.39942884 0.0022344128 360 68
0.16802765 -0.17616928 0.49937955 0.0046454063 154 21
0.17088048 -0.17655337 0.49958494 0.0021692843 367 69
0.17367168 -0.17686367 0.49958968 0.0018514689 514 103
0.17722301 -0.17792837 0.50173396 0.0017575205 493 98
0.17985342 -0.17805168 0.50123703 0.0018248787 505 101
0.18241452 -0.17810392 0.50056237 0.001742107 495 98
0.1853019 -0.17846899 0.50079244 0.001986484 462 91
0.18802521 -0.17866838 0.50058669 0.0018510296 450 88
0.19067377 -0.17879246 0.50020438 0.002027872 430 84
0.19332543 -0.1789161 0.49985978 0.0019534542 423 82
0.19603068 -0.17908555 0.49968621 0.0019944399 410 79
0.19886751 -0.1793694 0.4998782 0.0020746267 391 75
0.20130122 -0.17928708 0.49910054 0.0020025384 408 79
0.20387484 -0.17932984 0.49872637 0.0020922062 389 74
0.20664077 -0.17953867 0.49887168 0.0021650167 405 78
0.20923606 -0.17959593 0.49865621 0.0021245473 374 71
0.21151267 -0.17938162 0.49775034 0.002351346 356 67
0.21434703 -0.17963979 0.49822074 0.0021814969 357 67
0.21719749 -0.17990527 0.49877796 0.0023271779 361 68
0.21956317 -0.1797677 0.49828586 0.0023319223 321 59
0.22200008 -0.17969091 0.49803159 0.0025022414 309 56
0.22459278 -0.17974056 0.49819711 0.0024820149 303 55
0.22709453 -0.17971712 0.49822968 0.0026341258 291 52
0.2292314 -0.17940859 0.49754116 0.0025813961 281 50
0.23115088 -0.17893854 0.49647242 0.0027109731 265 46
0.23331456 -0.17866565 0.49601749 0.0029665697 253 43
0.23553881 -0.17844443 0.49577188 0.0029391379 232 38
0.23781379 -0.17826591 0.49570945 0.0028328823 249 42
0.23956063 -0.17769937 0.49462995 0.0028642821 243 41
0.24214815 -0.17776169 0.49536198 0.0033015893 214 34
0.24423282 -0.17745738 0.49513221 0.003336713 203 32
0.24695829 -0.17762008 0.49626416 0.0034702113 191 29
0.24849184 -0.17693089 0.4950709 0.003537819 183 27
0.2500239 -0.17625435 0.49396271 0.0036968265 176 26
0.25123483 -0.17536686 0.49230948 0.0035219518 185 28
0.25285572 -0.17478013 0.49154466 0.003865419 173 25
0.25540829 -0.17484246 0.492652 0.0045729037 160 22
0.25962636 -0.17603284 0.49699259 0.0040543037 152 20
-0.31261036 -0.18502699 0.54518741 0.0051742918 112 11
-0.30966979 -0.18484941 0.54396099 0.0057587326 120 13
-0.30688944 -0.18476523 0.54271495 0.0048040464 125 14
-0.30465239 -0.18500948 0.54224885 0.0053651761 128 15
-0.30339149 -0.18585604 0.54343742 0.0055838735 127 15
-0.30220097 -0.18676102 0.54473639 0.0047612372 128 15
-0.2993651 -0.18665628 0.54307216 0.005171549 134 16
-0.2965 -0.18653123 0.54136127 0.0051771011 129 15
-0.29444009 -0.18691503 0.54115057 0.0049087037 128 15
-0.292198 -0.18718916 0.54065156 0.0051958282 131 15
-0.29037336 -0.18773828 0.54098088 0.0046716961 131 15
-0.28801271 -0.18794784 0.54036999 0.0045347782 132 16
-0.28563291 -0.18814875 0.53977817 0.0045295311 136 17
-0.28369388 -0.18864655 0.54008245 0.0049603763 139 17
-0.28268725 -0.18977983 0.54224771 0.0048347102 140 17
-0.28109011 -0.1905348 0.54337478 0.0041047391 149 20
-0.27723971 -0.18976226 0.54020095 0.0038707273 164 23
-0.2743879 -0.18966471 0.53901047 0.0038894648 161 22
-0.27075756 -0.18902172 0.53633237 0.0037396946 170 24
-0.26866966 -0.18945345 0.53676581 0.0036286539 182 27
-0.26695135 -0.19015722 0.53802872 0.0037773845 170 24
-0.26422331 -0.19014877 0.53733909 0.0037614668 170 24
-0.26125458 -0.18996516 0.53622234 0.0035746652 180 27
-0.25880274 -0.19015747 0.53623557 0.003884098 181 27
-0.25620446 -0.19024515 0.5360235 0.0034944986 186 28
-0.25381482 -0.19049129 0.53632933 0.0037057332 201 31
-0.25125647 -0.19061475 0.53636271 0.0037071342 205 32
-0.24854673 -0.1906248 0.53615129 0.0035156519 212 34
-0.24488117 -0.18989392 0.53393203 0.0030186817 233 39
-0.23970407 -0.1879614 0.52841145 0.0033493177 239 40
nan nan nan 0 284 50
nan nan nan 0 401 77
-0.1970797 -0.15991154 0.44971681 0.0019645437 447 87
-0.19785173 -0.16242053 0.45695549 0.0018827865 455 89
-0.19720097 -0.16380718 0.4611038 0.0020347447 442 86
-0.195831 -0.16462258 0.46370909 0.0019339361 438 85
-0.19437303 -0.16538292 0.46622205 0.0019152362 442 86
-0.19201119 -0.16538344 0.46665236 0.0020058684 435 85
-0.18847528 -0.16436011 0.46424556 0.0018485429 469 92
-0.18637404 -0.16457787 0.46539348 0.0018249647 477 94
-0.18460037 -0.16509412 0.46743619 0.0019143547 488 97
-0.18262574 -0.16544171 0.46904922 0.0017903252 491 97
-0.18156514 -0.1666373 0.47311375 0.0018687486 496 99
-0.1801053 -0.16749336 0.47626022 0.001843747 504 100
-0.17810063 -0.16785896 0.47805095 0.0017663483 514 103
-0.17586616 -0.16801502 0.47927678 0.0018452177 524 105
-0.1748586 -0.16936374 0.48393747 0.0016601577 550 111
-0.17292617 -0.16984193 0.48614123 0.0017990472 525 105
-0.17062075 -0.16996217 0.48734105 0.0016618202 546 110
-0.16850428 -0.17027684 0.48911446 0.0016324366 565 114
-0.16686958 -0.1710947 0.49234951 0.0017511995 554 112
-0.16446623 -0.17113702 0.4933641 0.0016222965 564 114
-0.16233221 -0.17146508 0.49520811 0.0016892496 557 112
-0.15807018 -0.16952106 0.49048236 0.0016670829 575 117
-0.15732792 -0.17135005 0.49667045 0.0016718191 585 119
-0.15484031 -0.17130585 0.49743378 0.0015806628 591 120
-0.15188146 -0.17073053 0.49664491 0.0017559292 585 119
-0.14990434 -0.17125802 0.49905491 0.0015671895 599 122
-0.14784248 -0.17170459 0.50122339 0.0017027901 587 119
-0.14543071 -0.17175297 0.50221974 0.0016378454 584 119
-0.1427251 -0.17145003 0.5021739 0.0016867697 592 120
-0.14006023 -0.17118636 0.50222534 0.0015596988 600 122
-0.13733472 -0.17083783 0.50200927 0.001556163 613 125
-0.13481276 -0.17073445 0.50249469 0.0016251992 598 122
-0.13299514 -0.17153579 0.50562859 0.0015673671 598 122
-0.13071474 -0.17175907 0.50704515 0.0015938006 594 121
-0.12786599 -0.17122981 0.50622028 0.0015911639 585 119
-0.12606244 -0.17210688 0.50953561 0.0016969577 587 119
-0.12404708 -0.17272387 0.51206797 0.0016711719 576 117
-0.12115116 -0.17211497 0.51094663 0.0016026883 583 118
-0.11809383 -0.17124677 0.50903022 0.0015953803 590 120
-0.11519174 -0.17057168 0.50766277 0.0016835956 588 119
-0.11284822 -0.17071244 0.5087021 0.0015827523 595 121
-0.10995013 -0.17000197 0.50718343 0.0016593273 588 119
-0.10763719 -0.17018454 0.50830835 0.0015744348 591 120
-0.10583737 -0.17120561 0.51192278 0.0015929455 586 119
-0.10342915 -0.17126752 0.51265401 0.0015747526 597 122
-0.10095342 -0.17121795 0.51303303 0.0016100622 584 119
-0.09762799 -0.16968903 0.50895631 0.0016945783 591 120
-0.095204763 -0.16969033 0.50944698 0.0016600076 577 117
-0.093040094 -0.17016457 0.51134121 0.0016867293 588 119
-0.090769269 -0.17046492 0.51269758 0.0015917254 583 118
-0.088169307 -0.17014663 0.51217639 0.0016139176 569 115
-0.085609294 -0.16988961 0.51182145 0.0015947492 583 118
-0.08307384 -0.16966774 0.51155496 0.0015865758 588 119
-0.080794409 -0.16997112 0.51285625 0.00159336 579 117
-0.078424998 -0.17009816 0.51361078 0.0016682176 574 116
-0.075808667 -0.16968064 0.51270509 0.0016153655 578 117
-0.073292941 -0.16946815 0.51240265 0.0017567212 572 116
-0.071175583 -0.17019373 0.51492286 0.0017428451 560 113
-0.068710469 -0.17010967 0.51498038 0.0017136583 558 113
-0.066185839 -0.16986674 0.51454228 0.0016413638 559 113
-0.063560903 -0.169338 0.51322353 0.0017694676 572 116
-0.061153971 -0.16937128 0.51359385 0.0016175974 575 117
-0.058774222 -0.16948564 0.51419735 0.001614089 568 115
-0.056272831 -0.16924402 0.5137077 0.0016979394 565 114
-0.053726066 -0.16883808 0.51270604 0.0016100841 573 116
-0.051349655 -0.16895452 0.51327819 0.0016107823 576 117
-0.049005844 -0.16919498 0.51421559 0.0016547662 557 112
-0.046496224 -0.16885823 0.51338691 0.0016449873 568 115
-0.044049673 -0.16872621 0.51316887 0.0017521724 557 112
-0.041642696 -0.16873926 0.51338083 0.0017253471 558 113
-0.039365221 -0.16931093 0.5152818 0.0016623919 553 112
-0.036980685 -0.16946676 0.51590729 0.0016431572 554 112
-0.03448005 -0.16907521 0.51485544 0.0016668078 566 114
-0.032150339 -0.16952591 0.5163582 0.0016292774 569 115
-0.029729579 -0.16953081 0.5164932 0.0017102504 570 115
-0.027298292 -0.16947123 0.51642174 0.0016340188 558 113
-0.024851386 -0.16929367 0.51598066 0.0017108228 567 115
-0.022457454 -0.1694776 0.51663166 0.0017519131 567 115
-0.020069957 -0.16976041 0.51757473 0.001609874 577 117
-0.017598277 -0.16931105 0.51627594 0.0016623111 573 116
-0.01514791 -0.16895619 0.51525563 0.0017517486 564 114
-0.0127356 -0.16897173 0.51535553 0.0017871212 569 115
-0.010331844 -0.16913465 0.51589566 0.0016248166 567 115
-0.0078798793 -0.16836689 0.51358801 0.00161438 570 115
-0.0054828026 -0.16861261 0.51436245 0.0016170273 569 115
-0.0030782297 -0.16883215 0.51504821 0.0016201495 575 117
-0.00066612737 -0.16873318 0.51475328 0.0017294047 571 116
0.0017430735 -0.16862704 0.51442748 0.0016930618 579 117
0.0041587432 -0.16890678 0.51526982 0.0017129733 572 116
0.0065818918 -0.16917333 0.51606286 0.0017188294 565 114
0.0089895725 -0.16900593 0.51552302 0.0016223477 582 118
0.011414714 -0.16916817 0.51597965 0.0017054194 572 116
0.013825959 -0.16910373 0.51573569 0.0016005061 582 118
0.016190885 -0.16857621 0.51407045 0.001694354 585 119
0.0186562 -0.16909523 0.51558715 0.0015864142 590 120
0.021040801 -0.1688475 0.51475656 0.0017188479 581 118
0.023471236 -0.16898073 0.51507789 0.001654226 586 119
0.025850495 -0.16875501 0.51429552 0.0015870613 589 120
0.02824101 -0.16863501 0.51382583 0.0016366178 594 121
0.030645663 -0.16861168 0.51364076 0.0016383657 590 120
0.032979935 -0.16823272 0.51236272 0.0015747274 589 120
0.035257112 -0.16763376 0.51040512 0.0016068734 603 123
0.037678346 -0.16775239 0.51062238 0.0015577731 600 122
0.040057931 -0.16768247 0.5102554 0.0016433358 596 121
0.042450916 -0.16767336 0.51006258 0.0015640799 596 121
0.045032158 -0.1683691 0.51200235 0.0015752208 592 120
0.047431991 -0.1683504 0.51175761 0.001578844 593 121
0.049744856 -0.16803977 0.51061422 0.001543175 614 125
0.051992103 -0.16754624 0.50890446 0.0015463574 608 124
0.054380286 -0.16753033 0.50863409 0.0015207778 626 128
0.056879207 -0.16784255 0.50934738 0.0015474368 612 125
0.059151545 -0.16748793 0.50802469 0.0015330851 620 127
0.061583586 -0.16759552 0.50809151 0.0015369643 610 124
0.064097203 -0.16790876 0.50876808 0.0016725496 606 124
0.066382498 -0.16762285 0.50761586 0.0016040351 608 124
0.068768479 -0.16760221 0.50725377 0.001611592 606 124
0.071356699 -0.1680593 0.50832283 0.001548794 612 125
0.073478088 -0.16742297 0.50607055 0.0016630106 613 125
0.075684585 -0.16701452 0.50449479 0.0015258468 624 128
0.078230634 -0.16735746 0.50517374 0.0016344991 615 126
0.080892161 -0.16791977 0.50649774 0.001599045 610 124
0.083115138 -0.16756554 0.50504118 0.0015353254 621 127
0.085449398 -0.16744922 0.50428677 0.001545392 611 125
0.087684013 -0.16714926 0.5029642 0.0016453076 606 124
0.08986482 -0.16676541 0.5013743 0.0016100967 623 127
0.092974856 -0.16808121 0.50487506 0.001534321 620 127
0.095017299 -0.16744934 0.50250638 0.0015232021 624 128
0.097218841 -0.16712204 0.501037 0.0015415753 619 127
0.099764898 -0.16738842 0.50132996 0.001550652 609 124
0.10242212 -0.16782448 0.50211084 0.0015675634 612 125
0.10455564 -0.16740213 0.50030535 0.0016670396 605 123
0.10721072 -0.16781503 0.50097752 0.0016407947 616 126
0.10946821 -0.16760117 0.49975935 0.0015451063 611 125
0.11167841 -0.1673256 0.49834001 0.0016192195 627 128
0.113576 -0.16660298 0.49557412 0.0016083085 613 125
0.11650993 -0.16739906 0.49730629 0.0015288439 624 128
0.11883472 -0.16730551 0.49637416 0.0015241 620 127
0.12064293 -0.1665027 0.49332231 0.0015248198 622 127
0.12250099 -0.1657984 0.49054989 0.0016010312 624 128
0.12457974 -0.16541383 0.48870957 0.0015177778 630 129
0.12686141 -0.165308 0.4876768 0.001526822 622 127
0.1294852 -0.16564371 0.48792794 0.001538172 625 128
0.1311494 -0.16476184 0.48457786 0.0015561385 612 125
0.13307646 -0.16423547 0.48226333 0.0015870334 596 121
0.13549772 -0.16432667 0.48174855 0.0016427448 557 112
0.13796271 -0.16446692 0.48136169 0.001704587 533 107
0.13942958 -0.16343252 0.47752756 0.0016923411 536 108
0.13985929 -0.16123649 0.47030309 0.0016362944 563 114
0.14042477 -0.15926562 0.46374533 0.0016171584 570 115
0.13976784 -0.15599327 0.45341563 0.0015623833 605 123
nan nan nan 0 700 145
0.12775885 -0.13818403 0.40021342 0.0013177719 848 179
0.12559503 -0.13377675 0.38674822 0.0012136318 901 191
0.13116926 -0.13762018 0.39713797 0.0019908517 414 80
0.16708992 -0.17271885 0.49752069 0.0041921004 155 21
0.17058042 -0.17376119 0.49961931 0.0022087919 358 67
0.17363632 -0.17433728 0.50037748 0.0019111126 485 96
0.17676912 -0.17497322 0.50131351 0.0018156476 523 105
0.17940882 -0.17511012 0.50083178 0.0017141583 511 102
0.1819697 -0.17516738 0.50014156 0.0017555022 515 103
0.18513884 -0.17580067 0.50111681 0.0019617865 475 94
0.18804212 -0.17616796 0.50135773 0.0018419127 465 91
0.19074121 -0.17633675 0.5010643 0.0018956452 445 87
0.19341275 -0.176476 0.50072283 0.0019241226 432 84
0.19609158 -0.17661825 0.50043029 0.0020119098 434 84
0.19852749 -0.17654087 0.49956077 0.0019675877 422 82
0.20132764 -0.17678526 0.49965096 0.002199983 406 78
0.20399344 -0.17690711 0.49944693 0.0020270639 399 76
0.20676754 -0.17711872 0.49955231 0.002284104 376 71
0.2091926 -0.17702982 0.49886969 0.0021319655 380 72
0.2113363 -0.17670782 0.497594 0.0023355167 371 70
0.21366283 -0.17654449 0.49683091 0.0022648664 365 69
0.21660317 -0.17688622 0.49755585 0.00221629 379 72
0.21919864 -0.17694169 0.49754372 0.0024027792 333 61
0.221597 -0.17683858 0.49715534 0.0024782466 324 59
0.22432351 -0.17699672 0.49757186 0.0024415608 296 53
0.22689801 -0.17703274 0.4977158 0.0028260243 293 52
0.22894 -0.17665705 0.4967728 0.0029448241 280 49
0.23154525 -0.17671946 0.49713182 0.0026185617 279 49
0.23372854 -0.17646195 0.49666032 0.0028697222 261 45
0.23590034 -0.17620134 0.49624795 0.0028623936 242 41
0.23818964 -0.17603306 0.49616221 0.0029019597 242 41
0.24019331 -0.17565943 0.49556246 0.002911893 239 40
0.24201167 -0.17515939 0.4946683 0.003099967 217 35
0.24483754 -0.17539136 0.49590334 0.0034861043 214 34
0.24680136 -0.17500728 0.49545726 0.0035894685 196 30
0.24912786 -0.17488556 0.49581134 0.0035319764 188 28
0.25053278 -0.1741257 0.49440992 0.0041339947 175 25
0.25205791 -0.17346354 0.49333492 0.0037825168 172 25
0.2537604 -0.17293514 0.49268803 0.003528615 184 28
0.25600597 -0.17278345 0.49316242 0.0037061041 172 25
0.25874865 -0.17296694 0.49464312 0.0048961015 153 20
-0.31327447 -0.18277141 0.54597366 0.0053243199 118 12
-0.31099421 -0.1829882 0.54571927 0.0050969981 116 12
-0.30780685 -0.18267034 0.54364306 0.0050026956 119 13
-0.3053579 -0.18278904 0.54273325 0.0048662541 122 13
-0.30404413 -0.18359527 0.54379028 0.005386855 127 15
-0.30223647 -0.18411486 0.54396367 0.0047764643 125 14
-0.29910317 -0.18382898 0.54175866 0.0049904296 134 16
-0.29586175 -0.18347089 0.53936619 0.0047690324 129 15
-0.29298267 -0.18333304 0.53765577 0.0046960064 128 15
-0.29336849 -0.18525438 0.54200995 0.0043199537 139 17
-0.29144114 -0.18573701 0.54218096 0.00455024 133 16
-0.28858736 -0.18563272 0.54068208 0.0042397636 144 18
-0.28612649 -0.18578158 0.53996867 0.0048788991 136 17
-0.28401613 -0.18616299 0.53997862 0.0042471341 147 19
-0.28283197 -0.18716468 0.54183286 0.004974328 136 17
-0.28033158 -0.18730628 0.541246 0.0042029717 149 20
-0.27811819 -0.18764429 0.54128158 0.0039510531 169 24
-0.27479586 -0.18723343 0.5392167 0.0039536497 160 22
-0.27156511 -0.18687733 0.5373745 0.0037922144 167 24
-0.26938763 -0.1872462 0.53768039 0.00404992 180 27
-0.26734719 -0.18771884 0.53834641 0.0038424106 170 24
-0.26425409 -0.18745439 0.53696549 0.0037388913 168 24
-0.26141304 -0.18736514 0.53615689 0.0038072143 184 28
-0.25909832 -0.18765523 0.53650433 0.0036245787 196 30
-0.25652465 -0.18776192 0.53639936 0.003782175 196 30
-0.25381586 -0.18777096 0.5360896 0.0031802591 209 33
-0.25147146 -0.18805267 0.53663319 0.003258554 208 33
-0.24923864 -0.18842492 0.53751117 0.003368244 201 31
nan nan nan 0 236 39
nan nan nan 0 345 64
-0.19195919 -0.15005334 0.42798069 0.0019735433 411 79
-0.18998769 -0.15021388 0.42853898 0.0019209424 436 85
-0.19890402 -0.15908636 0.45402178 0.0018118848 472 93
-0.19711232 -0.15950207 0.45544311 0.0019421596 468 92
-0.19831769 -0.16238165 0.4639678 0.001821902 480 95
-0.19742748 -0.16359389 0.46779799 0.0017999198 484 96
-0.19575298 -0.16417786 0.46989515 0.0019943647 486 96
-0.19526117 -0.16578028 0.47497052 0.001999171 466 92
-0.19333114 -0.16618636 0.47667873 0.0018503527 473 93
-0.19154291 -0.1667261 0.47882462 0.0019105085 482 95
-0.18893467 -0.16655675 0.47898284 0.0017688923 498 99
-0.18681809 -0.16682205 0.48043513 0.0017432403 514 103
-0.18467492 -0.16707027 0.48187983 0.0018676043 516 103
-0.18328652 -0.16801699 0.48538011 0.0016995125 528 106
-0.18113588 -0.16828099 0.48694503 0.0018053837 529 106
-0.17787914 -0.16751063 0.48554134 0.0016664652 540 109
-0.17611203 -0.16814113 0.48822027 0.0016640784 565 114
-0.17414364 -0.16859446 0.49040917 0.0016387574 554 112
-0.17223489 -0.16911928 0.49282584 0.0017413265 561 113
-0.17008944 -0.16942345 0.49461505 0.001668189 575 117
-0.16820851 -0.17000389 0.49722296 0.0017118264 563 114
-0.16571698 -0.16997527 0.49805656 0.0016387815 577 117
-0.16340035 -0.17012791 0.49942315 0.0016037865 576 117
-0.16060157 -0.16977552 0.49930418 0.001588815 583 118
-0.15835066 -0.17000036 0.50087762 0.0015786093 591 120
-0.15623561 -0.17038043 0.50290489 0.0015696727 594 121
-0.1536486 -0.1702498 0.50341713 0.0015588955 602 123
-0.15065569 -0.16965778 0.50255054 0.0015908309 602 123
-0.14831887 -0.16979721 0.50383568 0.0016710142 607 124
-0.1460674 -0.17004073 0.50541776 0.0016267239 599 122
-0.14421041 -0.17075969 0.50840271 0.0016109496 617 126
-0.14050047 -0.16927141 0.50479597 0.0015188858 625 128
-0.13808107 -0.16931263 0.50572634 0.0015138398 628 129
-0.13609771 -0.16989969 0.50827229 0.0015380031 616 126
-0.13376938 -0.17006983 0.50955594 0.0015447707 614 125
-0.13151371 -0.17034042 0.51112366 0.0016409414 606 124
-0.12906483 -0.17036633 0.51193911 0.0015461824 606 124
-0.12685147 -0.17071021 0.5136919 0.0016142887 606 124
-0.1241617 -0.17041391 0.51349872 0.001565383 602 123
-0.12163661 -0.17033617 0.51394272 0.0015619864 601 122
-0.11908536 -0.17021786 0.51424348 0.0015812927 604 123
-0.11552571 -0.1686226 0.51005608 0.0016544298 612 125
-0.11479106 -0.17117096 0.51838595 0.0015574971 599 122
-0.11207481 -0.17081174 0.51789868 0.0015958904 586 119
-0.10837616 -0.16890521 0.51269263 0.001633369 597 122
-0.10663469 -0.17003134 0.51666999 0.0015766708 596 121
-0.10375851 -0.16935863 0.5151639 0.0017004185 593 121
-0.10126085 -0.16928613 0.5154624 0.0015939209 578 117
-0.099054366 -0.16970888 0.51725161 0.0015862175 587 119
-0.096346289 -0.16927195 0.51640242 0.0015948764 584 119
-0.093820259 -0.16914034 0.51646554 0.0016536537 593 121
-0.091236405 -0.16889462 0.51616174 0.0016975226 590 120
-0.088697486 -0.16872087 0.51605988 0.0016802205 580 118
-0.086186096 -0.1685911 0.51607502 0.0016801843 584 119
-0.083808832 -0.16872378 0.51687717 0.001613181 586 119
-0.081199408 -0.16838297 0.51621246 0.0017023721 592 120
-0.078750461 -0.1683642 0.51651877 0.0015964943 584 119
-0.076445356 -0.16866152 0.51778007 0.0016551192 572 116
-0.073975161 -0.16860226 0.51793212 0.0017407216 576 117
-0.071304925 -0.16806743 0.51660776 0.0016517724 580 118
-0.068935908 -0.16822989 0.51741177 0.0016163292 571 116
-0.066525824 -0.16830035 0.51791936 0.0016195228 565 114
-0.063993804 -0.16805594 0.51744419 0.0015976114 584 119
-0.061438777 -0.16772939 0.516702 0.0016190927 584 119
-0.05900256 -0.16771366 0.51690388 0.0016831469 579 117
-0.056435611 -0.16730899 0.515894 0.0016011014 581 118
-0.053942982 -0.16709822 0.51546878 0.0016365662 576 117
-0.051544324 -0.16717245 0.51591057 0.0016054759 579 117
-0.04911961 -0.16716526 0.51608962 0.0015925051 585 119
-0.046708368 -0.16720559 0.51640385 0.001735218 574 116
-0.044136833 -0.16664509 0.51485091 0.0016509083 570 115
-0.041836374 -0.16710246 0.51643157 0.0016992501 562 114
-0.039669983 -0.16818441 0.51993328 0.0016896831 557 112
-0.037134014 -0.1677386 0.51870203 0.0017688362 561 113
-0.034723755 -0.16783798 0.51914608 0.0017269696 574 116
-0.032266639 -0.16770877 0.51887298 0.0017395588 570 115
-0.02985174 -0.16779581 0.51925886 0.0016185831 565 114
-0.027464664 -0.1680685 0.52020985 0.0016277374 572 116
-0.025016716 -0.16798556 0.52005053 0.0016422487 576 117
-0.022605347 -0.16815685 0.52066875 0.0016363238 571 116
-0.020173719 -0.16820058 0.5208829 0.001604045 573 116
-0.017725186 -0.16809602 0.52062839 0.0017137249 570 115
-0.015228391 -0.16742757 0.51861805 0.0016067307 576 117
-0.012831737 -0.16781536 0.51987034 0.0016097415 580 118
-0.010405009 -0.16789922 0.52017224 0.0016116692 570 115
-0.0079837712 -0.16814996 0.52098238 0.0015926473 578 117
-0.0055017993 -0.16677989 0.51676178 0.001589671 583 118
-0.0030939898 -0.16727248 0.51830351 0.0015745998 593 121
-0.00067121291 -0.16759267 0.51930249 0.0015890865 582 118
0.0017539921 -0.16725944 0.51826793 0.0015977829 580 118
0.0041819434 -0.1674228 0.51876348 0.0016075945 579 117
0.0066075334 -0.16740641 0.51869315 0.0015852194 591 120
0.0090225311 -0.1672025 0.51803315 0.0016796641 594 121
0.01143567 -0.16705778 0.51754779 0.0015678991 597 122
0.013866483 -0.16717672 0.51787031 0.0015801013 597 122
0.01633014 -0.16759737 0.51911831 0.0016081692 596 121
0.018750226 -0.16751982 0.51881397 0.0016488145 599 122
0.021142667 -0.16724135 0.51787847 0.0015605229 601 122
0.02359228 -0.16742589 0.51836747 0.0015732162 585 119
0.025959738 -0.16704737 0.51710391 0.0015797644 599 122
0.028334916 -0.16677885 0.51617169 0.0015792795 604 123
0.030722613 -0.16662045 0.51557106 0.0016284471 602 123
0.033156004 -0.16671486 0.51574296 0.001597234 595 121
0.035519909 -0.16647083 0.51485783 0.0016011223 600 122
0.037887167 -0.16627252 0.5141046 0.0015460398 607 124
0.040211972 -0.16592278 0.51287323 0.0015443533 608 124
0.042785291 -0.16658007 0.51474369 0.001529733 622 127
0.045305364 -0.16697089 0.51577902 0.0015910007 607 124
0.04752377 -0.16626669 0.51342112 0.0015475511 615 126
0.049831655 -0.16592839 0.51218313 0.0015835778 608 124
0.052186456 -0.16577026 0.5114904 0.0015337045 614 125
0.054660656 -0.16598864 0.51194757 0.0015325191 625 128
0.057065971 -0.16598822 0.51171768 0.0015173424 631 129
0.059381437 -0.16573706 0.51070285 0.0015751735 626 128
0.061761778 -0.1656795 0.51027244 0.0016215724 620 127
0.064453378 -0.16642994 0.51231676 0.0015885573 617 126
0.06692142 -0.1665698 0.51246679 0.0015344693 613 125
0.06921941 -0.1662914 0.51131684 0.0015355157 618 126
0.071547858 -0.16610242 0.51042867 0.001592426 625 128
0.073927507 -0.16604081 0.50991827 0.0015228135 629 129
0.076247573 -0.16585338 0.50900745 0.0015914325 631 129
0.078842871 -0.16625786 0.50989801 0.0015627834 614 125
0.081293188 -0.16634168 0.50978881 0.0015368776 631 129
0.083599165 -0.16613381 0.50877053 0.0015201534 627 128
0.085800737 -0.16573593 0.5071559 0.0016499655 617 126
0.088364415 -0.16604012 0.5076735 0.0015222066 626 128
0.090854928 -0.16619433 0.50771499 0.0015233572 627 128
0.093114868 -0.16592972 0.50646037 0.0015300621 624 128
0.095801421 -0.16641951 0.5074904 0.0015115074 632 130
0.098221958 -0.16643451 0.50705373 0.0015271091 623 127
0.10061191 -0.16639818 0.50644284 0.0015208657 623 127
0.1030586 -0.16645518 0.50609773 0.0015487407 619 127
0.1052947 -0.16617723 0.50471646 0.0015322183 617 126
0.10753974 -0.16592552 0.503398 0.0016001026 633 130
0.10994704 -0.16592968 0.50283778 0.0015080469 637 131
0.11240626 -0.16601034 0.50248992 0.0015409902 639 131
0.11452004 -0.16558814 0.50060219 0.0015329836 620 127
0.11701882 -0.16572855 0.50039679 0.0015917582 635 130
0.11934 -0.16561683 0.49941078 0.0015966212 633 130
0.12167688 -0.16553086 0.49848384 0.0015097227 634 130
0.12446728 -0.16605327 0.49936786 0.0015239897 627 128
0.12618677 -0.16515426 0.49595964 0.0015179181 634 130
0.12819116 -0.16465464 0.49373785 0.0015823117 627 128
0.13097097 -0.16515107 0.49448428 0.0015683661 614 125
0.13322237 -0.16497532 0.49319857 0.001547466 605 123
0.13496798 -0.16419052 0.49007875 0.0016137102 567 115
0.13610122 -0.16270079 0.48484877 0.0017105336 540 109
0.13789864 -0.16204228 0.48209029 0.0016733011 543 109
0.13995691 -0.16170719 0.48028383 0.0017615687 552 111
0.14083716 -0.16004452 0.47453061 0.0016221355 568 115
0.1410979 -0.15774308 0.46689123 0.001623155 591 120
0.14032905 -0.15438235 0.45613515 0.0015678605 604 123
nan nan nan 0 671 138
0.12858476 -0.13709067 0.40358633 0.0012950051 832 175
0.12569563 -0.1319714 0.38780555 0.0012062993 916 194
0.12885357 -0.13325946 0.39087102 0.0018347374 511 102
nan nan nan 0 155 21
0.17066285 -0.17136185 0.50078213 0.0023863276 315 57
0.17369288 -0.17190294 0.50144279 0.0018508044 506 101
0.17660713 -0.17231573 0.5017333 0.0017066258 519 104
0.17924884 -0.17245485 0.50123698 0.0017436687 505 101
0.18184611 -0.17254792 0.50062263 0.0017166353 530 106
0.18524399 -0.17338784 0.50219154 0.0017605232 492 98
0.18814956 -0.17375068 0.50239813 0.0017861557 480 95
0.19091338 -0.17397474 0.50223064 0.0018803211 444 87
0.19348769 -0.17402251 0.50158727 0.0018788457 442 86
0.19578403 -0.17382228 0.50026864 0.00191288 435 85
0.19853936 -0.17402944 0.5001657 0.0021143279 434 84
0.20132354 -0.1742564 0.50016516 0.0019604634 413 80
0.20424154 -0.17459215 0.50052649 0.0019787748 415 80
0.20679484 -0.1746117 0.50003541 0.0020949943 436 85
0.20912115 -0.17444141 0.49905992 0.0020439913 386 73
0.21161538 -0.17441364 0.49855441 0.0021114869 374 71
0.213461 -0.17385821 0.49660644 0.0020869749 400 77
0.21629773 -0.1741136 0.4970417 0.0021186403 377 71
0.21894318 -0.17421086 0.49709365 0.0023175913 368 69
0.22153217 -0.1742615 0.49708253 0.0022605285 341 63
0.2239839 -0.17420425 0.49683473 0.002390665 319 58
0.22662382 -0.17429301 0.49707502 0.002697587 305 55
0.22936454 -0.17445649 0.49760047 0.0027761986 281 50
0.23160994 -0.17424376 0.49712464 0.0028019908 265 46
0.23358873 -0.1738372 0.49616656 0.0027963687 251 43
0.23619863 -0.17390399 0.49662954 0.0028309957 250 43
0.23866348 -0.17386369 0.49685624 0.0029209601 246 42
0.24069728 -0.17351347 0.49626467 0.0032906258 240 40
0.24272785 -0.17316824 0.49575213 0.0032491263 226 37
0.24471837 -0.17280179 0.49524185 0.0036520332 212 34
0.24721512 -0.17279658 0.49582884 0.0035516929 207 33
0.24904063 -0.17232701 0.49514306 0.0035436577 184 28
0.25093845 -0.17191632 0.49468234 0.003805792 190 29
0.25290251 -0.1715586 0.49442822 0.0037303893 178 26
0.25529996 -0.17149901 0.49508673 0.0038374639 192 29
0.2570008 -0.17097713 0.49446139 0.0037031779 174 25
0.25795552 -0.16997358 0.49248639 0.0039022171 159 22
-0.31693637 -0.18222822 0.55186099 0.0048411344 126 14
-0.31020799 -0.17988047 0.54370028 0.0057682721 120 13
-0.30724752 -0.17969604 0.54192239 0.0060835695 112 11
-0.30593207 -0.18047886 0.54296446 0.0048164059 124 14
-0.30496976 -0.18148549 0.54462576 0.0049653538 120 13
-0.30183953 -0.18120842 0.54242259 0.0055225501 123 14
-0.29878092 -0.18096977 0.54035288 0.0044560097 136 17
-0.29559267 -0.18064763 0.53806585 0.0050190068 131 15
-0.29414263 -0.18139158 0.53898716 0.0042510787 146 19
-0.29417306 -0.18307041 0.54271084 0.0042413217 144 18
-0.29213062 -0.18347843 0.54269791 0.0042472524 146 19
-0.28904372 -0.18323188 0.54079616 0.0046411296 143 18
-0.2862446 -0.18316485 0.53947645 0.0041792123 147 19
-0.28384429 -0.18335421 0.53896385 0.004312274 143 18
-0.28189674 -0.18384244 0.53938061 0.0043519582 145 19
-0.28010848 -0.18444501 0.54018408 0.0040151826 154 21
-0.27792332 -0.18479544 0.54030359 0.0038891672 164 23
-0.27502802 -0.18467598 0.53910947 0.003946926 171 25
-0.27183521 -0.18435234 0.53738505 0.0036022621 181 27
-0.26986435 -0.18485925 0.53814662 0.0036293962 177 26
-0.26800174 -0.18545137 0.53921992 0.0036634617 181 27
-0.26462111 -0.18499447 0.53731245 0.0038014424 179 26
-0.26153633 -0.18473701 0.53605813 0.0032812953 199 31
-0.25914457 -0.18496881 0.53629702 0.0035250199 210 33
-0.25665331 -0.18513374 0.53641593 0.0033253909 199 31
-0.25384966 -0.18507449 0.53596163 0.0032156969 209 33
-0.25118756 -0.18511824 0.53588313 0.0029152902 240 40
