# .PCD v0.7 - Point Cloud Data file format
VERSION 0.7
FIELDS x y z noise intensity gray
SIZE 4 4 4 4 2 1
TYPE F F F F U U
COUNT 1 1 1 1 1 1
WIDTH 857
HEIGHT 1
VIEWPOINT 0 0 0 1 0 0 0
POINTS 857
DATA ascii
nan nan nan 0 321 59
0.15725946 -0.086966634 0.4824833 0.0054959636 111 7
0.1625253 -0.088589653 0.49070251 0.002222792 369 70
0.16575468 -0.089072421 0.49255863 0.0016389342 554 116
0.16876982 -0.089428209 0.4936761 0.0015844095 583 123
0.17153665 -0.089644447 0.49398881 0.0016381072 602 128
0.17445457 -0.089932702 0.49466455 0.0016062317 597 127
0.1766856 -0.089863889 0.49334544 0.0017321196 569 120
0.17937763 -0.090028271 0.49327746 0.0016483478 596 126
0.18228298 -0.090294026 0.49373275 0.0015812399 610 130
0.18516198 -0.090540059 0.4940474 0.0015493889 599 127
0.18776116 -0.090644747 0.49356133 0.0015483015 607 129
0.19057059 -0.09084706 0.49357864 0.0015490123 618 132
0.19254175 -0.090649672 0.49140182 0.0015662406 616 131
0.19488019 -0.090627931 0.49015921 0.001533254 615 131
0.19846418 -0.091178939 0.49198973 0.0015596264 594 126
0.20096806 -0.091226496 0.49108073 0.0015675217 610 130
0.20399503 -0.091507569 0.49141264 0.0016085618 583 123
0.20700371 -0.091773979 0.49165067 0.0015869673 571 120
0.21000743 -0.092032082 0.49183369 0.0016633826 551 115
0.21277082 -0.092180163 0.49142465 0.0016367326 551 115
0.21513145 -0.092152379 0.49008307 0.0016450739 555 116
0.21753515 -0.092143476 0.48885494 0.0016635873 544 113
0.22046664 -0.09235587 0.48881736 0.0017227649 529 110
0.22369884 -0.09268821 0.48943374 0.0016707309 539 112
0.22637805 -0.092786752 0.48884332 0.0017177779 514 106
0.22907662 -0.092891008 0.48832121 0.0017738221 487 99
0.23138379 -0.092836052 0.48700956 0.0018368426 464 94
0.23415045 -0.092964649 0.48671561 0.0018479715 457 92
0.2380994 -0.09355516 0.48889565 0.0021457111 418 82
0.24063206 -0.093582779 0.48819831 0.0019870137 413 81
0.24361868 -0.093784586 0.48848441 0.0019587269 423 84
0.24654135 -0.093957983 0.48870221 0.0019946843 408 80
0.24909191 -0.093987539 0.48825824 0.0021054265 372 71
0.25118029 -0.093843825 0.48700681 0.0024053259 357 67
0.25323373 -0.093689993 0.48579967 0.002455519 328 60
0.2551561 -0.093491107 0.48445779 0.0022863043 329 61
0.25623226 -0.092988908 0.48164493 0.0025502415 315 57
-0.32308391 -0.10108322 0.54435647 0.0037714471 168 21
-0.320687 -0.10118883 0.54386419 0.0036715709 177 23
-0.31785333 -0.10115725 0.54271185 0.0042782342 165 20
-0.31432587 -0.10090241 0.54044598 0.0036679721 175 23
-0.31065035 -0.10059517 0.53798932 0.0034568147 194 27
-0.30890396 -0.10091272 0.5389632 0.0034749829 186 25
-0.306411 -0.10098985 0.53874308 0.0035414861 207 31
-0.30419371 -0.10116005 0.53911465 0.0034621735 205 30
-0.30236793 -0.1014647 0.54030049 0.0031445669 211 31
-0.29932058 -0.10136127 0.53941607 0.0034264014 218 33
-0.29547668 -0.10098369 0.53718019 0.0032265843 238 38
-0.29248756 -0.10089393 0.53658456 0.0027993699 245 40
-0.2896032 -0.10083896 0.53628385 0.0028648372 245 40
-0.28682336 -0.1008197 0.53628397 0.0029766371 256 43
-0.28423062 -0.10086644 0.53674638 0.0026219697 272 47
-0.27835062 -0.099736229 0.53105301 0.0026721645 302 54
-0.27710378 -0.10026027 0.53427422 0.0023966676 307 55
-0.27439857 -0.10026179 0.5348193 0.0025338065 306 55
-0.27085918 -0.099955499 0.53382295 0.0023273698 320 58
-0.26784369 -0.099838316 0.53393126 0.0022195317 356 67
-0.26355219 -0.099238276 0.53154367 0.0022053206 359 68
-0.26018482 -0.098977461 0.53105092 0.0021441884 363 69
nan nan nan 0 440 88
-0.19291639 -0.074928269 0.40355876 0.001271425 921 206
-0.19093683 -0.074946024 0.40449914 0.0011029633 1077 245
nan nan nan 0 830 184
-0.20443836 -0.081984848 0.44446558 0.001437475 751 164
-0.20810765 -0.084370643 0.45846877 0.0014824105 699 152
-0.20719697 -0.08493194 0.46262056 0.0014279032 706 153
-0.20805784 -0.086240113 0.47088429 0.0014350646 687 149
-0.20727707 -0.086889744 0.47559133 0.001491404 715 156
-0.20587967 -0.087292813 0.47897029 0.0014418298 692 150
-0.20591508 -0.088319786 0.48579368 0.0014454011 686 148
-0.20442174 -0.088707447 0.48911673 0.0014279082 701 152
-0.20381071 -0.089491732 0.49463472 0.0014456395 674 145
-0.20221587 -0.089857683 0.49784425 0.0014998956 699 152
-0.20050263 -0.090179265 0.50080198 0.0014201045 694 150
-0.19893463 -0.090574898 0.50416183 0.0014118128 704 153
-0.19786945 -0.091212161 0.50885886 0.0014026536 714 155
-0.19642238 -0.091687262 0.51264179 0.0014350727 708 154
-0.19437018 -0.091888405 0.51487601 0.0013965038 726 158
-0.19282766 -0.092338823 0.51848793 0.0014107507 717 156
-0.19107312 -0.092698202 0.52156973 0.0014296867 728 159
-0.1889753 -0.092898376 0.52373302 0.0013930015 728 159
-0.18655753 -0.092944525 0.52500051 0.0014188117 742 162
-0.18383373 -0.092837408 0.52537113 0.0014195145 739 161
-0.1808649 -0.092601866 0.5249806 0.0013886854 723 158
-0.17667031 -0.091723315 0.52090281 0.0014507293 693 150
-0.17256212 -0.090865269 0.51689404 0.0011625333 990 223
-0.16964358 -0.09061791 0.51631856 0.0011215443 1092 248
-0.16706248 -0.090546206 0.516711 0.0010998503 1090 248
-0.16453537 -0.090502061 0.51723009 0.0010770784 1111 253
-0.16183285 -0.090358652 0.51715112 0.0011202783 1065 242
-0.16030389 -0.090876125 0.52082866 0.0011354885 1004 227
-0.15739055 -0.090612687 0.52000433 0.0011199336 1050 238
-0.1548149 -0.09053842 0.52023524 0.0011127574 1037 235
-0.15217146 -0.09042149 0.52019238 0.0011110264 1037 235
-0.14943664 -0.090245552 0.51978135 0.0011444446 1069 243
-0.14714433 -0.090335444 0.5208748 0.0010972784 1057 240
-0.14484689 -0.090425171 0.52194309 0.0011669835 1028 233
-0.1416512 -0.089947574 0.51970959 0.0011277092 1018 230
-0.13906033 -0.0898441 0.5196104 0.0011667432 1010 228
-0.13653351 -0.089779034 0.51970911 0.0011366778 1010 228
-0.13413352 -0.089796521 0.52026272 0.0011353698 1019 230
-0.13153417 -0.089678749 0.52001017 0.0011256605 1030 233
-0.12903845 -0.089628525 0.52012718 0.0011392165 1003 226
-0.12613156 -0.089285329 0.51852167 0.0011595128 974 219
-0.12368339 -0.089259788 0.51873952 0.001142983 993 224
-0.12128944 -0.089273132 0.51916391 0.0012185042 952 214
-0.11872654 -0.089160167 0.51883471 0.0011757908 957 215
-0.11630757 -0.089152835 0.51910174 0.0011918297 936 210
-0.11381736 -0.089089416 0.51902473 0.0011840493 937 210
-0.11127652 -0.088982791 0.51867861 0.0011940175 941 211
-0.10862032 -0.088777162 0.5177384 0.0012558445 942 211
-0.10624942 -0.088800691 0.5181188 0.0012030237 921 206
-0.10395987 -0.088894866 0.51889676 0.0012471321 909 203
-0.10146994 -0.088818096 0.51866269 0.0012171657 898 201
-0.09877494 -0.088553764 0.51731884 0.0011894059 937 210
-0.096217483 -0.088402681 0.51662248 0.0011901401 946 212
-0.09363535 -0.088220656 0.51573223 0.0012143 928 208
-0.091247603 -0.088217042 0.5158726 0.0011971488 932 209
-0.0889709 -0.088323474 0.51664537 0.00120859 905 202
-0.086488932 -0.088226378 0.51621681 0.0012473009 891 199
-0.084046364 -0.088165112 0.51598722 0.0012506397 899 201
-0.081653498 -0.088153943 0.51604092 0.0012361296 893 199
-0.07931257 -0.088199854 0.51641947 0.0012831547 888 198
-0.076953016 -0.088227242 0.51668084 0.0012347308 876 195
-0.074419126 -0.088050127 0.5157361 0.0012486903 863 192
-0.072008394 -0.088011838 0.51559633 0.0012662043 887 198
-0.069645129 -0.088030919 0.51578522 0.0012686379 897 200
-0.067344703 -0.088133611 0.5164572 0.0012776837 883 197
-0.065037072 -0.088234045 0.51710933 0.0012382577 870 194
-0.062685043 -0.088279597 0.51743394 0.0013017091 877 195
-0.060287286 -0.088261805 0.51738149 0.001226412 898 201
-0.057904929 -0.088266023 0.51745272 0.0012295421 902 202
-0.055618301 -0.088422798 0.51841331 0.0012572566 849 189
-0.053719718 -0.089238256 0.52323163 0.0012740678 843 187
-0.051556386 -0.089669898 0.52579564 0.0013252773 775 170
-0.04781007 -0.08725512 0.51166463 0.0012905772 817 181
-0.044632889 -0.085682385 0.5024665 0.0012482413 870 194
-0.042095959 -0.085233882 0.4998576 0.001335743 853 190
-0.039700095 -0.085035622 0.4987132 0.0012578884 861 191
-0.037399169 -0.085028835 0.49868909 0.0012643684 866 193
-0.035070471 -0.084953889 0.49826291 0.0012692055 850 189
-0.032850385 -0.085149966 0.49942437 0.0012531333 858 191
-0.030525912 -0.085084625 0.49905062 0.0012898427 863 192
-0.028161399 -0.084887952 0.49790499 0.0012629674 859 191
-0.025886422 -0.084950216 0.49827674 0.0012832677 858 191
-0.023655586 -0.085183568 0.49965078 0.0013035806 840 186
-0.021375731 -0.085271664 0.50017184 0.00125974 854 190
-0.019102599 -0.085411124 0.50099325 0.0012474473 870 194
-0.016785633 -0.085365981 0.50073117 0.0012445628 871 194
-0.014492703 -0.085448168 0.50121528 0.0012608054 853 190
-0.012142715 -0.085161351 0.4995344 0.0012857831 850 189
-0.0098319305 -0.085079618 0.49905613 0.0013047646 859 191
-0.0075508491 -0.085283488 0.50025284 0.0012681911 846 188
-0.0052633034 -0.085561387 0.50188345 0.0012992747 853 190
-0.0029542639 -0.085651584 0.5024128 0.0012636922 875 195
-0.00064074091 -0.085794158 0.50324923 0.0012550809 855 190
0.001681303 -0.085978419 0.5043301 0.0013117407 820 181
0.0040179468 -0.086262323 0.50599515 0.0013494242 806 178
0.00634907 -0.08626274 0.50599718 0.0013577916 798 176
0.0086868191 -0.086328782 0.5063839 0.0013115153 814 180
0.01102032 -0.08633358 0.50641108 0.0012872254 823 182
0.013377496 -0.086489782 0.50732595 0.0013075856 802 177
0.015676226 -0.08627785 0.50608104 0.001297776 807 178
0.017984087 -0.086164527 0.50541401 0.0013105243 800 176
0.02031076 -0.086156987 0.50536674 0.0013096739 799 176
0.022657784 -0.086228453 0.50578213 0.0013661342 806 178
0.024955807 -0.086117499 0.50512654 0.0012900799 818 181
0.027188519 -0.085819319 0.5033716 0.0012680356 841 187
0.029431598 -0.085598171 0.50206733 0.0012517216 858 191
0.031596057 -0.08519724 0.49970707 0.0012370555 878 196
0.033740561 -0.084800616 0.49737051 0.0012456932 900 201
0.03590174 -0.084493689 0.49555811 0.0012189375 888 198
0.038169805 -0.084459998 0.49534619 0.0012739345 894 200
0.040474102 -0.084505737 0.49559769 0.0012044612 911 204
0.042756613 -0.084503539 0.49556544 0.0012237083 888 198
0.045040358 -0.084503882 0.49554512 0.00128621 867 193
0.04726205 -0.08439339 0.4948715 0.0012621662 851 189
0.049415872 -0.084177442 0.49357617 0.0012527572 883 197
0.05156273 -0.083969176 0.49232218 0.0012719381 890 199
0.053575624 -0.083569482 0.4899419 0.0012371193 886 198
0.055907223 -0.083679169 0.49054354 0.0013088334 842 187
0.057871003 -0.083251178 0.48798853 0.0012594148 851 189
0.06027244 -0.08346127 0.48916855 0.001329736 838 186
0.062294226 -0.083149448 0.48728418 0.0012889383 820 181
0.064653881 -0.083294623 0.48807204 0.0012775388 839 186
0.066689633 -0.083026774 0.4864336 0.0012927535 862 192
0.068754807 -0.082811795 0.48509839 0.0012830175 885 197
0.070986472 -0.08280459 0.4849734 0.0012662645 902 202
0.073115721 -0.082682006 0.48416522 0.0012678918 905 202
0.075289033 -0.08261504 0.48367482 0.0012074725 916 205
0.077840872 -0.082955331 0.48555994 0.0012452202 924 207
0.080460727 -0.083347023 0.48773596 0.0012252239 937 210
0.082351953 -0.082983166 0.48548105 0.0012164379 940 211
0.084421083 -0.082813121 0.48435098 0.0011809503 945 212
0.086601384 -0.082758091 0.4838835 0.0011966076 939 211
0.088813707 -0.082735658 0.48359594 0.001187198 940 211
0.091042839 -0.082729615 0.48339283 0.001171938 950 213
0.093210503 -0.082669333 0.48286086 0.0011726327 951 214
0.096463285 -0.08355175 0.48782083 0.0012196163 898 201
0.098739192 -0.083567038 0.48770282 0.0012246009 888 198
0.10104914 -0.083609812 0.4877314 0.0012664826 890 199
0.10393377 -0.084115811 0.4904463 0.0012384021 882 197
0.10632868 -0.084212296 0.49075702 0.0012798122 852 189
0.10910457 -0.084600143 0.49274868 0.0012612618 849 189
0.1126094 -0.085525714 0.4978517 0.0013224022 828 183
0.11492775 -0.085531048 0.49757788 0.0013229863 814 180
0.11717689 -0.085485674 0.49699175 0.0012570308 850 189
0.11952122 -0.085510164 0.49679378 0.0012555674 851 189
0.12227879 -0.085823752 0.49825513 0.001268773 836 185
0.12504299 -0.086130254 0.49965322 0.0012978711 807 178
0.12955248 -0.08760573 0.50780439 0.0015618704 602 128
0.13076638 -0.086839721 0.50293857 0.0016260254 565 119
0.13300429 -0.086768754 0.50208062 0.0016191488 575 121
0.13477005 -0.086397558 0.4994657 0.0016277427 570 120
0.13555443 -0.085420579 0.49333349 0.0016649429 544 113
0.13710468 -0.084950864 0.49011621 0.0016606371 553 116
0.13839589 -0.084338762 0.48606035 0.0016466749 553 116
0.13703683 -0.082157552 0.47295555 0.001819039 544 113
0.13807252 -0.081458755 0.46837947 0.0016544823 556 116
nan nan nan 0 608 129
nan nan nan 0 745 163
0.11789547 -0.066379994 0.38020536 0.0011685276 975 220
0.11897556 -0.065984182 0.37740904 0.0011383601 1014 229
nan nan nan 0 323 59
0.1575097 -0.084813088 0.48366222 0.0057741557 107 6
0.16239721 -0.086190671 0.49074295 0.0021387467 376 72
0.16526674 -0.086473413 0.49154636 0.0017145069 588 124
0.16832833 -0.08684738 0.49283326 0.001604987 607 129
0.17125295 -0.08714135 0.49363065 0.0015111853 625 133
0.1740222 -0.087349348 0.49390689 0.0016280791 597 127
0.17657399 -0.087444097 0.49351081 0.0015672343 586 124
0.17896414 -0.087457351 0.492625 0.0015109756 622 133
0.18205932 -0.0878103 0.49362046 0.0016413685 607 129
0.18486354 -0.088015653 0.49375242 0.001559642 610 130
0.18767777 -0.088220485 0.49385032 0.0015553292 597 127
0.1900645 -0.088221744 0.49278101 0.0015430033 611 130
0.19248357 -0.088237792 0.49177051 0.0015265653 614 131
0.19499461 -0.088295117 0.49096742 0.0015155209 617 131
0.19772731 -0.088450193 0.49068591 0.0015299657 619 132
0.20043871 -0.088592157 0.49031112 0.0015339071 617 131
0.20337214 -0.088827744 0.49043605 0.0015845037 604 128
0.20656632 -0.089170389 0.49113461 0.0015607141 585 124
0.20950001 -0.089393996 0.49116436 0.0016075014 568 119
0.21217634 -0.089503914 0.49056408 0.0017325423 565 119
0.21466574 -0.089533418 0.48952559 0.0016946782 588 124
0.21749724 -0.089703344 0.48926246 0.0016844865 554 116
0.2208235 -0.090071335 0.49008909 0.0016365027 550 115
0.22358356 -0.090202861 0.48964596 0.0016686053 538 112
0.22632343 -0.0903235 0.48917103 0.0017448985 505 104
0.22870088 -0.090298481 0.48794383 0.0019244243 483 98
0.23136677 -0.090386659 0.48737323 0.0019567208 457 92
0.23354499 -0.090284474 0.4858292 0.0020164317 458 92
0.23616636 -0.090353951 0.4852699 0.0020699175 429 85
0.24043866 -0.09104716 0.48812056 0.0019870999 405 79
0.24329846 -0.091196872 0.48812437 0.0019934785 416 82
0.24637108 -0.091422558 0.48861274 0.0020173697 401 78
0.24849902 -0.091296695 0.487308 0.0021878963 393 76
0.25066614 -0.091187544 0.48618513 0.0024294984 341 63
0.25278342 -0.091062583 0.48507383 0.0022160853 349 65
0.2554107 -0.091121964 0.4850423 0.0024631943 328 60
0.25777167 -0.091086119 0.48460302 0.0023432302 318 58
-0.32339233 -0.098445497 0.54454005 0.0042852634 143 15
-0.31995699 -0.098230258 0.54231209 0.0042935619 164 20
-0.31666243 -0.098054878 0.54038739 0.0039108153 168 21
-0.31310651 -0.097794846 0.53808308 0.0039578467 176 23
-0.31090426 -0.097956754 0.5381881 0.0034584498 185 25
-0.30851015 -0.098060541 0.53806216 0.0033487324 199 29
-0.30607426 -0.098152779 0.53796607 0.0034808083 185 25
-0.30355203 -0.098218732 0.53782308 0.0033913674 211 31
-0.30133551 -0.098385707 0.53833377 0.0033065234 213 32
-0.29876456 -0.098438941 0.5383262 0.0030942629 217 33
-0.29555699 -0.098281488 0.53727406 0.0031798549 230 36
-0.292391 -0.098135047 0.53639221 0.0029006298 242 39
-0.28986698 -0.098203331 0.53679514 0.0029687209 260 44
-0.28661123 -0.098022647 0.53594881 0.0029094829 254 42
-0.2830781 -0.097742751 0.53467083 0.0028814788 278 48
-0.28027615 -0.097712331 0.53486723 0.0024982202 295 52
-0.27720273 -0.097585738 0.53464508 0.0024673222 303 54
-0.27363053 -0.097279333 0.53354102 0.0022941181 329 61
-0.27084416 -0.097248971 0.53405046 0.0023051926 326 60
-0.2672205 -0.096914336 0.53298235 0.002368748 325 60
-0.26330066 -0.096464388 0.53136384 0.0023218731 341 63
-0.25907853 -0.095893286 0.52915198 0.0022489701 357 67
nan nan nan 0 481 98
-0.19099039 -0.072175615 0.3998456 0.0011732716 981 221
-0.1907419 -0.072846286 0.40442505 0.00113316 1069 243
-0.20102461 -0.077596441 0.43175879 0.0012974635 810 179
-0.20590216 -0.080340512 0.44805944 0.0014071735 751 164
-0.20880216 -0.082364641 0.46043628 0.0014410036 725 158
-0.20771667 -0.082844079 0.46423441 0.0014805221 709 154
-0.20867988 -0.084160484 0.47276407 0.0014853148 699 152
-0.20713915 -0.084485434 0.47575781 0.00146122 706 153
-0.20635881 -0.085131548 0.48057872 0.0014373384 693 150
-0.20644324 -0.0861535 0.48754448 0.0014984646 689 149
-0.20452453 -0.086353682 0.48987183 0.0014370109 696 151
-0.20394191 -0.087129414 0.49546844 0.0015288075 695 151
-0.20208149 -0.087371327 0.4980301 0.0014201886 701 152
-0.20020939 -0.087614007 0.50058621 0.0014229385 703 153
-0.19921598 -0.088251896 0.50539261 0.0014193102 710 154
-0.19774218 -0.088690229 0.50904799 0.0014261083 707 154
-0.19637622 -0.089188598 0.51303583 0.00145834 705 153
-0.19389093 -0.089184828 0.51411521 0.0014027404 721 157
-0.19190688 -0.089414507 0.51651543 0.0013963688 728 159
-0.19110611 -0.090208769 0.52216041 0.0014719948 740 162
-0.18882009 -0.090313733 0.52379608 0.0014005218 738 161
-0.18652962 -0.09041933 0.52540743 0.0013812575 731 159
-0.18374649 -0.090285763 0.52559781 0.0013761752 730 159
-0.1804879 -0.089911632 0.52435112 0.0014126771 701 152
-0.17724226 -0.089533567 0.5230428 0.0015627448 639 137
-0.17306899 -0.088669464 0.51885206 0.0011819468 985 222
-0.16968033 -0.088188209 0.51685816 0.0010915406 1076 244
-0.16706404 -0.088100173 0.51713353 0.0010810356 1108 252
-0.16456217 -0.088070735 0.51772213 0.0010599941 1131 255
-0.16229536 -0.088168122 0.51902747 0.0011189191 1081 246
-0.16016319 -0.088342749 0.52076083 0.001097672 1058 240
-0.15754674 -0.088251546 0.52089942 0.0011659579 1038 235
-0.15480082 -0.088083759 0.52055621 0.0011353394 1023 231
-0.15191042 -0.087827086 0.51965731 0.0011169538 1040 236
-0.14920726 -0.087672047 0.51933032 0.0010889937 1086 247
-0.14690609 -0.08775197 0.52036881 0.0011039319 1069 243
-0.14469236 -0.087887712 0.52171433 0.0011509727 1017 230
-0.14147484 -0.087407932 0.51937932 0.0011771586 1023 231
-0.13888524 -0.087306149 0.51926303 0.0011385566 1010 228
-0.13630646 -0.087207653 0.51914197 0.0011736493 1044 237
-0.13386571 -0.087195493 0.51951176 0.00113495 1027 232
-0.13174111 -0.087392613 0.52110749 0.0011824277 1004 227
-0.12870015 -0.086977847 0.51903236 0.0011872167 1000 226
-0.12596974 -0.08676108 0.51811558 0.0011396264 1003 226
-0.12370864 -0.086865425 0.51909596 0.0011786511 979 221
-0.12121519 -0.086807504 0.51908767 0.0012075152 964 217
-0.1187164 -0.086743347 0.51902318 0.0012222723 942 211
-0.11620448 -0.086666748 0.51886588 0.0012054361 921 206
-0.11369712 -0.086590342 0.51869208 0.0012045252 919 206
-0.11107916 -0.086424619 0.51796579 0.0012233263 951 214
-0.1087772 -0.086502858 0.51868546 0.001222332 922 207
-0.10630525 -0.08644639 0.51858211 0.0012069624 908 203
-0.10390716 -0.086448774 0.51881683 0.0012067467 909 203
-0.10144051 -0.086392879 0.51868773 0.0012197811 895 200
-0.098761536 -0.086149067 0.51741612 0.001249726 903 202
-0.096069545 -0.085881487 0.51598775 0.0012237382 930 208
-0.093554564 -0.085762583 0.51543945 0.0012337106 923 207
-0.091311291 -0.085893035 0.51637805 0.0012018651 909 203
-0.088980384 -0.085945837 0.51683891 0.0012292763 903 202
-0.086642519 -0.085994653 0.51726532 0.0012148888 905 202
-0.084110133 -0.085847691 0.51650369 0.0012183371 895 200
-0.081683874 -0.085803635 0.51635122 0.001234043 881 196
-0.079333037 -0.085838541 0.51666486 0.0012892646 856 190
-0.076949157 -0.08583875 0.51676095 0.0012509106 861 191
-0.074573293 -0.08584819 0.51690447 0.0012975816 849 189
-0.072094955 -0.085736409 0.51631004 0.0012359406 878 196
-0.069735855 -0.085763618 0.51654553 0.0012949071 882 197
-0.067354411 -0.085764304 0.51661438 0.0012216548 899 201
-0.06495066 -0.085735597 0.5164997 0.0012417798 871 194
-0.062491328 -0.085628547 0.51590699 0.0012803501 884 197
-0.060040779 -0.085525542 0.51533306 0.0012534235 890 199
-0.05777362 -0.085686043 0.51634169 0.0012045199 918 206
-0.055742886 -0.086226031 0.51963264 0.001238615 876 195
-0.053628579 -0.086679436 0.52239776 0.0013250835 833 185
-0.051365007 -0.086922869 0.52389348 0.0013810879 771 169
-0.047727279 -0.08475019 0.51082283 0.0013306325 827 183
-0.04462529 -0.083352774 0.50242066 0.0012761068 836 185
-0.042126931 -0.082991593 0.50026125 0.0013247275 848 188
-0.039797977 -0.082941659 0.49997509 0.0013545267 814 180
-0.037371669 -0.082670234 0.49835134 0.0013059567 836 185
-0.03509222 -0.082709409 0.4985978 0.0012621789 846 188
-0.032851111 -0.082850769 0.49945843 0.001259557 853 190
-0.030585391 -0.082946666 0.50004345 0.0012816987 826 183
-0.028265361 -0.082898915 0.49976099 0.0012882733 847 188
-0.025978191 -0.082947604 0.50005865 0.0013398117 838 186
-0.023680795 -0.082969956 0.50019658 0.0012842595 826 183
-0.021423493 -0.083152734 0.50130081 0.0013020241 836 185
-0.019109121 -0.083131395 0.50117391 0.0012542197 866 193
-0.016817523 -0.083216913 0.50169057 0.0012952581 866 193
-0.014517472 -0.083281167 0.50207859 0.0012689492 837 186
-0.012193213 -0.083204597 0.50161737 0.0012650638 841 187
-0.0098792305 -0.083178736 0.50146163 0.001264987 845 188
-0.0075732735 -0.083225273 0.5017423 0.0012865732 838 186
-0.0052779568 -0.083481006 0.50328404 0.0012824127 825 183
-0.0029624312 -0.083567381 0.50380468 0.0012940502 840 186
-0.00064237521 -0.083688624 0.50453562 0.0012609976 846 188
0.0016857018 -0.083873868 0.50565243 0.0012933286 808 178
0.0040258877 -0.08409711 0.50699836 0.0013172361 796 175
0.0063641323 -0.084130764 0.50720114 0.0013886987 790 174
0.0086891716 -0.084018648 0.50652522 0.0013573276 794 175
0.011043244 -0.084175304 0.50746965 0.001329144 781 172
0.013397324 -0.084277265 0.50808406 0.0013477531 766 168
0.015710576 -0.084130272 0.50719726 0.0014093466 779 171
0.018002242 -0.083920695 0.50593299 0.0013277308 802 177
0.020311318 -0.083831042 0.50539118 0.0013104064 798 176
0.022640089 -0.083832756 0.50539947 0.001304894 807 178
0.02495658 -0.08379291 0.50515652 0.0012956428 808 178
0.02716081 -0.083415098 0.50287521 0.0013493106 832 184
0.029442659 -0.083316319 0.50227505 0.0012964588 873 194
0.031583682 -0.082862467 0.49953291 0.0012562455 869 193
0.03378319 -0.082613282 0.49802324 0.0012541988 887 198
0.035959378 -0.082342379 0.49638093 0.0012554608 885 197
0.038184505 -0.082209252 0.49556723 0.0012306176 889 198
0.040452834 -0.082178913 0.49537095 0.0012223853 894 200
0.042703431 -0.082117707 0.49498612 0.0012364164 872 194
0.044953573 -0.082061872 0.4946309 0.0012619057 862 192
0.047306664 -0.082190305 0.49538332 0.001316919 844 187
0.049495216 -0.0820342 0.49441737 0.0012654498 888 198
0.05165923 -0.08185295 0.49329627 0.0012161068 899 201
0.053866338 -0.081752382 0.49265748 0.0013252876 861 191
0.056042671 -0.081615128 0.49179336 0.0012902992 850 189
0.05818148 -0.081436038 0.49067256 0.0012775923 837 186
0.060144972 -0.081034131 0.48820445 0.0012906076 828 183
0.062593721 -0.081291437 0.48970252 0.0013000628 810 179
0.064909913 -0.081364654 0.49008575 0.0013240274 822 182
0.067008615 -0.081169508 0.48884618 0.0012766902 862 192
0.069044277 -0.080913186 0.48723194 0.0012232091 900 201
0.071113884 -0.080711536 0.48594037 0.0012261258 897 200
0.07323426 -0.080578074 0.48505211 0.0012155133 904 202
0.075342551 -0.08043965 0.48412639 0.0012859821 898 201
0.077584885 -0.080448166 0.48407683 0.0011787785 947 213
0.079980269 -0.080610462 0.48494357 0.0011655563 970 218
0.082115062 -0.080508426 0.48421073 0.0011546455 983 222
0.084633417 -0.080777898 0.48570231 0.0011983527 923 207
0.086861819 -0.080763847 0.48547837 0.0011771236 945 212
0.08899866 -0.080667511 0.4847492 0.0011699167 956 215
0.091064148 -0.080512837 0.4836587 0.0011980725 961 216
0.093324535 -0.080533735 0.48361132 0.0012192274 958 215
0.095809013 -0.080742523 0.48467937 0.0011874149 941 211
0.098549686 -0.081152722 0.48694208 0.0011957935 933 209
0.10065671 -0.081034482 0.4860197 0.001241784 922 207
0.10351001 -0.081509039 0.48863778 0.0012485945 861 191
0.10587453 -0.081586629 0.48885983 0.0012364517 878 196
0.10763285 -0.081203632 0.48630768 0.0012294464 891 199
0.11078529 -0.081866577 0.49000257 0.0012271927 887 198
0.1140646 -0.0825947 0.49406621 0.0012718837 834 185
0.11704766 -0.083083831 0.49667868 0.0013477716 789 174
0.11961799 -0.083266757 0.49743989 0.0013709626 793 175
0.12208349 -0.08337114 0.49771219 0.0013336856 812 179
0.12459262 -0.083500884 0.49811548 0.0013752962 762 167
0.12908448 -0.084930427 0.50624532 0.0015699057 585 124
0.13060391 -0.084388033 0.5025962 0.0016306201 564 118
0.13270159 -0.084231846 0.50122905 0.00173576 572 120
0.13453886 -0.083918609 0.49890804 0.0016310455 562 118
0.13642181 -0.083644062 0.4967975 0.0016768957 547 114
0.13621321 -0.082117766 0.48724005 0.0017797966 548 114
0.13737385 -0.081453644 0.48278806 0.0016477817 551 115
0.13808854 -0.080550887 0.47690818 0.0017543789 551 115
0.13852265 -0.079515859 0.47023404 0.0017719177 562 118
nan nan nan 0 617 131
nan nan nan 0 772 170
0.11785867 -0.064566031 0.3803744 0.0011522736 1018 230
0.11870839 -0.064056896 0.37685415 0.0011545004 986 222
nan nan nan 0 312 56
0.15760466 -0.08257091 0.48434946 0.0063191699 114 8
0.16244695 -0.083887205 0.49130434 0.002064009 422 83
0.16508865 -0.084045947 0.49143761 0.0016041752 575 121
0.16798125 -0.08432623 0.49224827 0.0016746117 587 124
0.17101365 -0.084668018 0.49338248 0.0015327343 618 132
0.17370823 -0.084835537 0.49346671 0.0015634028 595 126
0.17630571 -0.084951788 0.49322054 0.0015445184 606 129
0.17878295 -0.085007802 0.49259382 0.0015409306 605 128
0.18151212 -0.085180588 0.49261266 0.0015941112 603 128
0.18468776 -0.085555755 0.4937675 0.0016444313 595 126
0.187353 -0.085687935 0.49348697 0.0015622794 619 132
0.19017002 -0.085885353 0.49355212 0.0015554252 605 128
0.19261861 -0.085913561 0.49261764 0.0015230435 619 132
0.19529682 -0.086042233 0.49223441 0.0015468621 610 130
0.19838995 -0.086348385 0.49284029 0.001552309 596 126
0.20067622 -0.086300239 0.4914026 0.0015528171 606 129
0.20327151 -0.086384557 0.4907037 0.001659826 603 128
0.20577314 -0.086427569 0.48975718 0.0015617597 596 126
0.20894501 -0.086747833 0.49036923 0.0015996464 577 122
0.21167462 -0.086879298 0.48990503 0.0015980131 576 121
0.21407543 -0.086874366 0.48867217 0.001732445 564 118
0.21683054 -0.087011717 0.48824576 0.0017710112 545 114
0.22016065 -0.087374248 0.4890902 0.0017097424 544 113
0.22346187 -0.087717511 0.48983821 0.00167326 554 116
0.22585709 -0.087701589 0.4886038 0.0017536153 517 107
0.22868593 -0.087852567 0.48833299 0.0018299747 504 104
0.23130065 -0.087918989 0.48763233 0.0019089128 477 97
0.23372369 -0.087911904 0.48657399 0.0018856575 445 89
0.23666999 -0.088099763 0.48665079 0.0018671619 446 89
0.24004249 -0.088440813 0.48763388 0.0018909833 447 90
0.2433411 -0.088747986 0.48849681 0.0019676788 416 82
0.24556506 -0.088661 0.48726743 0.0019746274 426 84
0.24809992 -0.088686891 0.48674417 0.0021717111 388 75
0.25047877 -0.088657044 0.48600513 0.0021362572 379 73
0.25309893 -0.088712357 0.48582685 0.0022591802 359 68
0.25553691 -0.088703364 0.48539352 0.0023807674 348 65
0.25690651 -0.088327207 0.48305172 0.0023166568 326 60
-0.3184579 -0.094250888 0.53591561 0.0043049576 142 15
-0.31840923 -0.095040038 0.5393911 0.0038700202 164 20
-0.31542635 -0.094959415 0.53800303 0.003758942 169 21
-0.31281152 -0.094989128 0.53732508 0.0036461235 179 24
-0.31042531 -0.095089413 0.53713316 0.0036044898 174 22
-0.30817097 -0.095232211 0.53727174 0.0034377989 190 26
-0.30522782 -0.095162801 0.53630841 0.0036429621 198 28
-0.3025417 -0.095173001 0.53589362 0.0035798899 209 31
-0.30060136 -0.095420115 0.53691465 0.0031528869 216 33
-0.29879066 -0.09571328 0.53829902 0.0030249835 230 36
-0.29476297 -0.095295124 0.53579175 0.0027999009 252 42
-0.29209125 -0.095311649 0.5358398 0.0028105632 256 43
-0.28959009 -0.095384642 0.53631723 0.0027884671 265 45
-0.28657091 -0.095286794 0.53594655 0.0026464288 276 47
-0.28332052 -0.095109425 0.53524023 0.0025447095 289 51
-0.279778 -0.094829641 0.53406662 0.002767863 289 51
-0.27693319 -0.09478315 0.53431374 0.002541583 298 53
-0.27401793 -0.094711415 0.53452289 0.0024832578 297 53
-0.27035245 -0.094376348 0.53334349 0.0026551187 320 58
-0.2669259 -0.094118781 0.53269255 0.002255077 337 63
-0.26170897 -0.093218252 0.52848053 0.0023549676 336 62
-0.25857046 -0.093047142 0.52847439 0.0023055396 360 68
nan nan nan 0 506 104
-0.19166347 -0.070418313 0.4015705 0.001176525 983 222
-0.19068754 -0.070802875 0.40464622 0.0011862931 994 224
nan nan nan 0 763 167
-0.20696871 -0.078513734 0.45078862 0.0013924032 732 160
-0.20745538 -0.079560556 0.45789459 0.0013821166 734 160
-0.20772603 -0.080546811 0.46470103 0.0014722971 674 145
-0.20938864 -0.082100928 0.47483429 0.0014846803 683 148
-0.20676769 -0.081991658 0.47537667 0.0014256707 697 151
-0.2067591 -0.082927652 0.4819943 0.001489784 702 152
-0.20472445 -0.083063327 0.48397377 0.0014493377 683 148
-0.20546588 -0.08434172 0.49262485 0.0014615805 684 148
-0.20389141 -0.084688529 0.49584702 0.001481783 696 151
-0.20212078 -0.084961198 0.49862918 0.0014868183 710 154
-0.20027137 -0.085206993 0.50124288 0.0014455867 708 154
-0.19905673 -0.085732214 0.50549018 0.0014091672 713 155
-0.19740821 -0.086081326 0.50868767 0.0013951733 718 156
-0.19559373 -0.086365975 0.51148736 0.0014098533 718 156
-0.1938199 -0.086676054 0.51441842 0.0013983934 714 155
-0.19335559 -0.087587364 0.5209046 0.0014142313 722 157
-0.19117589 -0.08773534 0.52283442 0.00145854 734 160
-0.18884838 -0.087818496 0.52435046 0.0013785857 737 161
-0.18632247 -0.087810405 0.52529144 0.0013808511 736 161
-0.18352593 -0.087672807 0.5254249 0.0013848457 721 157
-0.18035513 -0.087350145 0.52441281 0.0014273268 683 148
-0.17711589 -0.086984798 0.52310604 0.0016126978 629 134
-0.17239074 -0.085868932 0.51724005 0.0011541898 987 223
-0.16964698 -0.085722037 0.51716775 0.0011440946 1080 245
-0.1670354 -0.085638605 0.51744604 0.0010889814 1082 246
-0.16456757 -0.085627496 0.51813072 0.0010703825 1115 254
-0.16213827 -0.08563637 0.51890689 0.0010794216 1096 249
-0.15939033 -0.08547467 0.5186193 0.0011028325 1061 241
-0.15727109 -0.085650325 0.52035028 0.0011264721 1030 233
-0.15450522 -0.085473806 0.51991415 0.0011272174 1021 231
-0.151943 -0.08540611 0.52011085 0.0011292886 1022 231
-0.14922504 -0.085247196 0.51972401 0.0010996443 1075 244
-0.1470505 -0.085398622 0.5212031 0.0011005473 1065 242
-0.14424671 -0.085183568 0.52042007 0.0011234781 1036 235
-0.14148918 -0.084988892 0.51973438 0.0011959918 1019 230
-0.13882649 -0.084845394 0.51933587 0.0011530021 979 221
-0.13622753 -0.084736466 0.51912439 0.0011334558 1012 229
-0.13401173 -0.084866203 0.52035272 0.001142354 997 225
-0.13164075 -0.084900655 0.52097595 0.0011735966 983 222
-0.12850118 -0.084431395 0.51848501 0.001182286 983 222
-0.12612237 -0.084453605 0.5189898 0.0011724951 950 213
-0.12394232 -0.084612347 0.52031469 0.0011732804 956 215
-0.12130131 -0.084456503 0.51968575 0.0012081092 959 216
-0.11879771 -0.084391914 0.51959926 0.0011878597 934 209
-0.11639173 -0.084395446 0.51991427 0.0012018725 918 206
-0.11362787 -0.084134132 0.5185796 0.0012258278 935 210
-0.11106279 -0.084011897 0.51808459 0.0011724452 960 216
-0.10860705 -0.083968803 0.51806134 0.0012289425 925 207
-0.10643337 -0.084146738 0.51938689 0.0012099741 902 202
-0.10391062 -0.084050566 0.51900613 0.0012386289 909 203
-0.10133408 -0.083905287 0.51830769 0.0012698965 890 199
-0.098751813 -0.083748132 0.51752168 0.0011973083 924 207
-0.096047185 -0.083476797 0.51601648 0.0011956719 927 208
-0.093679361 -0.083491847 0.51626879 0.0012796931 899 201
-0.091311283 -0.083507441 0.51651287 0.0012211865 892 199
-0.089067526 -0.083640613 0.51747346 0.0012220199 891 199
-0.086729802 -0.083690464 0.5179081 0.0012521695 887 198
-0.084243253 -0.083595477 0.51743633 0.0012711867 892 199
-0.081804551 -0.083543792 0.51722294 0.0012492862 852 189
-0.079477675 -0.083606623 0.51770949 0.0012881813 819 181
-0.077062279 -0.083577357 0.51761723 0.0012726733 842 187
-0.074566998 -0.083456807 0.51695138 0.0012590287 853 190
-0.072152168 -0.083421312 0.51680458 0.0012460955 869 193
-0.069721483 -0.083364442 0.51651824 0.0012536857 870 194
-0.067322135 -0.083342344 0.51644063 0.0012238295 901 201
-0.064841047 -0.083213724 0.51569641 0.0012763306 897 200
-0.062481992 -0.083237879 0.51589334 0.0012552523 887 198
-0.060295038 -0.083502285 0.51757401 0.0012902806 877 195
-0.057784092 -0.083321296 0.51648897 0.0012120303 910 204
-0.055575386 -0.083579294 0.51812059 0.0012005914 908 203
-0.053518817 -0.084099539 0.52137381 0.0013282548 828 183
-0.051216945 -0.084265083 0.5224244 0.0013444657 785 173
-0.047632974 -0.082233541 0.50984955 0.0013577021 814 180
-0.044520989 -0.080848321 0.50127804 0.0013199671 848 188
-0.042163163 -0.080755986 0.50071949 0.0012818871 825 183
-0.039841436 -0.080726117 0.50054574 0.0013062716 807 178
-0.037455432 -0.080554321 0.49948975 0.0012763821 830 184
-0.035124723 -0.080486722 0.49907798 0.001284412 829 184
-0.032859705 -0.080570742 0.49960458 0.0012695969 841 187
-0.030623915 -0.080744483 0.50068611 0.0013314309 810 179
-0.028324187 -0.080764234 0.5008114 0.0012855462 838 186
-0.026012886 -0.080751531 0.50073463 0.001278237 833 185
-0.02373893 -0.080863588 0.50143045 0.0013523393 822 182
-0.021456866 -0.080969192 0.5020858 0.0012864211 826 183
-0.01913658 -0.08093866 0.50189638 0.0012677788 839 186
-0.016821655 -0.080925532 0.5018146 0.0012625023 859 191
-0.014527572 -0.08102446 0.5024274 0.0012969702 834 185
-0.012230684 -0.081142277 0.50315726 0.0012732145 830 184
-0.0099016232 -0.081051841 0.5025956 0.0013189516 841 187
-0.0075856871 -0.081046425 0.50256133 0.0012911411 849 189
-0.005304487 -0.081570387 0.50580984 0.0013099333 812 179
-0.002981605 -0.081772245 0.50706118 0.0013102166 812 179
-0.00064445962 -0.081628278 0.50616825 0.0012981215 819 181
0.0016911727 -0.081809014 0.50728899 0.0013346327 795 175
0.0040347339 -0.081941061 0.50810814 0.0013306985 779 171
0.0063675367 -0.081837878 0.50746876 0.0013334375 781 172
0.0086939977 -0.081730485 0.50680345 0.0013605166 764 168
0.011017184 -0.081644304 0.50626975 0.0013585532 772 170
0.01336905 -0.081763633 0.50701052 0.0013437514 765 168
0.015670765 -0.081586383 0.50591213 0.0013301092 781 172
0.017889947 -0.081080966 0.50277865 0.0013228517 784 173
0.020299105 -0.081453726 0.50509042 0.0013489203 801 177
0.022593334 -0.081336074 0.50436074 0.0013143504 793 175
0.024794003 -0.080934964 0.50187272 0.0012853795 825 183
0.027117798 -0.080969907 0.50208801 0.0012844887 825 183
0.029297119 -0.080601893 0.49980357 0.0012924771 852 189
0.03154714 -0.08046785 0.4989689 0.0012391022 879 196
0.033818435 -0.080402583 0.49855945 0.0012460669 862 192
0.036026943 -0.080205843 0.4973332 0.0012437659 876 195
0.03821408 -0.079987884 0.49597371 0.0012547909 868 193
0.040439513 -0.079870179 0.49523368 0.001239056 873 194
0.042666253 -0.079767473 0.49458447 0.0012471759 870 194
0.044969868 -0.079811633 0.49484321 0.0012994985 866 193
0.047316179 -0.07992363 0.49551967 0.001290989 850 189
0.049580671 -0.079893485 0.49531162 0.0012495216 859 191
0.051588096 -0.079469994 0.49266157 0.0012286116 883 197
0.053880136 -0.079502158 0.49283248 0.0012986026 864 192
0.056123376 -0.079462633 0.4925549 0.0012569048 845 188
0.058344711 -0.079396367 0.492107 0.0013100705 835 185
0.060408998 -0.079129346 0.49041 0.0012891061 843 187
0.06274271 -0.079221778 0.49093553 0.0013507727 822 182
0.064976186 -0.079185605 0.49065843 0.0013238845 833 185
0.067123316 -0.079050191 0.4897604 0.0012638246 873 194
0.069184564 -0.078825749 0.48830453 0.0012391713 880 196
0.071273595 -0.078646101 0.48711956 0.0012611666 887 198
0.073405497 -0.078523301 0.48627961 0.0012355457 884 197
0.075774409 -0.078653798 0.48700047 0.0012220917 889 198
0.078192428 -0.078826264 0.4879728 0.0012384275 941 211
0.080337115 -0.07872127 0.48721844 0.0012019806 952 214
0.082480587 -0.078620814 0.48648337 0.0012124584 953 214
0.084827617 -0.078714587 0.48694044 0.0011952027 937 210
0.087039389 -0.078681238 0.48660088 0.0011896588 935 210
0.089135014 -0.078547224 0.48562825 0.0012552339 927 208
0.091293968 -0.078474231 0.48502219 0.0011958062 928 208
0.093597524 -0.078526042 0.48517579 0.0012057956 931 209
0.095845245 -0.078529686 0.48501948 0.0011755617 953 214
0.098037675 -0.078488894 0.48457599 0.0012361485 918 206
0.10024437 -0.078461096 0.48419955 0.0012092285 915 205
0.10296249 -0.078826047 0.4862321 0.0012936506 889 198
0.10516351 -0.078787975 0.48576325 0.0012230007 899 201
0.10725579 -0.078671716 0.48479769 0.0012086042 914 205
0.10957751 -0.078725092 0.484862 0.0012241168 895 200
0.11311731 -0.079633839 0.4901748 0.0012723936 854 190
0.11565544 -0.079815492 0.49099109 0.0012632426 846 188
0.11927666 -0.080723114 0.49625134 0.0012984423 808 178
0.12173239 -0.080822498 0.49652037 0.0013716251 759 166
0.12485297 -0.081351392 0.49940598 0.0014246746 712 155
0.12836188 -0.082109354 0.503672 0.0016785818 563 118
0.13035551 -0.081888214 0.50190896 0.0016062591 577 122
0.13259473 -0.081826456 0.50110275 0.001679818 578 122
0.1347401 -0.081709892 0.49994001 0.001625533 556 116
0.13549666 -0.080769457 0.49371988 0.0016461856 554 116
0.13674285 -0.08014746 0.4894326 0.0016409616 561 118
0.13629553 -0.078569733 0.47929931 0.0016481404 557 117
0.13777991 -0.078138635 0.47615033 0.0016650029 547 114
0.1373785 -0.076668866 0.46666101 0.0016597328 552 115
nan nan nan 0 630 135
nan nan nan 0 781 172
0.1172811 -0.062465169 0.37878498 0.0011241253 1042 236
0.11752483 -0.061656855 0.37337482 0.001108337 1061 241
nan nan nan 0 279 48
0.1569479 -0.079943068 0.48270956 0.0056538428 118 9
0.16220675 -0.081436738 0.49097258 0.0020589915 426 84
0.16514166 -0.081737906 0.4920004 0.0015795156 582 123
0.16807939 -0.08203207 0.49295115 0.0016507566 589 125
0.17086817 -0.082246438 0.49338779 0.0015370253 614 131
0.17355224 -0.082405262 0.49345782 0.0015806757 611 130
0.17609781 -0.082494974 0.49308184 0.0015551866 598 127
0.17875494 -0.082633868 0.49296793 0.0015637579 592 125
0.18142097 -0.082773194 0.49282444 0.0015852355 587 124
0.18436708 -0.083035104 0.49337766 0.0015865726 593 126
0.18729922 -0.083284147 0.4938204 0.0015676281 596 126
0.18970527 -0.083295919 0.49282655 0.0015166542 618 132
0.19236685 -0.083418228 0.49245968 0.0015408614 617 131
0.19518907 -0.083606362 0.4924536 0.0015702719 608 129
0.19829129 -0.083908401 0.49309024 0.001552296 607 129
0.20096701 -0.084024929 0.4926118 0.0016086888 583 123
0.20293809 -0.083847567 0.49039507 0.00165712 596 126
0.2057592 -0.084021442 0.4902195 0.0016759096 585 124
0.20878039 -0.084272072 0.49047679 0.0015758035 589 125
0.21139851 -0.084356152 0.48975518 0.0016177738 584 123
0.21397848 -0.084423274 0.48893335 0.001651393 550 115
0.2170288 -0.084672421 0.48916686 0.0016467121 557 117
0.22011204 -0.084928766 0.4894467 0.0017224395 541 113
0.22271042 -0.084994473 0.48864168 0.0016654517 540 112
0.22568558 -0.085201032 0.48866811 0.0016795255 527 109
0.2285156 -0.085348949 0.48838645 0.0017911537 519 107
0.23139045 -0.085510321 0.48821804 0.0017708006 485 99
0.23403899 -0.085585557 0.48760322 0.0017914574 478 97
0.23697552 -0.085763469 0.48762637 0.0018287795 468 95
0.24042904 -0.08612293 0.48873949 0.0019687496 448 90
0.24289523 -0.086125009 0.48789164 0.0019061061 443 89
0.24491474 -0.085970268 0.48623461 0.0021329548 429 85
0.24761255 -0.086054333 0.48601249 0.0020243241 412 81
0.2506232 -0.086244375 0.48647597 0.0021697532 387 75
0.25334522 -0.086332403 0.48645559 0.0021587366 364 69
0.25560039 -0.086261146 0.48563468 0.0022353684 365 69
0.25741699 -0.086044654 0.48409668 0.0022741291 337 63
-0.31841457 -0.091545947 0.53554165 0.004029931 156 18
-0.31774387 -0.092132092 0.53798169 0.0039419597 164 20
-0.31550688 -0.092270233 0.53787994 0.0042158617 168 21
-0.31273717 -0.092253618 0.5369606 0.0037162025 176 23
-0.31084442 -0.092497692 0.53764647 0.0034323311 190 26
-0.30739993 -0.092280231 0.53574306 0.0036948978 191 27
-0.30525243 -0.092451721 0.53619546 0.0031257183 212 32
-0.30295688 -0.092581041 0.53650284 0.0034318394 207 31
-0.30089903 -0.092786022 0.53735185 0.003088824 218 33
-0.29813948 -0.09277638 0.53706461 0.0030214372 225 35
-0.29414886 -0.09237995 0.53464913 0.0029948999 234 37
-0.29135165 -0.092354409 0.53449219 0.0027249313 263 44
-0.28928041 -0.092560686 0.53578973 0.0028512522 248 41
-0.28686962 -0.092661195 0.53658861 0.0027091305 270 46
-0.2832762 -0.092377976 0.53527749 0.0028729124 281 49
-0.27965063 -0.092078671 0.53398174 0.0025124981 292 51
-0.27633226 -0.091875665 0.53334975 0.0026497038 296 52
-0.27341166 -0.091802195 0.53357232 0.0023893602 312 56
-0.27022845 -0.091638215 0.53336632 0.0024194769 321 59
-0.26647612 -0.091276012 0.53209585 0.0022671968 336 62
-0.26243082 -0.090805039 0.53026986 0.0023074134 340 63
-0.25788364 -0.090148941 0.52743036 0.0021699083 364 69
nan nan nan 0 597 127
-0.19162863 -0.068394229 0.40181139 0.0011186261 1050 238
-0.19342726 -0.069768451 0.41079813 0.0011485878 985 222
nan nan nan 0 761 167
-0.20912094 -0.077063955 0.45588279 0.00141984 700 152
-0.20713876 -0.077169769 0.45761582 0.0014000195 728 159
-0.20890361 -0.078689374 0.46777493 0.0014407634 683 148
-0.20862986 -0.079466522 0.47356671 0.0014291187 706 153
-0.20713484 -0.079790816 0.47668272 0.0014195866 705 153
-0.2066973 -0.080534577 0.48232174 0.0014426131 687 149
-0.20470111 -0.080681235 0.48439419 0.0014175844 701 152
-0.20439243 -0.081504263 0.4905335 0.0014532175 678 146
-0.20436841 -0.082461677 0.49749526 0.0014459826 707 154
-0.20231515 -0.082613461 0.49959657 0.0014221503 700 152
-0.20069885 -0.082949549 0.50280023 0.0014134261 710 154
-0.19923398 -0.083357245 0.50642663 0.0014169257 704 153
-0.19727644 -0.083566412 0.50883114 0.0014450182 721 157
-0.19600113 -0.084073484 0.51303315 0.0014304374 700 152
-0.19436333 -0.084436044 0.5163371 0.0014038236 715 156
-0.1921235 -0.084543072 0.51805538 0.0013976085 730 159
-0.19111392 -0.085201368 0.52313125 0.0013833187 731 159
-0.18913516 -0.085439332 0.52560633 0.0014444462 740 162
-0.18629396 -0.08528886 0.52566141 0.0013706486 742 162
-0.18348098 -0.085147388 0.52573711 0.0013884089 722 157
-0.18064389 -0.084990658 0.52568352 0.0014974469 664 143
-0.17711844 -0.08450111 0.52353311 0.0014624485 674 145
-0.17239922 -0.083420008 0.51767039 0.0011422263 1025 232
-0.16962776 -0.083263762 0.51750398 0.0010983284 1081 246
-0.16697203 -0.083160579 0.51763475 0.0010889774 1109 253
-0.16456084 -0.083177939 0.51848495 0.0010682179 1107 252
-0.1618993 -0.083067372 0.5185076 0.0010855499 1089 248
-0.15947606 -0.083077565 0.51925439 0.0010989936 1062 241
-0.15681943 -0.082964592 0.51920205 0.0011060293 1048 238
-0.15459262 -0.08307904 0.5205453 0.0011463853 1056 239
-0.15163578 -0.082798541 0.5193857 0.0011036367 1067 242
-0.14918214 -0.082788125 0.51989168 0.0011082747 1053 239
-0.14702074 -0.08294224 0.52140594 0.0011198473 1023 231
-0.14446175 -0.082873479 0.52149457 0.001135749 1012 229
-0.14140105 -0.082509577 0.51969892 0.001125109 1027 232
-0.13889635 -0.082463086 0.51987624 0.0011715447 982 221
-0.13646811 -0.082461141 0.52031112 0.001177034 980 221
-0.13383292 -0.082331814 0.5199191 0.001163313 969 218
-0.13139772 -0.082323022 0.520266 0.0011816429 977 220
-0.12895326 -0.082307979 0.52055216 0.0011672421 960 216
-0.12646168 -0.082261726 0.52062041 0.0011816638 949 213
-0.12391524 -0.082177266 0.52042657 0.0011647738 971 219
-0.12113654 -0.081932366 0.51919639 0.0012042271 915 205
-0.11885072 -0.082017653 0.52003974 0.0012184149 910 204
-0.11644635 -0.08202298 0.5203588 0.0012071399 917 205
-0.11392204 -0.081942253 0.5201146 0.0011759422 943 212
-0.11124652 -0.081746906 0.51912576 0.0011836208 945 212
-0.10875729 -0.081682883 0.51895416 0.0012634337 937 210
-0.10630897 -0.081647359 0.51894844 0.0012797639 903 202
-0.10395004 -0.081680439 0.51936418 0.0012206314 896 200
-0.10134043 -0.081513464 0.51849377 0.0012982984 897 200
-0.09848208 -0.081133455 0.51625377 0.0011995661 927 208
-0.096338972 -0.08133845 0.51772314 0.0012488308 898 201
-0.093854673 -0.081258498 0.51736689 0.0012301129 886 198
-0.091443971 -0.081239752 0.5173887 0.0012245362 884 197
-0.089067832 -0.081251524 0.5175938 0.0012828811 874 195
-0.086660072 -0.081234314 0.51760393 0.0012197632 890 199
-0.084228784 -0.081193432 0.51745319 0.0012755604 880 196
-0.081825554 -0.081178002 0.51745516 0.0012656102 851 189
-0.079470165 -0.081210546 0.51775396 0.0012545845 861 191
-0.07710465 -0.081234433 0.5179894 0.0012780074 833 185
-0.074553013 -0.081057489 0.51693612 0.0013379051 842 187
-0.07204625 -0.080919251 0.51612192 0.0012599633 854 190
-0.069669187 -0.080922216 0.51620138 0.0012772034 862 192
-0.067261092 -0.080888078 0.51603746 0.0012284914 882 197
-0.06490761 -0.080919527 0.51628602 0.0012307593 877 195
-0.062705062 -0.081148691 0.51779044 0.0012437311 881 196
-0.060327012 -0.081159882 0.51789898 0.0012957363 865 192
-0.057881512 -0.081077516 0.51740557 0.0012848892 894 200
-0.055534389 -0.081131771 0.51777965 0.0012548778 892 199
-0.053425159 -0.08155407 0.52049857 0.0012812866 821 182
-0.051113654 -0.081692778 0.52140385 0.0013506992 795 175
-0.047480553 -0.079628736 0.50824642 0.0013094299 801 177
-0.044684738 -0.078827597 0.50314623 0.00131479 813 180
-0.042161331 -0.078445613 0.50071853 0.0013017373 813 180
-0.039749153 -0.078238353 0.49940372 0.001310777 797 176
-0.037464913 -0.078272909 0.49963045 0.0013300473 808 178
-0.035150606 -0.078245066 0.499457 0.0012868092 823 182
-0.032882858 -0.078324214 0.49996501 0.0012998253 828 183
-0.030582529 -0.078331843 0.50001526 0.0013145024 828 183
-0.028320961 -0.07844808 0.50075787 0.001288933 818 181
-0.025996888 -0.07839644 0.50042784 0.001272774 841 187
-0.023758711 -0.078618981 0.50184733 0.0012808758 836 185
-0.021479679 -0.078739762 0.50261688 0.0012913824 818 181
-0.01919926 -0.078883998 0.50353581 0.0013028081 801 177
-0.016851004 -0.078750886 0.50268412 0.001284179 823 182
-0.014534665 -0.078748249 0.5026654 0.001321431 798 176
-0.012229803 -0.078818589 0.50311255 0.0013478374 813 180
-0.0099237803 -0.078912601 0.50371093 0.0013414435 836 185
-0.0076299398 -0.079190448 0.50548291 0.0012808689 828 183
-0.0053253225 -0.079551399 0.50778592 0.0013171907 789 174
-0.0029868353 -0.079575583 0.50793958 0.0013305048 802 177
-0.00064502406 -0.079365849 0.50660038 0.0013705605 802 177
0.0016926767 -0.079542644 0.50772905 0.001399822 800 176
0.0040401686 -0.079707459 0.50878161 0.0013522666 763 167
0.0063627842 -0.079440661 0.50707948 0.0013425139 769 169
0.0086783329 -0.07925263 0.50588053 0.0013827313 775 170
0.0110237 -0.079358868 0.50656021 0.0014400186 753 165
0.013318777 -0.079129204 0.50509608 0.001424767 753 165
0.015551329 -0.078651622 0.50204957 0.0013267288 786 173
0.017902615 -0.078820489 0.5031293 0.0013201197 783 172
0.020179465 -0.078660458 0.50210971 0.0013214131 802 177
0.022487646 -0.07864292 0.50199944 0.0013609362 811 179
0.024830833 -0.078739658 0.50261819 0.001352946 824 182
0.027114639 -0.078647673 0.50203174 0.0012763415 825 183
0.029365132 -0.0784811 0.5009684 0.001264996 847 188
0.031493682 -0.078036644 0.49813041 0.0012566296 863 192
0.033921938 -0.078344747 0.50009507 0.0012896495 868 193
0.036040373 -0.077943623 0.49753109 0.0012348362 881 196
0.038269173 -0.077814892 0.49670428 0.0012466073 864 192
0.040436935 -0.077583559 0.49522078 0.0012348001 879 196
0.042694073 -0.077539258 0.49492896 0.0012611287 868 193
0.045006476 -0.077594742 0.49527162 0.0012380962 883 197
0.04731866 -0.077644512 0.49557498 0.0013062876 863 192
0.049573526 -0.077599972 0.49527344 0.0012557381 850 189
0.051699881 -0.077367038 0.49376622 0.001255828 851 189
0.053829111 -0.07715787 0.49240705 0.0012550242 858 191
0.056130826 -0.077202857 0.49266586 0.0013020566 847 188
0.058335364 -0.077115886 0.49207816 0.0012533397 849 189
0.060661498 -0.077190138 0.49251449 0.0012802659 833 185
0.062752657 -0.076970838 0.49107274 0.0012636007 851 189
