# .PCD v0.7 - Point Cloud Data file format
VERSION 0.7
FIELDS x y z noise intensity gray
SIZE 4 4 4 4 2 1
TYPE F F F F U U
COUNT 1 1 1 1 1 1
WIDTH 871
HEIGHT 1
VIEWPOINT 0 0 0 1 0 0 0
POINTS 871
DATA ascii
-0.021918925 0.066148505 0.51276034 0.0011444769 998 209
-0.019551378 0.066132724 0.51262647 0.0011500521 981 205
-0.01721999 0.066251703 0.51353818 0.0012179279 943 197
-0.014774914 0.065901518 0.51081431 0.0011692808 958 200
-0.012400381 0.065792859 0.50996399 0.0011446635 991 208
-0.010048521 0.065781824 0.50987148 0.0011504061 986 206
-0.0077030482 0.06581863 0.51015103 0.0011655692 997 209
-0.0053763366 0.066118486 0.51247114 0.0011852132 961 201
-0.0029963425 0.065719545 0.50937629 0.0011477739 990 207
-0.00065259892 0.066105656 0.51236773 0.0011707329 961 201
0.001722425 0.066634759 0.51646894 0.0012529872 884 184
0.0041923248 0.068090871 0.52775693 0.0013171304 831 172
0.0068349834 0.070253447 0.54452211 0.001402873 793 163
0.0093969814 0.070648059 0.54758596 0.0012938599 814 168
0.011868876 0.070341595 0.5452171 0.0012224937 917 191
0.014351507 0.070194729 0.54408681 0.0011731848 956 200
0.016788369 0.069900982 0.54181927 0.0011724259 1027 216
0.019215161 0.069646798 0.53985953 0.0011264993 1019 214
0.021653287 0.069487266 0.53863436 0.0011290055 1016 213
0.024102682 0.069392987 0.537916 0.0011647783 1040 219
0.026488215 0.069149569 0.53604209 0.0010959319 1066 224
0.028923791 0.069067188 0.53541702 0.0010792396 1096 231
0.031402685 0.069093056 0.53563136 0.0010571609 1136 240
0.033853304 0.069057472 0.53536952 0.0010819343 1137 240
0.036301665 0.069022439 0.53511161 0.0010844215 1091 230
0.038991906 0.069422513 0.5382266 0.001171014 961 201
0.041432459 0.069356769 0.53772968 0.0013185153 885 184
0.043184616 0.068211101 0.52885872 0.0012701902 917 191
0.045307525 0.067742154 0.52523303 0.0012023085 981 205
0.047576278 0.067527756 0.5235793 0.0011487976 989 207
0.049904216 0.067414008 0.52270401 0.0011701096 961 201
0.052336048 0.067444608 0.52294558 0.0011608223 972 203
0.054408606 0.067029901 0.51973194 0.00120214 970 203
0.056821398 0.067051642 0.51989937 0.0011443025 1000 210
0.059122279 0.066944912 0.51906735 0.001168477 1013 213
0.06115843 0.066558391 0.51606208 0.0011779473 1031 217
0.063483641 0.066503584 0.51562482 0.0011298006 1013 213
0.06591972 0.066564701 0.51608181 0.0011524471 982 206
0.068478651 0.06674128 0.51742893 0.0011657194 967 202
0.071032673 0.066901371 0.5186426 0.0011676033 973 204
0.073474973 0.066949241 0.51898038 0.0011818248 939 196
0.077250883 0.068170935 0.52841032 0.0012050899 921 192
0.079969414 0.068413399 0.53024209 0.0012176844 906 189
0.084920973 0.070495166 0.5463202 0.0012481237 865 179
0.089721993 0.072335668 0.56051689 0.0012591076 904 188
0.092684269 0.072632194 0.56273854 0.0011144938 1038 218
0.095560513 0.072846986 0.56431663 0.0011693928 956 200
0.097963162 0.072698928 0.56307369 0.0012101054 903 188
0.099396542 0.07185781 0.55645341 0.0011496823 993 208
0.10108553 0.071239159 0.55154669 0.0010869177 1081 228
0.10315481 0.070912324 0.54888934 0.001061947 1130 239
0.10653292 0.071479328 0.55313766 0.0010791828 1095 231
0.10959224 0.071810901 0.5555492 0.0011180843 1039 218
0.11308274 0.072403379 0.55996346 0.0011388715 1040 219
0.11570732 0.072427332 0.55996478 0.0010513058 1182 250
0.11808967 0.072301939 0.55879658 0.001039529 1249 255
0.12016289 0.071996681 0.55622375 0.00098465476 1289 255
0.12299811 0.072151221 0.55718714 0.00098154799 1288 255
0.12570885 0.072227895 0.55753136 0.001010594 1225 255
0.12814152 0.072144918 0.55662555 0.0010805678 1194 253
0.13057034 0.072063096 0.55571061 0.0010818043 1106 233
0.13117252 0.070995793 0.54718202 0.0010503626 1152 244
0.13309288 0.070668891 0.54434603 0.0011462865 1013 213
0.13777377 0.07179264 0.55266011 0.0013313809 774 159
0.14110135 0.072183006 0.55530006 0.0014692814 723 147
0.14351477 0.07210011 0.55427551 0.0014608615 676 137
0.14506762 0.071595423 0.54998893 0.0015194806 656 132
0.14613339 0.070871972 0.54400569 0.0016117208 641 129
0.14779095 0.070455298 0.54036045 0.001536547 633 127
0.14733103 0.069060028 0.52919716 0.0015330182 629 126
0.14953251 0.068937674 0.52777368 0.0015520297 629 126
0.15066463 0.068334274 0.52264738 0.0015298205 623 125
0.15078679 0.067299351 0.51420724 0.0015443275 612 123
nan nan nan 0 670 136
nan nan nan 0 812 167
0.13626815 0.058043223 0.44199038 0.0010816853 1149 243
0.13817237 0.057972264 0.4409048 0.0011961961 1002 210
nan nan nan 0 335 60
0.17975922 0.073225744 0.55544275 0.0021023904 368 68
0.1826674 0.073343195 0.55554837 0.0015512413 630 127
0.18639657 0.07378228 0.55805093 0.001420785 704 143
0.18961325 0.074009098 0.55890697 0.001422025 749 153
0.19239615 0.074062705 0.55841738 0.001376721 733 150
0.19538523 0.074193142 0.55847019 0.0013291109 770 158
0.19831446 0.074297674 0.55829012 0.0013453745 780 160
0.20175113 0.074587025 0.55945855 0.0014032096 744 152
0.20494859 0.074781559 0.55987406 0.0013502658 753 154
0.20809394 0.074952334 0.56007135 0.0014262884 736 150
0.2108468 0.074979171 0.55915576 0.0013723995 743 152
0.21374509 0.075056411 0.5585801 0.0013395484 760 156
0.21679094 0.075182915 0.55833459 0.0013344141 756 155
0.21999782 0.075361498 0.55843878 0.0013373496 757 155
0.22316323 0.0755217 0.55837041 0.0013271674 776 159
0.2266947 0.075800486 0.55914247 0.0014602283 738 151
0.22958311 0.075860217 0.55826592 0.0014399987 745 152
0.2324557 0.075913392 0.55731505 0.001338343 756 155
0.2359041 0.076151207 0.55769372 0.001322732 773 159
0.23963176 0.076472722 0.55865818 0.0013272857 757 155
0.24231906 0.076458722 0.5571534 0.001363446 749 153
0.2456089 0.076633029 0.55701035 0.0014120542 708 144
0.2488666 0.076793581 0.55675948 0.0014200521 698 142
0.25226673 0.076994106 0.55679631 0.0014240819 696 141
0.25624207 0.077363968 0.55805904 0.0014873982 657 133
0.25918505 0.077417582 0.55705261 0.0014934343 656 132
0.2623975 0.077549689 0.55663556 0.0016176227 618 124
0.2653473 0.077602237 0.55568105 0.0015161405 615 123
0.26922771 0.077923045 0.55668724 0.0015848377 576 114
0.27254161 0.078074992 0.55653477 0.0016066722 559 111
0.27598968 0.078261912 0.55669129 0.0016120904 555 110
0.27915901 0.078366838 0.55633473 0.0018343281 522 102
0.28210127 0.078406572 0.55559629 0.0018733974 500 97
0.28487155 0.078398176 0.55460787 0.0019336087 476 92
0.28760308 0.078379393 0.55364496 0.0019456508 482 93
0.29152393 0.078681976 0.55505455 0.001887133 439 84
0.29456717 0.078744166 0.55487579 0.0019723282 448 86
-0.3385646 0.082997501 0.56804967 0.0039226394 176 25
-0.33860555 0.083715335 0.57201648 0.0035634467 183 26
-0.33704224 0.084045485 0.57341754 0.0032529547 204 31
-0.33492303 0.084241517 0.57399803 0.0031936052 211 32
-0.33200216 0.08423759 0.57331836 0.0030890778 216 34
-0.3290174 0.084217258 0.57263529 0.0033411533 223 35
-0.32683665 0.084404163 0.57347262 0.0032920521 224 35
-0.32387769 0.084391668 0.57307023 0.0032515831 233 37
-0.32072395 0.084327735 0.57243758 0.0027878305 258 43
-0.31774065 0.084307827 0.57222563 0.0028232126 274 47
-0.31448597 0.084214918 0.57164109 0.0026628841 280 48
-0.31186739 0.084292196 0.57233614 0.0025439707 296 52
-0.30882558 0.084255449 0.57238126 0.0026770509 297 52
-0.3054311 0.084120877 0.57188416 0.0024155856 322 57
-0.30262563 0.084147505 0.57260311 0.0023175064 343 62
-0.29980886 0.084171481 0.57342201 0.0022554658 357 65
-0.29652175 0.084062584 0.57344776 0.0020959245 381 71
-0.29280788 0.083829351 0.57272911 0.0022008885 376 70
-0.28979039 0.083792828 0.57345152 0.0021049632 373 69
-0.28664535 0.083718315 0.57400501 0.0019997675 402 75
-0.28295538 0.08348152 0.57352531 0.0020828941 411 77
-0.27895021 0.083145894 0.57243317 0.0020322439 401 75
-0.27528617 0.082906045 0.57205659 0.0019117568 431 82
-0.27182114 0.08272171 0.57211155 0.0019322435 443 85
-0.26844046 0.082559407 0.57235873 0.0018539097 453 87
-0.26481631 0.082317963 0.57208669 0.001838246 462 89
-0.26016501 0.081748508 0.56954819 0.0018070561 474 92
-0.25670213 0.081544101 0.56955826 0.0017007126 520 102
-0.25339261 0.081384435 0.56988519 0.0017416659 499 97
-0.24975926 0.081116006 0.56944674 0.0017613788 505 98
-0.2466726 0.081021063 0.57021701 0.0016690324 535 105
-0.24303037 0.080739364 0.56965774 0.0017239472 560 111
-0.24011372 0.080694996 0.57075381 0.0017943472 541 107
-0.23633856 0.080357671 0.56975323 0.0017783238 522 102
-0.23042478 0.079276569 0.56343341 0.0016587928 541 107
-0.22227921 0.077392437 0.551332 0.0016574463 592 118
nan nan nan 0 855 177
-0.17551041 0.062612347 0.44806096 0.00096419989 1339 255
-0.1742907 0.062951773 0.45146877 0.0010375329 1197 254
nan nan nan 0 792 163
-0.19062044 0.070609041 0.5084914 0.0014807058 656 132
-0.19293071 0.072389588 0.52234721 0.0015411339 609 122
-0.19180885 0.072912179 0.52712613 0.0015817229 604 121
-0.19045825 0.073360555 0.53134894 0.0016769157 605 121
-0.18937416 0.073925033 0.53639281 0.0016549616 597 119
-0.18874551 0.074685134 0.54283953 0.0017060904 595 119
-0.1864963 0.07481616 0.54469115 0.0016158572 604 121
-0.18449178 0.075050384 0.54726493 0.0015615512 600 120
-0.18455808 0.076145671 0.55609936 0.0016809 603 120
-0.18275641 0.07649076 0.55943751 0.0016691721 616 123
-0.1810278 0.07687699 0.56305116 0.0016284761 617 124
-0.17947423 0.077350125 0.56727749 0.0015801627 648 131
-0.17729335 0.077563107 0.5695703 0.0014720733 651 131
-0.17472912 0.077612355 0.57063156 0.0014522043 678 137
-0.1721157 0.077640906 0.57151049 0.0014260985 703 143
-0.16831461 0.07712616 0.56835586 0.0013045759 793 163
-0.1649202 0.076784238 0.56643856 0.001168828 956 200
-0.16197538 0.076643869 0.56597596 0.0011677973 968 202
-0.15935627 0.076655544 0.56660742 0.0012208006 967 202
-0.15649667 0.07654997 0.56634462 0.0011661508 961 201
-0.15367012 0.076457202 0.56614918 0.0011357251 1009 212
-0.15095577 0.076418012 0.56632417 0.0011295576 1014 213
-0.14842135 0.076470114 0.56715143 0.0012091121 934 195
-0.14593905 0.076551467 0.56817222 0.0011860216 938 196
-0.14313564 0.076464258 0.5679189 0.0011666762 977 204
-0.14002009 0.076203905 0.56635553 0.0011817442 944 197
-0.13750453 0.076266371 0.56716883 0.0011732408 951 199
-0.13500153 0.076338373 0.56803286 0.0012544518 929 194
-0.13222538 0.076255716 0.5677259 0.0012518243 944 197
-0.12936036 0.076117404 0.56698447 0.0011969149 926 193
-0.12687263 0.076199979 0.56786942 0.001215412 899 187
-0.12438114 0.076283723 0.56874579 0.0012003859 917 191
-0.12179259 0.076310284 0.56917888 0.001231686 924 193
-0.1189078 0.076148301 0.56818873 0.0012618646 903 188
-0.11611307 0.076037988 0.56756735 0.0012281531 883 183
-0.11328661 0.075901307 0.56673354 0.0013686235 850 176
-0.1088274 0.074638359 0.55747247 0.0013903955 795 164
-0.10418639 0.073186502 0.54678088 0.0012911127 853 177
-0.10150744 0.073075034 0.54608762 0.0012647158 888 184
-0.098492585 0.072709925 0.54348576 0.0012187536 891 185
-0.095466338 0.072317109 0.5406642 0.0012330946 905 188
-0.092305362 0.071798407 0.53688931 0.0012237442 931 194
-0.08965753 0.071661256 0.53595638 0.0012006086 921 192
-0.086914651 0.071438216 0.53437108 0.0011873674 938 196
-0.084400974 0.071396045 0.53412938 0.0011787502 953 199
-0.081744701 0.071227074 0.53293049 0.0011858327 940 196
-0.079164535 0.07111603 0.53215665 0.0012014335 922 192
-0.076222286 0.0706622 0.52880996 0.0012523832 929 194
-0.073826879 0.070702069 0.52915078 0.0012724658 919 191
-0.071419932 0.070733272 0.52942026 0.0011955221 934 195
-0.069022246 0.070776142 0.52977133 0.0012640494 914 190
-0.066465475 0.070653073 0.5288747 0.0012592605 913 190
-0.063883848 0.070493206 0.5276975 0.0011766212 960 201
-0.061204094 0.070208117 0.52557814 0.0012029659 919 191
-0.05864298 0.070041239 0.52433962 0.0011832017 944 197
-0.056267671 0.070091479 0.5247227 0.0011749803 960 201
-0.053801958 0.070028551 0.52425516 0.0012228386 969 203
-0.051140103 0.069692433 0.52173942 0.0012009264 959 200
-0.048683614 0.069616802 0.52117127 0.0011880224 961 201
-0.046144247 0.069408692 0.51960909 0.0011655634 964 202
-0.043815453 0.069511853 0.52037531 0.0011523194 995 208
-0.041395564 0.069474086 0.52008474 0.001195792 970 203
-0.038989164 0.069455706 0.51993829 0.0011751805 956 200
-0.036405422 0.069098316 0.51725292 0.0012338303 972 203
-0.034009822 0.069072962 0.51705265 0.0011645837 968 202
-0.031635497 0.06909027 0.51717103 0.0011682021 965 202
-0.029228611 0.069033489 0.51673478 0.0011595777 982 206
-0.026812537 0.068942994 0.51604617 0.0012110639 993 208
-0.024397425 0.068837613 0.51524645 0.0011587664 991 208
-0.022023885 0.068839461 0.51524967 0.0011578797 972 203
-0.019631585 0.068776026 0.51476496 0.0012300919 932 194
-0.017235707 0.068680897 0.51404375 0.0012083747 971 203
-0.014811094 0.068422712 0.51210308 0.001225159 997 209
-0.012429727 0.068304308 0.51120961 0.0011384566 1005 211
-0.010086061 0.068386137 0.51181591 0.0012588829 951 199
-0.0077437297 0.068529747 0.51288563 0.0011806649 945 197
-0.0054027545 0.068816781 0.51503015 0.0012149811 909 189
-0.0030429941 0.069126874 0.51734853 0.0012856323 892 185
-0.00066777645 0.070059344 0.52432615 0.0013594339 850 176
0.0017943877 0.071898445 0.53809029 0.0013047517 799 164
0.0043611131 0.073362492 0.54904908 0.0013185908 782 161
0.0069050421 0.073508784 0.55014712 0.0013017893 814 168
0.009378342 0.073026523 0.54654247 0.0012246625 904 188
0.011837787 0.072663419 0.54383075 0.0011717249 970 203
0.014325319 0.072569475 0.54313463 0.0011974461 998 209
0.016728396 0.072139263 0.53992307 0.0011897016 1023 215
0.019151708 0.071896434 0.53811467 0.0011481858 1046 220
0.021608025 0.071818963 0.53754485 0.0011043339 1062 224
0.024061723 0.071749628 0.5370366 0.0011164264 1038 218
0.026461402 0.071547158 0.53553224 0.0011122496 1041 219
0.028896553 0.071466953 0.53494352 0.0010774516 1096 231
0.031371094 0.071489133 0.53512114 0.0010827819 1091 230
0.03385793 0.071534045 0.535469 0.0011233491 1104 233
0.036336657 0.071556889 0.53565127 0.0010976365 1069 225
0.038969222 0.071860507 0.53793484 0.0011791715 962 201
0.041426856 0.071824536 0.53767532 0.0012335465 883 183
0.043623574 0.071365766 0.53424978 0.0012048337 916 191
0.045432962 0.070356205 0.52669919 0.0011703961 957 200
0.04753679 0.069881849 0.52315336 0.0011876033 1002 210
0.049963757 0.069905393 0.52333295 0.0011730626 955 200
0.052434303 0.06998492 0.52392918 0.0011823275 967 202
0.054901551 0.070053257 0.52443886 0.0012199627 948 198
0.057192978 0.06990093 0.5232935 0.0011838552 949 198
0.059475608 0.069750622 0.52215981 0.0011775665 953 199
0.061789811 0.06964758 0.52137607 0.0011867826 935 195
0.064142853 0.069594383 0.52096111 0.0012020336 987 207
0.066288978 0.069328628 0.51895046 0.0012145466 975 204
0.069692217 0.070350364 0.52657169 0.0012057897 914 190
0.072164953 0.070395656 0.52687818 0.0012587905 922 192
0.075418182 0.071174584 0.53266895 0.0012345476 885 184
0.078361534 0.07162118 0.53596514 0.0012663964 842 174
0.08259619 0.073184639 0.54761064 0.0012303967 880 183
0.087040015 0.074835233 0.55989754 0.0012135351 961 201
0.08936853 0.074624419 0.55824816 0.0010718845 1111 235
0.092181653 0.074818723 0.55962032 0.0010663713 1121 237
0.095403969 0.075325534 0.56331933 0.0011418959 1001 210
0.097910628 0.075255424 0.56269294 0.0011976577 955 200
0.099629335 0.074598931 0.55767232 0.0011219342 1025 215
0.10101402 0.073731676 0.55106711 0.0010781464 1095 231
0.1036238 0.0737793 0.55128908 0.001103382 1115 235
0.10624152 0.073830143 0.55152243 0.00108162 1093 230
0.10991761 0.07459686 0.55708879 0.0011025799 1066 224
0.11328959 0.075126857 0.56087023 0.0011318738 1040 219
0.11567952 0.074996486 0.55970627 0.0010221761 1199 254
0.11760227 0.074575551 0.55635989 0.0010115068 1257 255
0.12022118 0.074604638 0.55635619 0.0010351454 1282 255
0.12334184 0.074937358 0.558599 0.001041958 1242 255
0.1258176 0.074872658 0.55786133 0.0010421894 1167 247
0.12819938 0.074755743 0.5567174 0.0010684462 1141 241
0.13037716 0.074526824 0.55472201 0.0011202547 1062 224
0.1311176 0.073501036 0.54678118 0.0010636785 1128 238
0.1336575 0.073503755 0.54647613 0.0011647732 1019 214
0.13658124 0.073713526 0.54768914 0.0013139067 792 163
0.14063765 0.07451576 0.55327791 0.0014566495 739 151
0.14321472 0.074519455 0.55291146 0.0014338379 686 139
0.14512017 0.074179731 0.54997593 0.001475232 658 133
0.14645144 0.073563345 0.54497135 0.0014977567 650 131
0.14764683 0.072900869 0.5396089 0.0015025347 644 130
0.14743483 0.071577288 0.52934152 0.0015040855 635 128
0.14972845 0.071493745 0.52822912 0.0016229273 630 127
0.14932223 0.070144624 0.51775098 0.0015235223 623 125
0.15018082 0.069423214 0.51189584 0.001534329 627 126
0.14811614 0.067394331 0.49639559 0.0014873034 669 135
nan nan nan 0 811 167
0.13600114 0.059998784 0.44089189 0.0010648941 1181 250
0.13797392 0.059956852 0.44003233 0.0012191398 1007 211
nan nan nan 0 341 62
0.17897725 0.075511523 0.55270779 0.0020143923 392 73
0.18217191 0.075757027 0.55371279 0.0015028943 620 124
0.18654618 0.076479182 0.55815852 0.0015271896 686 139
0.18951294 0.076612219 0.55826139 0.0014574472 734 150
0.19287544 0.076899387 0.55944872 0.0013302806 765 157
0.19571623 0.076973565 0.55904758 0.0013425016 751 154
0.19869201 0.077098146 0.55897522 0.001418267 760 156
0.20175295 0.07725203 0.55907702 0.0013150795 785 161
0.20503534 0.077485606 0.55971533 0.0014072431 767 157
0.20809188 0.077628911 0.55966169 0.0013385245 756 155
0.21097136 0.077703364 0.55907422 0.0013555863 761 156
0.2137254 0.077730335 0.55810994 0.0013933465 785 161
0.21707638 0.077971041 0.55864346 0.001359751 755 155
0.22012658 0.078099154 0.55833292 0.0013419077 743 152
0.22346015 0.078323469 0.55867445 0.0013813073 771 158
0.22649024 0.078437351 0.55819446 0.0013962027 750 153
0.22973312 0.078621343 0.55818272 0.0013678431 733 150
0.23245522 0.078624919 0.55686384 0.0013389556 762 156
0.23675406 0.079155564 0.55924928 0.0013580468 730 149
0.24001123 0.079329804 0.55908853 0.0013764146 749 153
0.24302801 0.07942158 0.55833077 0.0013766012 759 156
0.2460013 0.07949724 0.55745107 0.0014077105 699 142
0.24910949 0.079614349 0.55685848 0.0014309328 689 140
0.2525565 0.079835996 0.55699795 0.0014261955 684 139
0.25585636 0.080006868 0.55679017 0.0014481159 673 136
0.25928852 0.080215007 0.55685705 0.0014789372 644 130
0.26229319 0.080287911 0.55601048 0.0015682199 633 127
0.26617053 0.080623619 0.55701643 0.0015476223 613 123
0.26940441 0.080759495 0.55668277 0.0015836052 583 116
0.27284604 0.080954224 0.55680734 0.0017206091 565 112
0.27611613 0.08109463 0.55662078 0.0016860934 520 102
0.27916467 0.081167817 0.55604607 0.0017792424 476 92
0.28219643 0.081234708 0.55551153 0.0017823969 479 93
0.28642678 0.08164192 0.55739194 0.0018374714 464 89
0.2897037 0.081772096 0.55747563 0.001872786 458 88
0.29167435 0.081534617 0.55516028 0.0019737408 458 88
0.29405785 0.081415959 0.55376852 0.0019069401 432 82
-0.34434113 0.087324902 0.57799357 0.0040752515 179 25
-0.33941385 0.086809307 0.57361132 0.0034181231 191 28
-0.33725309 0.086998492 0.57398373 0.0032929927 200 30
-0.33505127 0.087180272 0.57440168 0.0031743031 211 32
-0.33225176 0.087208353 0.57390761 0.0031281905 211 32
-0.32891509 0.087094702 0.57258815 0.0030321898 229 37
-0.32666713 0.087269865 0.57327777 0.0035120468 215 33
-0.32443103 0.087451376 0.57412189 0.0029082219 239 39
-0.32116655 0.087356485 0.57326877 0.0028004949 249 41
-0.31716716 0.087058097 0.57120138 0.0031757758 253 42
-0.31503287 0.087270893 0.57261032 0.0027614168 279 48
-0.31189233 0.087206304 0.57232267 0.0030141743 272 46
-0.30891106 0.087185435 0.57244557 0.0025778813 278 48
-0.30589303 0.08715371 0.5726198 0.0027474868 288 50
-0.30227965 0.086950131 0.57178468 0.0022843315 332 60
-0.30020389 0.087189175 0.57397854 0.0025137903 350 64
-0.29744482 0.087232508 0.57499981 0.0021968761 354 65
-0.29323965 0.086848401 0.573309 0.0022732096 365 67
-0.28992251 0.086722255 0.57341748 0.0022133249 392 73
-0.2866281 0.086600438 0.57364589 0.0021177053 399 75
-0.28216636 0.086119875 0.57157612 0.0020045254 421 80
-0.27898362 0.0860238 0.57212704 0.0019735559 416 79
-0.27561232 0.085866988 0.57233769 0.0019216087 435 83
-0.27144831 0.08545731 0.57091206 0.0019397229 434 83
-0.26789409 0.085232951 0.57076263 0.0018983184 431 82
-0.26390821 0.084864974 0.56968039 0.0018551158 458 88
-0.26173633 0.085078694 0.57253009 0.0017934188 482 93
-0.25713518 0.084498771 0.57005417 0.0017972086 509 99
-0.25328004 0.084153868 0.56916118 0.0018630666 527 103
-0.25030634 0.084097408 0.57021773 0.0017159134 516 101
-0.24672496 0.083833173 0.56985939 0.0018168275 521 102
-0.24383947 0.083802044 0.57107395 0.0016416124 546 108
-0.2396927 0.083331689 0.5692749 0.0016353331 556 110
-0.23740222 0.083503231 0.57183939 0.0016642082 538 106
-0.23039508 0.082000159 0.56289369 0.0016014954 579 115
-0.22327591 0.080420613 0.55334932 0.0015784573 586 117
nan nan nan 0 813 168
-0.17539147 0.06472788 0.44739884 0.0010440432 1250 255
-0.17403048 0.065025672 0.45043936 0.0010344245 1190 252
nan nan nan 0 799 164
-0.19018835 0.072878681 0.50695282 0.0014708427 665 134
-0.19238189 0.074673191 0.52047276 0.0015353629 622 125
-0.19098885 0.075104378 0.5244894 0.0016862988 615 123
-0.19106443 0.076132208 0.53265935 0.0016305733 616 123
-0.19005273 0.076748639 0.53793913 0.0015772289 597 119
-0.18827344 0.077067696 0.54111284 0.0016052338 597 119
-0.18713699 0.077662349 0.5461992 0.0016025174 603 120
-0.18512942 0.077907115 0.54880089 0.0015432346 606 121
-0.18429984 0.078661636 0.55497128 0.0016847431 611 122
-0.18261258 0.079066552 0.55865443 0.0015614058 613 123
-0.18049006 0.079292141 0.56104392 0.0016341825 624 125
-0.17905362 0.079830311 0.56562012 0.0015674293 645 130
-0.17730036 0.08024133 0.56927258 0.0014773459 654 132
-0.17505898 0.08044067 0.57139695 0.0014442169 675 137
-0.17227925 0.080394968 0.57175118 0.0014060137 708 144
-0.16843146 0.079841539 0.56845927 0.0013075582 812 167
-0.1652462 0.079589449 0.56727707 0.001208177 947 198
-0.16205074 0.079324119 0.56596804 0.0011618487 962 201
-0.15927617 0.079259433 0.5660603 0.0011485764 981 205
-0.15635696 0.079119384 0.56558603 0.0012048845 1004 211
-0.15362881 0.07907287 0.56575292 0.0011638528 1025 215
-0.15097751 0.079064958 0.56617039 0.0011446095 983 206
-0.14822072 0.079000555 0.566158 0.0011741739 966 202
-0.1454199 0.078909919 0.56593299 0.0012370558 945 197
-0.14269206 0.078856282 0.56594938 0.001162079 969 203
-0.13975766 0.078684337 0.56509322 0.0012590738 962 201
-0.13727708 0.078766212 0.56603771 0.0011691578 958 200
-0.13495857 0.078946054 0.56766671 0.0011993527 928 193
-0.13257287 0.079092987 0.56904012 0.0012358736 916 191
-0.12958807 0.078881212 0.56781304 0.0012649478 927 193
-0.12669957 0.078720488 0.56693327 0.0012013441 914 190
-0.12416924 0.078780212 0.5676229 0.0012725379 915 191
-0.12164988 0.078849621 0.56836528 0.0011964317 919 191
-0.11898644 0.078826666 0.56842524 0.0011869757 936 195
-0.11608867 0.078643911 0.56731641 0.0012790639 922 192
-0.11327903 0.078513786 0.56657118 0.0011985889 921 192
-0.11038965 0.07832095 0.56535798 0.0012552737 855 177
-0.10732874 0.077994116 0.56316257 0.0012935592 811 167
-0.10179967 0.075812936 0.5475595 0.001271346 842 174
-0.099093892 0.075676814 0.54671013 0.0012817809 827 171
-0.096695051 0.075774096 0.54753536 0.0012610576 851 176
-0.092862561 0.074722998 0.54005003 0.0012531106 872 181
-0.090205193 0.074585594 0.53915608 0.0012235225 891 185
-0.087329179 0.074254498 0.53685164 0.0012280766 883 183
-0.084724084 0.074141145 0.53611183 0.0012516555 900 187
-0.082271628 0.074158572 0.53630894 0.0012391872 872 181
-0.079865821 0.074220449 0.53681922 0.0012779343 866 180
-0.076846354 0.073697746 0.53309357 0.0012194521 898 187
-0.073893845 0.073206849 0.52959019 0.0012285983 889 185
-0.072108038 0.073877759 0.53448504 0.0012348918 879 182
-0.069090106 0.073289126 0.53026134 0.001282495 915 191
-0.066614754 0.073253974 0.53003627 0.0012190348 920 192
-0.06408377 0.073152624 0.52932703 0.0012527144 919 191
-0.061359823 0.072814301 0.52689821 0.0011922061 936 195
-0.05876125 0.072602995 0.52538395 0.0011855069 941 196
-0.056342259 0.072604962 0.52540916 0.0012052604 950 198
-0.053921506 0.072604723 0.52541482 0.0011988061 956 200
-0.051512487 0.07262101 0.52553701 0.0012680183 937 195
-0.049114764 0.072655611 0.52578902 0.0012864122 906 189
-0.046427097 0.072242647 0.52279961 0.0011899911 931 194
-0.043951131 0.072131902 0.52199537 0.0011852197 980 205
-0.04138954 0.071859702 0.5200209 0.0012058119 988 207
-0.039010864 0.071891144 0.52024227 0.0012237817 979 205
-0.036634542 0.071931295 0.52052575 0.0012026525 961 201
-0.034075998 0.071594246 0.51807857 0.001163885 972 203
-0.031816918 0.071882986 0.5201593 0.001172742 954 199
-0.02932734 0.071655586 0.5185048 0.0011789743 947 198
-0.026967375 0.071732618 0.51905298 0.0011833584 936 195
-0.024608701 0.071828417 0.51973701 0.0011916778 928 193
-0.022166224 0.0716739 0.51861006 0.0012673391 926 193
-0.019691447 0.071364976 0.5163663 0.0012389866 931 194
-0.017302128 0.071323417 0.51605785 0.0011760255 959 200
-0.01492585 0.071330942 0.51610506 0.0012121936 989 207
-0.012554724 0.071370602 0.51638573 0.0011637661 977 204
-0.010239159 0.071818531 0.51962119 0.0012015614 921 192
-0.0079111783 0.072426237 0.52401364 0.0012668455 901 187
-0.0056139869 0.073973536 0.53520519 0.0013736283 837 173
-0.0031802512 0.074736558 0.54072356 0.0013381633 823 170
-0.00069568469 0.075504556 0.54627907 0.0013534776 824 170
0.0018284132 0.075788505 0.54833376 0.0012614775 851 176
0.0043751528 0.076136984 0.55085659 0.0012703559 859 178
0.0069095865 0.076094054 0.55054879 0.0011896943 926 193
0.0093580065 0.075381324 0.54539603 0.0012179551 978 205
0.011815405 0.075027369 0.54284012 0.0011758716 1012 212
0.014200251 0.074416883 0.53842926 0.0011588791 1063 224
0.016652858 0.074290283 0.53752023 0.0010911105 1079 227
0.019098509 0.07416945 0.53665376 0.0011319076 1050 221
0.021550704 0.074098825 0.53615117 0.0011157837 1050 221
0.024017515 0.074087799 0.53608036 0.0010978129 1068 225
0.02647843 0.074062355 0.5359056 0.0011281277 1057 222
0.028893307 0.073923454 0.5349099 0.0010879206 1078 227
0.03135246 0.073910765 0.53482765 0.0010863631 1089 230
0.033850197 0.073984258 0.53536862 0.0010838785 1088 229
0.036382996 0.074119203 0.53635377 0.0010960505 1071 226
0.03888889 0.074185655 0.53684258 0.0011399582 1013 213
0.041307621 0.074087813 0.53614163 0.0012473299 943 197
0.043588106 0.073767051 0.53382599 0.0011922205 930 194
0.045724683 0.073250033 0.53008842 0.0011799812 948 198
0.047692273 0.072528444 0.52486855 0.0011978508 1006 211
0.050048608 0.072439142 0.52422214 0.001163828 970 203
0.052582044 0.072602615 0.52540231 0.0011704518 969 203
0.055085503 0.072712116 0.52618909 0.0012439527 955 200
0.057668116 0.072912455 0.52762991 0.0011671038 961 201
0.06018766 0.073020101 0.52839613 0.0012601628 920 192
0.062338267 0.072689168 0.52598459 0.0011748964 949 198
0.065021507 0.072980821 0.52807373 0.0012147846 933 195
0.067152344 0.072653793 0.52568132 0.0012463864 926 193
0.070506662 0.073627152 0.53269213 0.0012237998 886 184
0.073920697 0.07459528 0.53965831 0.0012959841 860 178
0.077793904 0.075948678 0.54940397 0.0013128245 841 174
0.081783541 0.077326827 0.55931979 0.0012131941 903 188
0.08440534 0.077366993 0.55954915 0.0011520439 1047 220
0.086937979 0.077325441 0.55917937 0.0010587295 1137 240
0.089501701 0.077313147 0.55901241 0.0010322072 1188 252
0.092079602 0.077313446 0.5589273 0.0010471219 1154 244
0.094975539 0.077573493 0.56070983 0.001144832 1039 218
0.097376764 0.077426396 0.5595389 0.0011237483 1019 214
0.099173248 0.076818474 0.55502784 0.0011422301 1079 227
0.10104572 0.076298535 0.55114287 0.0010678755 1112 235
0.10365274 0.076345161 0.55133909 0.0010659711 1119 236
0.10658975 0.076626778 0.55321932 0.001134334 1106 233
0.10979707 0.077084988 0.55635953 0.0011422798 1063 224
0.11330694 0.077729791 0.56082994 0.0011008251 1060 223
0.1155461 0.077493526 0.55892771 0.0010129873 1224 255
0.11752197 0.07709489 0.55584049 0.0010015471 1252 255
0.12009899 0.077099212 0.55564392 0.00099057576 1282 255
0.12333523 0.077517703 0.55841422 0.001018643 1211 255
0.12603171 0.077586733 0.55864817 0.0010679301 1121 237
0.12833625 0.077416532 0.55714196 0.0011478532 1073 226
0.13041064 0.077116959 0.55468768 0.0011217868 1030 216
0.13167144 0.076357171 0.548908 0.0011103328 1047 220
0.13358198 0.075995825 0.54597765 0.0011045628 1057 222
0.13610233 0.075988419 0.54557121 0.0012437257 875 182
0.14031465 0.07690867 0.5517993 0.0013692644 738 151
0.14264886 0.076784946 0.550511 0.0015590792 694 141
0.14488707 0.076614842 0.54886901 0.0015684094 645 130
0.14569166 0.075705655 0.54191488 0.0014898747 649 131
0.14738245 0.075280093 0.53840667 0.0015098666 637 128
0.14768331 0.074170716 0.52999294 0.00151254 628 126
0.14987212 0.074030444 0.52848744 0.0015279505 627 126
0.14943163 0.072616994 0.51787841 0.0016235373 626 126
0.1504671 0.071954437 0.51261371 0.0015346878 618 124
0.14848921 0.069894277 0.49738738 0.0015977931 654 132
nan nan nan 0 786 162
0.13670976 0.062391475 0.44294411 0.0010597971 1128 238
0.13792293 0.062001761 0.43961909 0.0012119871 981 205
nan nan nan 0 329 59
0.17885065 0.078060552 0.5519833 0.0020803101 383 71
0.18235774 0.078449726 0.55393344 0.001454469 664 134
0.1866736 0.079170898 0.55818331 0.0014104863 697 142
0.18970571 0.079335101 0.55846322 0.0013638545 734 150
0.19288215 0.079554319 0.5590921 0.001349827 751 154
0.19600996 0.079747789 0.55950087 0.0013978444 762 156
0.19887604 0.079831034 0.5590983 0.0014062227 766 157
0.20184036 0.079950988 0.55891573 0.0014320527 760 156
0.20488988 0.080101117 0.55890572 0.0013641739 787 162
0.20832221 0.080395132 0.55985951 0.0014207985 760 156
0.21142513 0.080556147 0.55984688 0.0013670784 737 151
0.21411957 0.080559455 0.55870253 0.001429234 759 156
0.21708556 0.080663577 0.55822355 0.0013327094 766 157
0.2204157 0.080898806 0.55861574 0.0013355887 762 156
0.22353639 0.0810524 0.55840886 0.0013698168 774 159
0.22653671 0.081159197 0.55784833 0.0014249652 770 158
0.2308287 0.081720769 0.5603779 0.001350869 746 153
0.23362304 0.081745215 0.55919284 0.0014183323 751 154
0.23656626 0.081820592 0.5583362 0.0013637205 737 151
0.24018769 0.082126133 0.55902946 0.0014425045 712 145
0.24374308 0.082402475 0.55950463 0.001423256 712 145
0.2467927 0.082503565 0.55877924 0.0014205434 685 139
0.24973214 0.082566001 0.55779147 0.0015271899 671 136
0.25271422 0.082641013 0.55689508 0.0014850922 678 137
0.25612259 0.082852334 0.55692869 0.0014485841 669 135
0.25926957 0.082975455 0.55638802 0.0016087323 642 129
0.26292711 0.083257668 0.55694038 0.0016032667 624 125
0.26641849 0.083481915 0.55713856 0.0015537878 591 118
0.26938632 0.083539173 0.55626899 0.0015849718 572 114
0.27259216 0.083668299 0.55593544 0.0016880471 561 111
0.27632508 0.083954968 0.55671227 0.0018305538 540 106
0.27916953 0.083968662 0.55575365 0.0017483667 508 99
0.28202668 0.083985835 0.55490458 0.0018060973 470 91
0.28551403 0.084188506 0.55537319 0.001893535 436 83
0.28917471 0.084437847 0.55624664 0.001943711 427 81
0.29161999 0.084330909 0.55487931 0.0019279461 429 81
0.29468524 0.084403597 0.55480611 0.0022193566 407 76
-0.34318531 0.089933336 0.57631844 0.0037473193 195 29
-0.33945113 0.089713298 0.57391751 0.0033557017 199 30
-0.33724606 0.089897066 0.5741924 0.0034252256 200 30
-0.33544761 0.090193339 0.57527804 0.0033561566 200 30
-0.33202246 0.090053603 0.57368207 0.0030160421 227 36
-0.32885572 0.089982122 0.57262778 0.0033383125 219 34
-0.32658023 0.090155371 0.57323945 0.0033460602 223 35
-0.32402998 0.090255223 0.57349598 0.0029006174 235 38
-0.3208347 0.090175577 0.57272792 0.0028234569 246 40
-0.31807986 0.090219408 0.57286346 0.002893691 270 46
-0.31504941 0.090185158 0.57262433 0.00296007 278 48
-0.31202731 0.090152673 0.57251918 0.0025525114 289 50
-0.30923957 0.09018793 0.57296717 0.0025827109 289 50
-0.30581468 0.09003628 0.57234997 0.0024857004 294 51
-0.30306232 0.090081602 0.57310569 0.0027658627 297 52
-0.30038744 0.090151064 0.57413393 0.0022695838 334 60
-0.29762444 0.090195186 0.57511622 0.0022046855 355 65
-0.29417163 0.090029068 0.57486641 0.0021920453 353 64
-0.29001045 0.089640677 0.57329512 0.0021122156 369 68
-0.28670588 0.089511901 0.57347494 0.0022445391 389 72
-0.28265014 0.089143611 0.57220191 0.0020617978 386 72
-0.27894831 0.088880494 0.57167494 0.0023314459 395 74
-0.27583113 0.088800147 0.57238871 0.001986766 421 80
-0.27088189 0.088122092 0.56929892 0.0021104419 429 81
-0.26794624 0.088091679 0.57043326 0.0020791586 452 87
-0.26485559 0.088009112 0.57126915 0.0018429832 458 88
-0.26090366 0.087635435 0.57024062 0.001833562 465 90
-0.25806049 0.087630093 0.57162625 0.0017848201 482 93
-0.25420001 0.087275349 0.57074243 0.0017315537 517 101
-0.25116733 0.087200046 0.57168674 0.0018002928 503 98
-0.24742565 0.08687409 0.57098269 0.0017241932 538 106
-0.24364826 0.086528011 0.57013023 0.0016263974 566 112
-0.24047388 0.086390533 0.57063425 0.0017093371 556 110
-0.23702773 0.086151034 0.57044339 0.0015785038 577 115
-0.23268783 0.085577175 0.5680064 0.0016801114 562 111
-0.22404754 0.083388947 0.55478841 0.0015409072 614 123
nan nan nan 0 796 164
-0.17496249 0.066722259 0.44593319 0.0010422585 1180 250
-0.17383479 0.067118004 0.44956395 0.0010837431 1127 238
nan nan nan 0 808 167
-0.18977241 0.075143687 0.50544345 0.0015492295 646 130
-0.19208539 0.077043794 0.51926672 0.0015331365 626 126
-0.19078015 0.077523485 0.52351731 0.0015386038 623 125
-0.19194707 0.079033807 0.53472131 0.0016401566 596 119
-0.18995644 0.079267181 0.5372749 0.0015644947 602 120
-0.18836157 0.079674333 0.54098099 0.0016827413 597 119
-0.18690768 0.080153205 0.54515123 0.0016064452 610 122
-0.18516329 0.080519177 0.54852974 0.001542206 612 123
-0.1835971 0.080974184 0.55249059 0.0015656337 606 121
-0.18238403 0.081600301 0.5575971 0.0016467867 610 122
-0.18039171 0.081891023 0.56038827 0.0015184452 623 125
-0.17951792 0.082705684 0.56674296 0.0014976651 639 129
-0.17758796 0.083051011 0.5698601 0.0016129273 645 130
-0.17518982 0.083184615 0.57149714 0.0014497533 677 137
-0.17234902 0.083108909 0.57166553 0.0013954644 719 147
-0.16818604 0.082383171 0.56732595 0.0013608376 836 173
-0.16513136 0.082185708 0.56658775 0.0012018778 951 199
-0.16178918 0.081836402 0.56476998 0.0011524134 975 204
-0.15908515 0.081803635 0.56510615 0.0011614669 976 204
-0.15686122 0.082020819 0.56714314 0.0011387275 1004 211
-0.15372145 0.081758335 0.56583691 0.001170309 971 203
-0.15110415 0.081769444 0.56639695 0.0011853877 968 202
-0.1483143 0.081685886 0.56627619 0.0012100835 971 203
-0.14545548 0.081560642 0.56584126 0.0011733314 963 201
-0.14288121 0.08159329 0.56647789 0.0011897811 936 195
-0.14021599 0.081574239 0.56673318 0.0012087785 969 203
-0.1372887 0.081399083 0.56588131 0.0011833276 947 198
-0.13493779 0.081565484 0.56738293 0.0012748829 931 194
-0.13233678 0.081584334 0.56783849 0.0011900988 933 195
-0.12981899 0.081656292 0.56864452 0.0011948785 932 194
-0.12658638 0.081272297 0.56625515 0.0011917244 927 193
-0.12394323 0.081258498 0.56642586 0.0011970106 921 192
-0.12144723 0.081342667 0.56726205 0.0012150591 948 198
-0.11891741 0.081407405 0.56794661 0.0011999096 929 194
-0.11629647 0.081411295 0.56819046 0.0012631906 932 194
-0.11334923 0.081181653 0.56678861 0.0012344623 946 197
-0.11055673 0.081054583 0.56608737 0.0012178685 913 190
-0.10788127 0.081009269 0.56594253 0.0012915288 898 187
-0.10446195 0.080389224 0.56176794 0.0012811767 834 172
-0.10196888 0.080468595 0.56246692 0.0013474362 783 161
-0.097866617 0.079249039 0.55407262 0.0013021535 808 167
-0.094828933 0.078849211 0.55139571 0.0013667936 798 164
-0.091987588 0.078595109 0.54972619 0.0013146505 797 164
-0.089251377 0.078418963 0.54859108 0.0013623412 832 172
-0.086639412 0.078344911 0.54816043 0.0012775093 829 171
-0.083627969 0.077894308 0.54508573 0.0013073829 837 173
-0.080929764 0.077716574 0.54391134 0.0013579436 804 166
-0.078303739 0.077599019 0.54315001 0.0013669359 830 171
-0.075301073 0.077088125 0.53962773 0.0013093326 847 175
-0.072687984 0.076954752 0.53874099 0.0012642385 835 173
-0.069920786 0.07664305 0.53659916 0.0012914534 850 176
-0.067223467 0.07638789 0.53484696 0.0013385337 862 179
-0.064709932 0.076330081 0.53447115 0.0012955531 881 183
-0.062188257 0.076257721 0.5339886 0.0012614105 890 185
-0.059642114 0.07614816 0.5332408 0.0012275918 887 184
-0.057034958 0.075947948 0.53185391 0.0012178126 897 186
-0.05439955 0.075690433 0.53006226 0.0012072701 909 189
-0.051706493 0.075324744 0.52750945 0.0011845615 936 195
-0.049247462 0.075280711 0.52720636 0.001216154 895 186
-0.046593301 0.074918389 0.52467149 0.0012459959 893 186
-0.044093631 0.074778378 0.52369142 0.0012031351 948 198
-0.041623559 0.074675284 0.52296793 0.0011683884 966 202
-0.039061468 0.07438428 0.52092695 0.0011757623 955 200
-0.036662381 0.074385904 0.52093393 0.0012085206 949 198
-0.03428711 0.074439459 0.52130353 0.0011723002 958 200
-0.03187513 0.074415401 0.52112877 0.0012107814 938 196
-0.029496783 0.074472323 0.52152061 0.0012048478 921 192
-0.02715019 0.074626602 0.52259392 0.0012132608 898 187
-0.024846999 0.074941844 0.52479422 0.0013321899 889 185
-0.022450402 0.07501296 0.52528495 0.001241184 881 183
-0.020043952 0.075064339 0.52563787 0.0012983887 896 186
-0.017596843 0.074956663 0.52487725 0.0012203242 896 186
-0.015169629 0.074912921 0.52456498 0.0012792986 888 184
-0.013013064 0.07644245 0.53526986 0.0012539218 860 178
-0.010580493 0.076686874 0.53697658 0.0012870132 829 171
-0.0082589826 0.078131124 0.54708576 0.0013184814 856 177
-0.0057392437 0.078145213 0.54718155 0.0012530939 870 180
-0.0032107555 0.077968948 0.54594541 0.0011624466 980 205
-0.00069324236 0.077747911 0.5443967 0.0011560529 1034 217
0.0018173101 0.077839643 0.54503942 0.0011430623 989 207
0.0043666041 0.078521594 0.54981583 0.0011773908 946 197
0.0068882396 0.078388035 0.5488829 0.0012192697 957 200
0.0093573621 0.077889092 0.54539257 0.001161281 1021 214
0.01182841 0.077614039 0.54347092 0.0012116716 1031 217
0.014195121 0.076870091 0.5382666 0.0010946945 1071 226
0.016645186 0.076731689 0.53730327 0.0010776562 1096 231
0.019102203 0.076657005 0.53678679 0.0011568198 1071 226
0.021550996 0.07657025 0.5361861 0.0010959347 1067 225
0.024021972 0.076572031 0.53620589 0.001082669 1094 231
0.026470346 0.076508157 0.53576595 0.0010832042 1082 228
0.028895084 0.076392688 0.53496468 0.0010961194 1087 229
0.031323899 0.0763053 0.53435999 0.0010916063 1078 227
0.033822559 0.076388419 0.53494871 0.0010747163 1099 232
0.036396496 0.076618671 0.53656739 0.0011371222 1063 224
0.038935058 0.076749928 0.53749174 0.0011361993 999 209
0.041424751 0.076774925 0.53767067 0.0011597845 970 203
0.043790132 0.076579683 0.5363059 0.0011711321 956 200
0.045825373 0.075858809 0.53125799 0.0012157159 977 204
0.048010431 0.075446442 0.52836871 0.0011592497 981 205
0.050298352 0.07522773 0.5268333 0.0012087271 963 201
0.052727524 0.075230688 0.52684748 0.0011967161 947 198
0.055274308 0.075393796 0.52798009 0.0012372647 935 195
0.057856988 0.075590067 0.52934146 0.0011919206 921 192
0.060429662 0.075757906 0.53049982 0.0012361445 927 193
0.062906623 0.075797364 0.53075486 0.0012362829 901 187
0.065556146 0.076034032 0.53238583 0.0012039467 915 191
0.068595752 0.076689728 0.5369457 0.0012798867 869 180
0.072078556 0.077777997 0.54452765 0.0013002133 884 184
0.075983465 0.079233207 0.55467111 0.0012723289 844 175
0.079226568 0.079926051 0.55946964 0.0012291354 928 193
0.081907287 0.08002574 0.5601083 0.0011214059 1064 224
0.084470943 0.080008462 0.55992055 0.001065156 1124 237
0.087039337 0.079996556 0.55976206 0.0010463432 1223 255
0.089558378 0.079941303 0.55929124 0.0010135954 1225 255
0.092138164 0.079941809 0.55920136 0.0010266344 1202 255
0.094744362 0.079964601 0.55925733 0.0011637009 1065 224
0.0972469 0.079901017 0.55869877 0.0011105445 1041 219
0.098767549 0.079054803 0.55265802 0.0010819085 1093 230
0.10119112 0.078955695 0.55183005 0.0010782589 1108 234
0.10362302 0.078867823 0.55106872 0.0010665716 1118 236
0.1064331 0.079065077 0.5522868 0.0010726622 1145 242
0.10998216 0.079789221 0.55716991 0.0010949465 1071 226
0.1133819 0.080374368 0.56106532 0.0010858563 1087 229
0.11541491 0.07998617 0.55815083 0.0010136652 1221 255
0.11760037 0.079718299 0.55606222 0.0010025877 1239 255
0.12019303 0.079732023 0.55592257 0.0010431032 1253 255
0.1229466 0.079849668 0.55649024 0.0010337948 1182 250
0.12586126 0.080064952 0.55771995 0.0010778597 1106 233
0.12830423 0.079977565 0.55682266 0.0011609233 1052 221
0.13014714 0.079526961 0.55337977 0.0011133063 1039 218
0.13229993 0.07927946 0.55133361 0.0011022466 1055 222
0.13345894 0.078457132 0.54527432 0.0010908303 1082 228
0.13612205 0.07853318 0.54544133 0.0012610434 849 176
0.13994221 0.079261787 0.55011559 0.0013751017 736 150
0.14277577 0.079415478 0.55077291 0.0014400298 679 138
0.14458786 0.079005599 0.54750025 0.0014903242 644 130
0.14552665 0.078140996 0.54106003 0.0014941441 646 130
0.14744695 0.0778239 0.53839374 0.0016025519 640 129
0.14891098 0.077280626 0.53414345 0.0016056286 616 123
0.1489245 0.076014854 0.52488625 0.0016815917 622 125
0.15031759 0.075482868 0.52068263 0.0015284936 623 125
0.15069339 0.074465156 0.51311362 0.0015049746 644 130
0.14821532 0.072091274 0.49619937 0.0014545007 679 138
nan nan nan 0 786 162
0.13730845 0.064753868 0.44462597 0.0011014641 1064 224
0.13824818 0.064219929 0.44039276 0.0012130107 934 195
nan nan nan 0 317 56
0.17916887 0.080806546 0.55261594 0.0022101956 381 71
0.18261816 0.08118093 0.55436414 0.0014766188 643 129
0.18679608 0.081864066 0.55817699 0.0014116544 697 142
0.1899721 0.082095176 0.55886465 0.0013467423 750 153
0.19307375 0.082288235 0.55925471 0.0013921133 764 157
0.19604659 0.082421891 0.55920297 0.0013680925 734 150
0.19898435 0.082537442 0.55899113 0.001423033 764 157
0.20192151 0.082649693 0.55871969 0.0013512898 814 168
0.20514418 0.082874343 0.55916947 0.0013857222 744 152
0.20893474 0.083319679 0.5610655 0.0014549023 708 144
0.21153969 0.083286919 0.55970287 0.0014063237 748 153
0.21418528 0.083270781 0.55841988 0.0013434532 765 157
0.21707276 0.083347909 0.55772978 0.001332398 759 156
0.22051789 0.08363466 0.55840695 0.0014400569 746 153
0.22362266 0.083786927 0.55815113 0.0013291589 760 156
0.22697799 0.084028326 0.55845654 0.0013748718 736 150
0.23094523 0.084487893 0.56017715 0.0013528188 753 154
0.23385012 0.084552623 0.55925107 0.0013690047 753 154
0.23671779 0.084602565 0.55820817 0.0014290066 713 145
0.23997493 0.084788971 0.55804944 0.0014109069 697 142
0.24367315 0.085125253 0.5588606 0.0014671094 659 133
0.24721409 0.085399725 0.55925387 0.0016217291 646 130
0.25005946 0.085430495 0.55805033 0.0015318487 664 134
0.25335702 0.085613407 0.5578481 0.0014558939 671 136
0.25724068 0.085988283 0.55890632 0.0015694054 654 132
0.25928009 0.08574526 0.55597281 0.0014560394 668 135
0.26318747 0.086118594 0.55706918 0.0014600626 660 133
0.26623482 0.086205661 0.55635095 0.0015060606 648 131
0.26963884 0.08640521 0.55640811 0.0015945114 571 113
0.272535 0.086439595 0.55546087 0.0017028245 553 109
0.27591851 0.086626306 0.55556136 0.0016997963 526 103
0.27926046 0.086796336 0.55563104 0.0018363968 474 92
0.28218067 0.086833231 0.55493462 0.0018139273 464 89
0.28526255 0.086918645 0.55464298 0.0020683694 445 85
0.28905857 0.087217882 0.5558151 0.0022031385 416 79
0.29184836 0.08721067 0.5551402 0.0021721851 404 76
0.29424378 0.087086864 0.55383641 0.0020751504 394 74
-0.34508687 0.0933493 0.57979262 0.0038928261 183 26
-0.33896476 0.092475057 0.57335174 0.003809537 199 30
-0.33729166 0.092810012 0.57450449 0.0033688745 199 30
-0.33495227 0.092965797 0.57463849 0.0033604358 229 37
-0.3312352 0.092738621 0.57250512 0.0031668923 219 34
-0.32923105 0.092991255 0.57343704 0.0033260628 236 38
-0.32683504 0.093136698 0.57381308 0.0028229298 242 39
-0.32316011 0.092917047 0.57205129 0.0029938614 267 45
-0.32005224 0.092857942 0.57139379 0.0026242207 275 47
-0.31765833 0.093006782 0.572133 0.0025748895 284 49
-0.31522644 0.093147151 0.57293981 0.0025524802 283 49
-0.31242064 0.093178637 0.57319844 0.0024471092 308 54
-0.30947363 0.093168177 0.57332164 0.0028865137 282 48
-0.30667961 0.093204014 0.57385218 0.0025226492 297 52
-0.30341721 0.093096845 0.57362306 0.0027003933 311 55
-0.30053473 0.093105271 0.57422447 0.0023804451 314 56
-0.29741859 0.093040802 0.57449102 0.0023182533 328 59
-0.29375198 0.092801139 0.57378387 0.0022099568 343 62
-0.29024944 0.092609055 0.57347178 0.002203607 347 63
-0.28652942 0.092342995 0.5727945 0.0023692686 365 67
-0.28337964 0.092257187 0.5733211 0.0023909789 359 66
-0.27931553 0.091868863 0.57204342 0.0021251992 409 77
-0.27610683 0.091756769 0.57255137 0.0020135669 414 78
-0.27308616 0.091705441 0.57349932 0.0018826823 441 84
-0.2680999 0.090985961 0.57031119 0.0017976806 474 92
-0.26474568 0.09081088 0.5705663 0.0020281356 453 87
-0.26131088 0.090604044 0.57065094 0.0019104321 438 83
-0.25722823 0.090165593 0.5692929 0.0017471621 497 97
-0.25423223 0.090102561 0.57031542 0.0017436132 505 98
-0.25082454 0.089890569 0.57040095 0.0018191001 515 101
-0.24751799 0.089710429 0.57068568 0.0017417971 516 101
-0.24379787 0.08937455 0.56996876 0.0016673739 527 103
-0.24088612 0.089330658 0.57109952 0.0016226916 554 109
-0.23687193 0.088872112 0.56955814 0.0016089854 569 113
-0.2333938 0.088606209 0.56922245 0.0016318382 555 110
-0.22453475 0.086266547 0.55550373 0.0017015239 591 118
nan nan nan 0 800 165
-0.17540091 0.069047533 0.44666445 0.0010418319 1158 245
-0.17425437 0.069450691 0.4502652 0.0010978016 1068 225
nan nan nan 0 827 171
-0.18970139 0.077539057 0.50483787 0.0015761756 662 134
-0.19239111 0.079656087 0.51967257 0.0015347891 620 124
-0.19149354 0.080323897 0.52505827 0.0017107186 611 122
-0.19081984 0.081104606 0.53116834 0.0015553207 608 122
-0.18931116 0.081546657 0.53504312 0.0015567557 602 120
-0.18791297 0.082049035 0.53929204 0.0015844797 614 123
-0.186767 0.082676947 0.54434615 0.0015424852 614 123
-0.18502536 0.083055109 0.54773378 0.0015886561 617 124
-0.18444641 0.083973356 0.55466396 0.0015610626 609 122
-0.18276872 0.084410675 0.55839837 0.0015317192 625 125
-0.18132856 0.084972121 0.56293076 0.0016447915 612 123
-0.1796205 0.085422844 0.56670684 0.0015046842 638 128
-0.1776714 0.085770801 0.56977618 0.001617508 644 130
-0.17513093 0.08583957 0.57096273 0.0014938138 680 138
-0.1723219 0.085776791 0.57124335 0.0013875366 721 147
-0.16807553 0.084985256 0.56663358 0.0013018672 830 171
-0.16422114 0.084369689 0.56315702 0.001173839 950 198
-0.161706 0.084433295 0.56418103 0.0011389727 1003 210
-0.15913245 0.084468015 0.56498504 0.0011355459 1006 211
-0.15643884 0.084439114 0.56533617 0.0012087141 1003 210
-0.15422662 0.084673487 0.56742507 0.0012038952 985 206
-0.15143353 0.084591597 0.56736976 0.0011736756 948 198
-0.14857943 0.08447209 0.56703603 0.0012006741 988 207
-0.14569899 0.084333017 0.56654543 0.0012058398 959 200
-0.14309338 0.084350832 0.56708473 0.0012074343 931 194
-0.14039999 0.084316604 0.5672515 0.0011898775 927 193
-0.13768201 0.084266007 0.56728578 0.0011955587 953 199
-0.13491932 0.084185541 0.56709719 0.0011715683 967 202
-0.13203605 0.084025137 0.56634885 0.0011656181 971 203
-0.12943713 0.084042862 0.56678081 0.0012001346 919 191
-0.12697189 0.084149905 0.56779671 0.0012403768 918 191
-0.12388732 0.083842337 0.56599593 0.0012222953 893 186
-0.12132437 0.083882116 0.56652164 0.001188561 938 196
-0.11893398 0.084045611 0.56786668 0.0011738637 950 198
-0.11658385 0.084245555 0.56944281 0.0012139536 906 189
-0.11354853 0.083948188 0.5676415 0.001212195 911 190
-0.11066835 0.083754167 0.5665229 0.0012095444 937 195
-0.10815996 0.08383891 0.56727558 0.0011953791 920 192
-0.10488778 0.083321139 0.56393695 0.0012075141 906 189
-0.10296354 0.083875038 0.56783873 0.0012132813 901 187
-0.099997401 0.083586983 0.56602865 0.0013117261 891 185
-0.097399235 0.083599284 0.56624019 0.0012778324 829 171
-0.094836213 0.083643273 0.5666554 0.0013081724 794 163
-0.092184357 0.083609194 0.56653118 0.0013309808 852 176
