# .PCD v0.7 - Point Cloud Data file format
VERSION 0.7
FIELDS x y z noise intensity gray
SIZE 4 4 4 4 2 1
TYPE F F F F U U
COUNT 1 1 1 1 1 1
WIDTH 881
HEIGHT 1
VIEWPOINT 0 0 0 1 0 0 0
POINTS 881
DATA ascii
-0.36439335 -0.21876825 0.67426997 0.00398809 161 17
-0.36220354 -0.2194806 0.67509264 0.0038961999 163 17
-0.36067185 -0.22060892 0.67725354 0.0038575092 169 19
-0.35861197 -0.22143251 0.6785413 0.0038079249 172 19
-0.35560164 -0.22167946 0.67813271 0.0042429967 168 18
-0.35129735 -0.22111666 0.67532802 0.0034354378 190 24
-0.34849173 -0.2214954 0.67548221 0.0035665687 201 27
-0.34539679 -0.22169593 0.67517585 0.0035238534 183 22
-0.34096664 -0.22103488 0.67233521 0.0033889122 209 29
-0.33668205 -0.22045581 0.66983896 0.0030995337 222 32
-0.33234894 -0.21983291 0.66730618 0.0028649978 253 39
-0.32836536 -0.21943076 0.66554135 0.0028626756 286 48
-0.32512924 -0.21952495 0.66537988 0.0025664677 284 47
-0.32012796 -0.21841674 0.66167438 0.0027694509 308 53
-0.31623775 -0.21805117 0.66032076 0.0025371977 295 50
-0.31292972 -0.21808347 0.66027349 0.0026652252 268 43
-0.31026661 -0.21857078 0.66170555 0.0030563818 249 38
-0.30954581 -0.22045206 0.66746014 0.0027802666 256 40
-0.30885139 -0.22239399 0.6735031 0.002678972 275 45
-0.30497456 -0.22206217 0.67276388 0.0029343546 294 50
-0.30213976 -0.22249024 0.67442811 0.0029099951 298 51
-0.29758644 -0.2216481 0.6723398 0.0025348968 323 57
-0.29282543 -0.22062996 0.66980863 0.0022562302 342 62
-0.28970683 -0.22083989 0.67109573 0.0023031088 333 59
-0.28046158 -0.21632919 0.65811026 0.0020904229 380 71
-0.2763885 -0.21574746 0.65714157 0.0020794524 412 79
-0.27316129 -0.21581994 0.65823901 0.0020340695 488 98
-0.27033636 -0.21621594 0.66039526 0.0018163134 530 108
-0.26726982 -0.21642615 0.6620509 0.001821388 552 114
-0.26421168 -0.21664856 0.66380411 0.0017302722 564 117
-0.2612699 -0.21697325 0.66592509 0.0015723807 591 123
-0.25799376 -0.21702513 0.66725576 0.0015277457 616 130
-0.25665057 -0.2187257 0.67370409 0.0015563929 601 126
-0.25392291 -0.2192758 0.6766541 0.0015512375 608 128
-0.25042447 -0.21916623 0.67759728 0.001509204 626 132
-0.24504511 -0.21738505 0.67338157 0.0014607578 671 143
-0.24142759 -0.21713915 0.67392421 0.0014548812 672 144
-0.23801753 -0.21707553 0.67504007 0.0015634967 617 130
-0.23438573 -0.21680504 0.67551494 0.0017033292 601 126
-0.23043337 -0.21622595 0.67502284 0.0015872412 599 125
-0.22621906 -0.21538047 0.67368627 0.0017027168 593 124
-0.22244227 -0.21493264 0.67357743 0.001606018 575 119
-0.21877581 -0.21457943 0.67374927 0.001672525 535 109
-0.21497822 -0.21408489 0.67345774 0.0016967106 544 112
-0.21107392 -0.21346699 0.672755 0.001668052 544 112
-0.20747273 -0.21314099 0.67294735 0.0018723084 554 114
-0.20356448 -0.21248402 0.67206848 0.0017215674 533 109
-0.20019989 -0.21238232 0.6729188 0.0018055657 507 103
-0.19671407 -0.21214649 0.67331833 0.0018520177 521 106
-0.19349681 -0.21219726 0.6746015 0.0017573374 503 102
-0.18989331 -0.2118189 0.67449254 0.0016619635 539 110
-0.18597342 -0.2110683 0.67316574 0.0019042654 536 110
-0.18243732 -0.21073426 0.6731348 0.0016716971 546 112
-0.17912547 -0.21065189 0.67387825 0.001665212 550 113
-0.17546441 -0.21014826 0.67324311 0.0019701759 522 106
-0.17182802 -0.20965582 0.67261159 0.0018018411 537 110
-0.16833082 -0.20931762 0.67244315 0.0016484975 566 117
-0.16483665 -0.20897005 0.67221385 0.0017013339 539 110
-0.16097292 -0.20813085 0.6703704 0.0017511596 536 110
-0.15747459 -0.20773964 0.66993761 0.0016579569 545 112
-0.15417875 -0.20760486 0.67030251 0.0016625591 543 111
-0.15106891 -0.20772007 0.67144805 0.0017854671 543 111
-0.14765389 -0.20741168 0.671197 0.0017867744 567 117
-0.14411312 -0.20690906 0.67028874 0.0016150796 572 119
-0.14104618 -0.20707941 0.67153406 0.0017483716 551 113
-0.13784313 -0.20705314 0.67211723 0.0017937406 560 116
-0.1346117 -0.20698205 0.67253006 0.0016608353 564 117
-0.13106091 -0.20640454 0.67127144 0.0016581184 548 113
-0.12728854 -0.20544074 0.66872859 0.0017702541 548 113
-0.12379611 -0.20489118 0.66750705 0.001654676 546 112
-0.11847262 -0.20120318 0.6560275 0.001852183 542 111
nan nan nan 0 587 122
nan nan nan 0 663 141
-0.090663888 -0.16706982 0.54596376 0.0012060136 933 208
-0.088087127 -0.16705722 0.5462988 0.0010826772 1082 245
-0.087048821 -0.17004919 0.55644953 0.0012163639 924 206
nan nan nan 0 754 164
-0.087729774 -0.18233848 0.59739935 0.0017001029 631 133
-0.085483417 -0.18353784 0.60167468 0.0015256577 634 134
-0.084240757 -0.18704779 0.61351728 0.0015239371 632 134
-0.081971914 -0.18844689 0.61842936 0.0015593652 605 127
-0.079467386 -0.18938689 0.62182337 0.0015480538 611 128
-0.077369124 -0.19140351 0.62874192 0.0015433076 614 129
-0.074631669 -0.19193581 0.6307739 0.0015417946 618 130
-0.071864352 -0.19243203 0.63267434 0.0015381371 617 130
-0.069437005 -0.19392033 0.63782513 0.0015995617 610 128
-0.066552669 -0.19420868 0.63901782 0.0015427376 621 131
-0.063847072 -0.19507024 0.64208466 0.0015301682 629 133
-0.061102569 -0.19589205 0.64500922 0.0016288045 621 131
-0.058296796 -0.19659254 0.64752328 0.001540181 630 133
-0.055468213 -0.19728851 0.65001142 0.0016002831 633 134
-0.052673552 -0.19819275 0.65317488 0.0015024606 643 136
-0.049857739 -0.19912358 0.65641558 0.0016576262 644 137
-0.046882309 -0.19949701 0.6578083 0.001562912 654 139
-0.043901339 -0.19989759 0.65927941 0.0014606313 676 145
-0.040971164 -0.20060721 0.66175932 0.0015339457 673 144
-0.037934098 -0.20086645 0.66274303 0.0014347085 687 147
-0.034889437 -0.20112789 0.66372329 0.0014343712 702 151
-0.031833056 -0.20136601 0.66461647 0.0014074921 711 153
-0.02874862 -0.20145898 0.66501993 0.0014067409 713 154
-0.025603401 -0.20109692 0.66391098 0.0015064921 705 152
-0.022404036 -0.20015165 0.66086578 0.0013467323 798 175
-0.019340534 -0.20031232 0.66146195 0.0012491737 892 198
-0.016254963 -0.200262 0.66135144 0.0011836702 947 212
-0.013164384 -0.20011197 0.66090202 0.0012770112 933 208
-0.010081696 -0.20002697 0.66065753 0.0011915895 934 209
-0.0070044715 -0.20002328 0.66067183 0.0011902209 931 208
-0.0039258618 -0.19994332 0.66042465 0.0012259053 929 207
-0.00084981171 -0.19988662 0.66024482 0.0012387512 873 193
0.002225738 -0.19994168 0.66042447 0.0012898445 808 177
0.0053229667 -0.20075047 0.66308421 0.0014300091 743 161
0.0084346831 -0.2013111 0.66491473 0.0015031009 695 149
0.011527174 -0.20123498 0.6646322 0.0014628103 673 144
0.014596833 -0.20087691 0.66340888 0.0014685825 667 142
0.017633442 -0.20026858 0.66134959 0.0015301104 635 134
0.020670583 -0.19984639 0.65989536 0.001561505 619 130
0.023688762 -0.19937389 0.65826529 0.0015653123 604 127
0.026479147 -0.19731228 0.65137964 0.001579743 589 123
0.029318377 -0.19600126 0.646963 0.0016426375 577 120
0.032285817 -0.19571194 0.64590967 0.0016181215 568 118
0.03492238 -0.19363737 0.63895512 0.0016199715 569 118
0.037690517 -0.19256106 0.63528627 0.0018022635 562 116
0.040335018 -0.19105601 0.63019383 0.0017946123 546 112
0.042964809 -0.18969043 0.62555289 0.0018415365 551 113
nan nan nan 0 568 118
nan nan nan 0 640 136
0.045762233 -0.16784254 0.55308247 0.0013475879 761 166
0.047646254 -0.16541931 0.54493898 0.0013598885 745 162
nan nan nan 0 400 76
0.062509716 -0.19607812 0.64552522 0.0025348146 317 55
0.067204744 -0.20110136 0.66183114 0.0018344077 491 99
0.070703752 -0.20226102 0.66540098 0.0018865225 524 107
0.07384403 -0.20233999 0.66539991 0.0016652317 543 111
0.077183679 -0.20293675 0.66708612 0.0016351324 561 116
0.080291815 -0.20290209 0.66668117 0.0016674289 534 109
0.083314441 -0.20266199 0.66558617 0.0016703166 540 111
0.086770803 -0.20345625 0.6678713 0.0017808119 488 98
0.089896105 -0.20344593 0.66749811 0.0017771923 520 106
0.09314952 -0.2037165 0.66802907 0.0019562573 520 106
0.09621238 -0.20356631 0.66716278 0.0017834767 565 117
0.099393338 -0.20366754 0.66710305 0.0017619306 523 107
0.10251226 -0.2036394 0.66660094 0.0018271022 528 108
0.10543562 -0.20323597 0.66485268 0.0017236477 557 115
0.10921347 -0.20445538 0.66839218 0.0017023471 520 106
0.11216529 -0.20410347 0.6667732 0.0018622465 557 115
0.11530746 -0.20410764 0.66629797 0.0017478213 546 112
0.11857166 -0.20432189 0.66648722 0.0016135871 573 119
0.12191929 -0.20466514 0.66707432 0.0016931719 528 108
0.12518081 -0.20485015 0.66712248 0.0016522066 549 113
0.12837081 -0.20491195 0.66674626 0.0017584786 533 109
0.13151705 -0.20490259 0.6661154 0.0019348651 511 104
0.13473932 -0.20500939 0.66583824 0.001658984 545 112
0.13807277 -0.20527656 0.66605687 0.0017068661 540 111
0.14122301 -0.20526548 0.66534734 0.0016653053 540 111
0.14434828 -0.2052194 0.6644997 0.0016623265 553 114
0.14761728 -0.20537527 0.66427994 0.001636986 561 116
0.15089743 -0.20553976 0.66406113 0.0018991808 513 104
0.15432902 -0.20589958 0.66444522 0.0016231787 562 116
0.15754882 -0.20596805 0.66386086 0.0016347467 557 115
0.16112466 -0.20649007 0.66470897 0.0017113094 543 111
0.16383746 -0.2059073 0.66197389 0.001831985 538 110
0.16710955 -0.20603618 0.66150123 0.0018080155 563 116
0.17044979 -0.20624271 0.66124892 0.0016134887 576 120
0.17404406 -0.20674346 0.66190922 0.0017693903 542 111
0.17770535 -0.20730442 0.66272992 0.0017006533 525 107
0.18099718 -0.20742226 0.66210341 0.0019034389 524 107
0.18420494 -0.20744124 0.66113371 0.0016730938 544 112
0.18808088 -0.20819932 0.662489 0.0018230064 528 108
0.19146863 -0.20840056 0.6620416 0.0017451264 542 111
0.19500916 -0.2087588 0.66206473 0.0017932587 553 114
0.19846626 -0.20901754 0.66174477 0.0016130576 574 119
0.20175712 -0.20909573 0.66082817 0.0016606557 557 115
0.20543602 -0.20956735 0.66113037 0.0017713087 585 122
0.20909376 -0.21000311 0.66129452 0.0015625844 595 124
0.21292213 -0.21059439 0.66192442 0.0015966438 591 123
0.21652086 -0.21094419 0.66177452 0.0018248622 556 115
0.21981217 -0.21098864 0.66065115 0.001831488 557 115
0.2230394 -0.21097112 0.65932423 0.0016524238 546 112
0.22755758 -0.21215771 0.66174698 0.0017191451 563 116
0.23107244 -0.21238858 0.66117734 0.0016061928 570 118
0.23456007 -0.21258831 0.66051006 0.0016586513 541 111
0.23833671 -0.21304087 0.66063094 0.001693839 528 108
0.24202406 -0.21340239 0.66047585 0.0019718925 517 105
0.2458256 -0.21385364 0.66061038 0.0017438193 499 101
0.24944624 -0.21413767 0.66024649 0.0017976091 497 100
0.25265226 -0.21406297 0.658804 0.0019713631 500 101
0.25631693 -0.21437383 0.6585815 0.0018976709 492 99
0.26007372 -0.21475282 0.65860575 0.0018303168 469 93
0.26386645 -0.21515164 0.65873432 0.0019045211 434 84
0.26762739 -0.21551494 0.65880466 0.001901561 442 86
0.27134195 -0.21583247 0.65879226 0.0022126506 434 84
0.27519584 -0.21625182 0.65915424 0.0021606849 411 79
0.2790392 -0.21665297 0.65953022 0.0023749529 373 69
0.28226712 -0.21657246 0.65851682 0.0022503058 395 75
0.28557009 -0.21655074 0.65776592 0.0022784767 372 69
0.28859577 -0.21632166 0.65647346 0.0024705252 357 65
0.29189381 -0.21629964 0.65590149 0.0022985975 337 60
0.29686576 -0.21750453 0.65914237 0.0031493374 216 30
0.29961631 -0.21707316 0.65752071 0.0076428293 71 0
0.30187953 -0.21630208 0.65497082 0.0052440674 114 5
0.30442432 -0.21574742 0.65317762 0.0028485176 244 37
0.30819851 -0.2160666 0.65413105 0.0027417105 283 47
0.31224546 -0.21656811 0.65573764 0.0032353546 268 43
0.3158662 -0.21676663 0.65652788 0.0033245517 255 40
0.31812739 -0.21603763 0.65460813 0.0028591068 248 38
0.32203522 -0.2164304 0.65618557 0.0033090513 261 41
0.32550141 -0.2165214 0.65694565 0.002904444 245 37
0.32879755 -0.21649851 0.65745521 0.0033037784 220 31
0.33093038 -0.21571785 0.65575361 0.0030359128 231 34
0.33276981 -0.21476331 0.65360749 0.0035136745 221 32
0.33621174 -0.21485156 0.65471882 0.0037707533 205 28
0.3394919 -0.21483579 0.65559769 0.0033023523 202 27
0.34248382 -0.21463962 0.65600646 0.0036582015 207 28
0.34560436 -0.21452706 0.65674794 0.0042110132 186 23
-0.39319485 -0.21277688 0.68137789 0.0056486009 118 6
-0.38830358 -0.21192175 0.67694277 0.0059733666 131 9
-0.38634491 -0.21266617 0.67757875 0.0050661382 135 10
-0.38476276 -0.21363252 0.67890805 0.0046188175 133 10
-0.38311195 -0.21457738 0.68017799 0.0045902445 143 12
-0.38211948 -0.21591088 0.682702 0.004093471 157 16
-0.37895021 -0.2160272 0.68141544 0.0054182657 145 13
-0.37564164 -0.2160655 0.67993748 0.0042355345 149 14
-0.37241954 -0.21615471 0.67867905 0.0047291224 163 17
-0.3680622 -0.21558057 0.67540479 0.0040026391 157 16
-0.36514679 -0.21584821 0.67483658 0.0039707012 165 18
-0.36235252 -0.21619312 0.67457569 0.003763295 172 19
-0.36015868 -0.21690615 0.67552984 0.0036001639 181 22
-0.35812932 -0.2177327 0.67690444 0.0037269604 177 21
-0.35529569 -0.21808146 0.67686653 0.0043234965 191 24
-0.34989366 -0.21684518 0.67199534 0.0036067171 186 23
-0.34868157 -0.21820682 0.67525959 0.0035300099 190 24
-0.34643328 -0.2189405 0.6766597 0.0034439941 191 24
-0.34235039 -0.21851783 0.67457575 0.0037863262 195 25
-0.33789966 -0.21784949 0.67183083 0.0035273549 215 30
-0.33358142 -0.21725382 0.66940963 0.0034719973 235 35
-0.32954717 -0.21683276 0.66762722 0.0033234209 258 41
-0.32582387 -0.21660969 0.66655576 0.0025308873 289 48
-0.32132399 -0.21586022 0.66396737 0.0024064349 316 55
-0.31646127 -0.2148485 0.6606769 0.0023501718 326 58
-0.31310979 -0.21485214 0.66061258 0.002524446 316 55
-0.30968785 -0.21480697 0.66050172 0.0024726056 323 57
-0.30645645 -0.21489435 0.66090196 0.0025504949 314 55
-0.30262578 -0.21455888 0.66010398 0.0024489544 307 53
-0.29912466 -0.21445212 0.66011035 0.0023788144 327 58
-0.29610011 -0.21468848 0.66127247 0.0025351017 336 60
-0.29220074 -0.21428873 0.6605711 0.0022450692 347 63
-0.2886574 -0.21414378 0.66074687 0.0020670018 387 73
-0.28461546 -0.21362126 0.65984428 0.0020600148 434 84
-0.28052825 -0.2130519 0.65887737 0.0019159069 473 94
-0.27695811 -0.21286632 0.65917313 0.0017192299 509 103
-0.27368832 -0.21290989 0.66025072 0.0017189413 516 105
-0.27061847 -0.21311194 0.661888 0.0016672995 545 112
-0.26753888 -0.21331127 0.66357952 0.0017788406 563 116
-0.26476777 -0.21376471 0.66611934 0.001585199 587 122
-0.26177597 -0.21404928 0.66818428 0.0015986813 614 129
-0.25993398 -0.21529356 0.67329496 0.001512248 632 134
-0.25687516 -0.21554939 0.67535782 0.0016261366 626 132
-0.25345105 -0.2155014 0.67649829 0.001525264 631 133
-0.2498188 -0.21527277 0.67709202 0.0015933003 670 143
-0.24459173 -0.21364488 0.67328948 0.0015778017 673 144
-0.24098659 -0.21340823 0.67387044 0.0015087617 633 134
-0.23739211 -0.21317455 0.67446327 0.0015146786 630 133
-0.23370712 -0.21285178 0.67477143 0.0017200966 604 127
-0.22906421 -0.21163464 0.67223108 0.0015703447 594 124
-0.22596096 -0.21182522 0.67414826 0.001692672 560 116
-0.22191519 -0.21112476 0.67321551 0.0016800832 562 116
-0.21813966 -0.21066414 0.67302638 0.0015963023 584 122
-0.2144735 -0.21029665 0.67311305 0.0017097099 520 106
-0.21058957 -0.20970085 0.67244422 0.0017623095 536 110
-0.20700975 -0.20939383 0.67267483 0.0018813964 540 111
-0.2034315 -0.20907861 0.67285299 0.0016976198 524 107
-0.19982633 -0.20872495 0.67287928 0.0018180421 542 111
-0.1964858 -0.20864058 0.67374587 0.0018576971 524 107
-0.19281828 -0.20820028 0.67343396 0.001742543 550 113
-0.18936712 -0.20798248 0.67381108 0.00169686 524 107
-0.18573537 -0.20755532 0.6734789 0.0016651307 538 110
-0.1821117 -0.2071221 0.67309475 0.0018373958 547 112
-0.17856079 -0.2067575 0.67290139 0.0017521488 558 115
-0.17496213 -0.20632315 0.67244893 0.0016538483 549 113
-0.17137387 -0.20588496 0.67195141 0.0017541116 534 109
-0.16797176 -0.20565796 0.67211205 0.0016525033 542 111
-0.16481219 -0.20572487 0.67320406 0.0017684322 535 109
-0.16103651 -0.20501001 0.67170763 0.0016692814 544 112
-0.15727636 -0.2042864 0.67014885 0.0016871416 539 110
-0.1540186 -0.20419882 0.67064637 0.0018081677 524 107
-0.15077528 -0.20412712 0.67116851 0.0016413844 559 115
-0.14733468 -0.20377944 0.67075545 0.0017180962 564 117
-0.14403333 -0.20361327 0.67091203 0.0016652236 546 112
-0.14065902 -0.20333411 0.6706695 0.0018098797 569 118
-0.13770241 -0.20365983 0.67239743 0.0017702127 575 119
-0.13399747 -0.20286803 0.67040986 0.0016311806 564 117
-0.13030341 -0.20205472 0.66832262 0.001675394 551 113
-0.12636144 -0.20080703 0.66476965 0.0016675888 540 111
-0.12116255 -0.19744752 0.65419012 0.0015817138 591 123
nan nan nan 0 606 127
nan nan nan 0 773 169
-0.092742182 -0.16363198 0.54339343 0.001106447 1053 238
-0.090679847 -0.16452867 0.54675353 0.0011662168 1034 233
-0.089850813 -0.16778067 0.55793399 0.0012921119 894 199
-0.091088273 -0.17520288 0.58298874 0.0015435161 710 153
-0.090626307 -0.17971499 0.59836894 0.0016503519 643 136
-0.089752175 -0.18367219 0.61190188 0.001749791 618 130
-0.087916106 -0.18585715 0.61952639 0.001601284 612 129
-0.085083157 -0.18601203 0.62037212 0.0015431523 617 130
-0.082612321 -0.18699752 0.62397456 0.0015541662 606 127
-0.080035985 -0.18780769 0.62697995 0.0015418311 615 129
-0.077584118 -0.18898275 0.63119149 0.0016418346 610 128
-0.075149454 -0.1902943 0.63584828 0.0015427181 620 131
-0.072482385 -0.19110119 0.63880754 0.0016508771 605 127
-0.069751211 -0.19180116 0.64139766 0.0015538962 606 127
-0.067291819 -0.19334483 0.64679849 0.0015328367 616 130
-0.06435363 -0.19359325 0.64785534 0.0016871189 631 133
-0.061670862 -0.19467247 0.65168101 0.0016695549 623 131
-0.058497984 -0.19423628 0.65042192 0.0017171097 644 137
-0.055805035 -0.19543312 0.65461957 0.0016945783 645 137
-0.052886628 -0.19593325 0.65647322 0.001476147 652 139
-0.049942508 -0.19639368 0.65818292 0.0014538739 676 145
-0.046965644 -0.19677722 0.65962428 0.0016385391 663 141
-0.044043932 -0.19746175 0.66206419 0.0014521158 686 147
-0.04097271 -0.19752865 0.66242272 0.0014528714 705 152
-0.037928227 -0.19774581 0.66327471 0.0014053559 715 154
-0.034854729 -0.19783683 0.66369313 0.0013745809 733 159
-0.031761963 -0.19782554 0.6637581 0.0013884619 725 157
-0.028568076 -0.1971141 0.66146356 0.0013645358 739 160
-0.025447821 -0.19680017 0.66049236 0.0013331032 854 189
-0.022370867 -0.19678088 0.66050011 0.0012498824 907 202
-0.019338079 -0.19720578 0.66198939 0.0012223783 916 204
-0.016253743 -0.19716646 0.66191089 0.0012014301 945 211
-0.013165046 -0.19704343 0.66154206 0.0011821655 949 212
-0.010083971 -0.19699429 0.66141182 0.0012436628 915 204
-0.0070035192 -0.19691946 0.66118604 0.0012843579 936 209
-0.0039287242 -0.19701104 0.66150969 0.0011838644 944 211
-0.0008503159 -0.19692841 0.66123956 0.0012165947 903 201
0.0022258286 -0.19687389 0.66105437 0.0012266968 887 197
0.0053018006 -0.19687621 0.66105086 0.0013999564 808 177
0.0084264884 -0.19802167 0.66487646 0.001403918 733 159
0.011545713 -0.19845797 0.66631156 0.00143319 686 147
0.014641368 -0.19839019 0.66604471 0.0015917328 666 142
0.017710183 -0.19804592 0.66484052 0.0014930611 649 138
0.020699013 -0.19704269 0.66141486 0.0015010335 641 136
0.02372434 -0.19660166 0.65986723 0.0016571147 617 130
0.026700027 -0.19589752 0.65742755 0.0016621673 607 127
0.029538484 -0.19443493 0.65243328 0.0015849601 590 123
0.032390822 -0.19332796 0.64862382 0.0016816373 585 122
0.034916166 -0.19062462 0.63945049 0.00172623 580 121
0.037807506 -0.19018732 0.63787025 0.0017953368 569 118
0.040278476 -0.1878532 0.62991965 0.0016422193 563 116
0.043117926 -0.18743794 0.6283952 0.00165464 552 114
0.045238547 -0.18414944 0.6172303 0.0017383028 556 115
nan nan nan 0 580 121
nan nan nan 0 702 151
0.047902402 -0.16375019 0.54842502 0.0013138199 838 185
0.050293043 -0.16320583 0.54643863 0.0013612891 751 163
nan nan nan 0 327 58
0.065971591 -0.19437444 0.65036982 0.0024231859 356 65
0.070304148 -0.198024 0.66234416 0.0019264029 494 99
0.073487796 -0.19826619 0.66290325 0.0018418327 537 110
0.076811291 -0.19885083 0.66459221 0.0016820552 536 110
0.08014477 -0.19941488 0.66619605 0.0016416973 558 115
0.083320171 -0.19955808 0.66637802 0.0016454763 553 114
0.086601496 -0.1999355 0.66732562 0.0017490815 502 101
0.089758351 -0.20000929 0.66724336 0.0018701361 524 107
0.092828833 -0.1998921 0.66650754 0.0016888012 531 109
0.096149825 -0.20030446 0.66751999 0.001708539 526 107
0.09931349 -0.20037338 0.6673696 0.0019040732 523 107
0.10239737 -0.20028202 0.66666752 0.0017000892 530 108
0.10550062 -0.20023286 0.66608787 0.0016121644 574 119
0.10868581 -0.20033753 0.66600078 0.0016674532 545 112
0.11212341 -0.20088863 0.66737688 0.0016656037 543 111
0.11517 -0.20072819 0.66636825 0.0017447856 574 119
0.11839943 -0.20088652 0.66639733 0.0016168326 568 118
0.1216457 -0.20106448 0.66646951 0.0016072923 575 119
0.12469836 -0.20092149 0.66545618 0.0015882279 584 122
0.12808204 -0.20130584 0.66616637 0.0016390183 563 116
0.13134247 -0.20148268 0.66616565 0.0019555187 516 105
0.13450214 -0.2015003 0.66561455 0.001738964 559 115
0.13766304 -0.20151888 0.6650427 0.0016706315 559 115
0.14078085 -0.20147501 0.66424048 0.0016321307 558 115
0.14414994 -0.20178479 0.66457844 0.0016521054 551 113
0.14738527 -0.20189805 0.66424233 0.0018451328 527 108
0.15066026 -0.20205976 0.66403878 0.0016597316 548 113
0.15411004 -0.20244449 0.66453981 0.0016888287 527 108
0.15759395 -0.20285763 0.66510451 0.0016564014 554 114
0.160439 -0.20244837 0.66294563 0.001837259 567 117
0.16361548 -0.20246503 0.66215569 0.0016447559 561 116
0.1669023 -0.20261504 0.6617735 0.0018272133 551 113
0.17034006 -0.20293927 0.66193062 0.0016768731 532 109
0.17368333 -0.20314112 0.66165829 0.0016275012 561 116
0.17707813 -0.20339493 0.66152495 0.0016379585 562 116
0.18060037 -0.20378362 0.66179943 0.0017573525 544 112
0.18413764 -0.20417546 0.66205245 0.0017946293 535 109
0.18760432 -0.20447704 0.66198206 0.0016785943 544 112
0.19107811 -0.20477614 0.6618734 0.0016573557 551 113
0.19483553 -0.20536436 0.66266805 0.0016335514 554 114
0.19791912 -0.20523475 0.66111857 0.0016057721 572 119
0.20142831 -0.20554356 0.66095585 0.001651994 552 114
0.20505489 -0.20596065 0.66111398 0.001647738 573 119
0.20879433 -0.20647644 0.66156173 0.001589085 575 119
0.21249422 -0.20693797 0.66180998 0.001587213 586 122
0.21574713 -0.20695694 0.66062236 0.0015764247 607 127
0.21906655 -0.20703818 0.65961754 0.0015839369 588 123
0.22256683 -0.20728551 0.6591273 0.0016268921 566 117
0.2267769 -0.20817736 0.66067004 0.0017073565 543 111
0.23074122 -0.20882154 0.66141176 0.0016211717 572 119
0.23432076 -0.2091044 0.66100144 0.0017103184 557 115
0.23839034 -0.20981075 0.66192657 0.0016835734 532 109
0.24190719 -0.21001808 0.66127884 0.0019017522 515 105
0.24533443 -0.2101431 0.66038299 0.0016808601 535 109
0.24879284 -0.21029121 0.65957618 0.0017720127 513 104
0.25227088 -0.21045177 0.65883076 0.0017380574 509 103
0.25556219 -0.21045446 0.65762073 0.0017855891 493 99
0.25946352 -0.21095304 0.65799421 0.00199496 476 95
0.26332423 -0.21140654 0.65826511 0.0018155004 473 94
0.2672911 -0.21193296 0.65880817 0.0018640719 456 90
0.27123094 -0.21242529 0.65929699 0.0019896321 439 86
0.27478716 -0.21260892 0.65888774 0.0019550342 427 83
0.27823389 -0.21270446 0.65827382 0.0019801203 414 79
0.28185454 -0.21292913 0.65813375 0.0023015214 412 79
0.28503865 -0.21282266 0.65705067 0.0020139152 405 77
0.28821638 -0.2127139 0.65604711 0.0021416165 369 68
0.2912361 -0.2124923 0.65478683 0.0021701104 357 65
0.29602611 -0.21355285 0.65756917 0.002634174 282 47
0.29999405 -0.21400331 0.65856701 0.0048970859 127 8
0.30304235 -0.21379501 0.65763718 0.0069533563 84 0
0.30529851 -0.2130385 0.65512323 0.004249624 189 24
0.3090187 -0.2133089 0.65587026 0.002578761 281 46
0.31210029 -0.21313742 0.65536112 0.0027557642 281 46
0.31478763 -0.21270317 0.65414619 0.0027247583 262 42
0.3181628 -0.21273792 0.65447533 0.0026396683 280 46
0.32192644 -0.213029 0.65569407 0.0027004683 267 43
0.32489496 -0.21279337 0.65539086 0.0028865007 247 38
0.32779908 -0.21252072 0.65506971 0.0028030446 252 39
0.33060127 -0.21218812 0.65465719 0.0028821719 248 38
0.33326513 -0.21177424 0.65408403 0.0030910848 226 33
0.33629102 -0.21159628 0.65432698 0.0030831539 224 32
0.34006226 -0.21188621 0.65610445 0.003213631 216 30
0.34308144 -0.2117065 0.65651238 0.0034011116 200 26
0.3461054 -0.2115331 0.65701944 0.003678096 196 25
-0.39661357 -0.21127367 0.68638581 0.0057849805 130 9
-0.38867885 -0.20881236 0.67665589 0.0045484342 137 11
-0.38657859 -0.20947017 0.67703259 0.0045211529 140 11
-0.38456717 -0.21018788 0.6776067 0.0046396195 130 9
-0.38285047 -0.21108072 0.67876601 0.0043391488 145 13
-0.38177198 -0.21234427 0.6811462 0.0041394345 150 14
-0.37911025 -0.21274187 0.68078935 0.004403282 158 16
-0.37580198 -0.21278054 0.67933941 0.0045716702 155 15
-0.37149137 -0.21224725 0.6761297 0.0043054242 166 18
-0.36794102 -0.21214254 0.67435569 0.0039271596 163 17
-0.36523634 -0.21252796 0.67420691 0.0039076395 166 18
-0.36347795 -0.21347636 0.67590773 0.004412041 168 18
-0.3601813 -0.21353064 0.67484677 0.0042175334 182 22
-0.35723203 -0.21379389 0.67452288 0.0042556338 188 23
-0.35350341 -0.21359128 0.6728102 0.0041451459 196 25
-0.35070741 -0.21395369 0.67296106 0.0036092622 184 22
-0.34902832 -0.21501122 0.67537987 0.003329969 202 27
-0.34701928 -0.2158844 0.67730266 0.0035613896 211 29
-0.34332004 -0.21571301 0.67603958 0.0030932436 221 32
-0.33812508 -0.21458893 0.67189163 0.0037802258 215 30
-0.33448625 -0.21443959 0.67089814 0.0034466698 222 32
-0.33087385 -0.21430428 0.67005014 0.0032751786 251 39
-0.32564566 -0.21310884 0.6659925 0.0029448855 279 46
-0.32133621 -0.21249576 0.66386116 0.0029593143 295 50
-0.31726798 -0.21203093 0.66229856 0.0027025698 338 61
-0.31362325 -0.21184218 0.66170388 0.0023336872 326 58
-0.31023085 -0.21182162 0.66173977 0.0022707335 340 61
-0.30653122 -0.21158856 0.66121608 0.002253603 370 69
-0.30296773 -0.21144532 0.66107631 0.0024974081 382 72
-0.29975358 -0.21154545 0.66179895 0.0020348786 400 76
-0.29636338 -0.21152216 0.66223478 0.0019764539 420 81
-0.29267642 -0.21128412 0.6620934 0.001877955 453 89
-0.28879243 -0.21089672 0.66157389 0.0019431108 466 92
-0.28502709 -0.21058781 0.66138554 0.001832349 485 97
-0.28142959 -0.21039709 0.66164845 0.0017701738 489 98
-0.277551 -0.2099891 0.66130149 0.0017333314 510 103
-0.27427924 -0.21003595 0.6624555 0.0017327708 517 105
-0.27089748 -0.20999862 0.66340774 0.0016373624 565 117
-0.26796088 -0.21030979 0.66551942 0.0016518825 576 120
-0.26523152 -0.21079351 0.66823173 0.0017823997 586 122
-0.26326811 -0.21190609 0.67299044 0.0015610226 601 126
-0.26046783 -0.21236512 0.6757198 0.0016185115 613 129
-0.25687701 -0.21218322 0.67644185 0.0015264904 621 131
-0.25233087 -0.21119687 0.6746161 0.0014313672 689 148
-0.24781694 -0.21021132 0.67279816 0.0015335846 712 153
-0.24392828 -0.20973651 0.67261773 0.0016221091 645 137
-0.2404708 -0.20962442 0.6736033 0.0015171585 625 132
-0.23689969 -0.20940872 0.67425555 0.001547489 602 126
-0.23317559 -0.20904973 0.67444009 0.0017207229 592 124
-0.22946167 -0.20868962 0.6746096 0.0017286688 576 120
-0.22470632 -0.20735796 0.67161703 0.0018129217 591 123
-0.22114973 -0.20710932 0.67210865 0.0015989378 573 119
-0.21769585 -0.20695084 0.6728738 0.001546297 614 129
-0.21415016 -0.20669894 0.6733138 0.0016347712 555 114
-0.2105397 -0.20637566 0.67349643 0.0016387376 571 118
-0.2068879 -0.20600098 0.67348456 0.0016999327 527 108
-0.20323449 -0.20561269 0.67339915 0.0016517491 548 113
-0.19969834 -0.20533228 0.67363745 0.001644043 552 114
-0.19581576 -0.20468043 0.67262548 0.0016634228 550 113
-0.19227161 -0.20436636 0.67269075 0.0016350939 560 116
-0.18883979 -0.20416288 0.67308927 0.0018526904 552 114
-0.18552113 -0.20407683 0.67384487 0.0016225635 562 116
-0.18189704 -0.20364578 0.67343009 0.0017787397 565 117
-0.17805797 -0.20295407 0.67211902 0.0016117215 581 121
-0.17444891 -0.20250385 0.67157328 0.0016610865 556 115
-0.17086934 -0.20207159 0.67105448 0.0017213607 530 108
-0.16754897 -0.20193528 0.67148703 0.0018552655 528 108
-0.16446352 -0.20208223 0.67283338 0.0018833776 533 109
-0.16095684 -0.20170717 0.67241263 0.0017073653 543 111
-0.15708514 -0.20085016 0.67035264 0.0018778207 543 111
-0.15357623 -0.20043115 0.66972238 0.0016967909 529 108
-0.15038961 -0.20042391 0.67043948 0.0016840801 560 116
-0.14721406 -0.20043142 0.67117965 0.0016351898 566 117
-0.14397705 -0.20035377 0.67160851 0.0016936543 539 110
-0.1407806 -0.20033029 0.67219329 0.0017278134 547 112
-0.13706577 -0.19955103 0.67021507 0.0016674986 565 117
-0.13376871 -0.19935755 0.67017674 0.0016235252 563 116
-0.12923707 -0.19727018 0.66374147 0.0015756261 594 124
nan nan nan 0 585 122
nan nan nan 0 657 140
nan nan nan 0 849 187
-0.094992459 -0.16055779 0.54193085 0.0010769786 1098 249
-0.093536608 -0.1624552 0.54872507 0.0011019208 1075 244
-0.092861094 -0.16585392 0.56058604 0.0012475642 867 192
-0.09395317 -0.17270003 0.58410573 0.0015511211 697 150
-0.093473539 -0.17698178 0.59895962 0.0017011345 644 137
-0.092758156 -0.18106864 0.61315471 0.0016898211 611 128
-0.090623409 -0.18255758 0.61854696 0.0015606623 608 128
-0.088009812 -0.18314838 0.62088406 0.0016425999 610 128
-0.085412957 -0.18381558 0.62346667 0.0015502822 613 129
-0.082709745 -0.184293 0.62539226 0.0015395035 615 129
-0.080847472 -0.18674789 0.63401812 0.0016622355 610 128
-0.078245215 -0.18761531 0.637245 0.0016135444 609 128
-0.07560958 -0.18846816 0.64041048 0.001530768 627 132
-0.07271491 -0.18871897 0.64151806 0.001634564 624 132
-0.070238173 -0.19012263 0.64653307 0.0016659199 622 131
-0.06733986 -0.19045992 0.64791083 0.001653622 632 134
-0.064627461 -0.19137952 0.65125787 0.0015479547 631 133
-0.061726626 -0.19180423 0.65290982 0.0015119609 637 135
-0.058890287 -0.19248383 0.65541834 0.0014917495 651 138
-0.055954833 -0.19289613 0.65700573 0.0015135589 663 141
-0.05297634 -0.19319922 0.65821016 0.0015307341 674 144
-0.049998794 -0.19354318 0.65954304 0.0015462333 684 146
-0.047125608 -0.19436258 0.66248602 0.0014627851 696 149
-0.044048619 -0.19439736 0.6627441 0.0014164641 710 153
-0.040996995 -0.19455777 0.66342026 0.0014019168 724 156
-0.037901834 -0.19452086 0.66341323 0.0013751383 743 161
-0.034753412 -0.19417979 0.66235834 0.0013897823 725 157
-0.031558935 -0.19349001 0.66010356 0.0013369255 765 167
-0.028468603 -0.19335882 0.6597445 0.0011927757 931 208
-0.025417062 -0.19349128 0.66027534 0.0012194698 944 211
-0.022375384 -0.19374552 0.6612125 0.0012131905 931 208
-0.019297786 -0.19372021 0.66118658 0.0012134798 919 205
-0.016235713 -0.19387069 0.66175139 0.0012035799 920 205
-0.013160341 -0.19389559 0.66187865 0.0011822573 950 213
-0.010079449 -0.19382957 0.6616866 0.0011619135 981 220
-0.0070035881 -0.19384477 0.66176289 0.0012177806 922 206
-0.0039271843 -0.19385697 0.66182023 0.0012815135 921 205
-0.00085024623 -0.19383579 0.66175467 0.0011957246 931 208
0.0022228705 -0.19354042 0.66074443 0.0013131975 914 204
0.0052962219 -0.19359638 0.66092461 0.0012152981 899 200
0.0083698547 -0.19361772 0.66097802 0.0013697197 806 177
0.011543473 -0.19531943 0.66675884 0.0014072935 713 154
0.014651376 -0.19542408 0.66707826 0.001468261 680 145
0.017725401 -0.19511925 0.66599119 0.0014581665 677 145
0.020737082 -0.19432087 0.66321069 0.0014944734 647 137
0.023755485 -0.19378407 0.66131407 0.0016831618 627 132
0.026727943 -0.19303851 0.65869629 0.0015398855 613 129
0.029657282 -0.19216689 0.65563953 0.0016040823 595 124
0.032555118 -0.19127275 0.65249711 0.0015728869 597 125
0.035299253 -0.18970513 0.64704883 0.0015957264 581 121
0.037973709 -0.18803889 0.64125627 0.001596056 582 121
0.040540528 -0.18612133 0.63459891 0.0016153326 577 120
0.043315787 -0.18535614 0.63186234 0.001631399 563 116
0.046100385 -0.18472575 0.62957603 0.0018690601 551 113
0.048357371 -0.18218301 0.62076414 0.001648897 555 114
nan nan nan 0 605 127
nan nan nan 0 696 149
0.050884884 -0.16254655 0.55340773 0.0012948731 812 178
0.05292457 -0.16090415 0.54764831 0.0014056172 705 152
nan nan nan 0 321 56
0.069047078 -0.19144469 0.65115863 0.0023382001 371 69
0.073131151 -0.19422135 0.66036165 0.0019369525 517 105
0.076279864 -0.19438976 0.66067904 0.0016215286 566 117
0.079923965 -0.19575846 0.6650598 0.0016592445 549 113
0.08312688 -0.19598451 0.66554153 0.0017382184 551 113
0.08639504 -0.19634257 0.66645557 0.0018571557 556 115
0.089640491 -0.19662589 0.6670993 0.0018359729 518 105
0.092602596 -0.19628948 0.66562456 0.0017137788 518 105
0.095684826 -0.19622138 0.66504371 0.0017221965 539 110
0.099238016 -0.19709291 0.66762888 0.0016966083 528 108
0.10232549 -0.19701445 0.66697729 0.0016571502 544 112
0.10536596 -0.19685289 0.66602659 0.001746984 569 118
0.10853395 -0.19693199 0.66587168 0.0017718455 548 113
0.11171209 -0.19702454 0.66574275 0.0016354583 563 116
0.11509472 -0.19746293 0.66676128 0.0017358079 579 120
0.11795799 -0.19701064 0.66475219 0.0015838894 585 122
0.12116895 -0.1971474 0.66471064 0.0016545493 612 129
0.12446998 -0.19742015 0.6651051 0.0016474824 593 124
0.12788817 -0.19786076 0.6660412 0.0016236556 563 116
0.13105309 -0.19789781 0.665595 0.0017663175 557 115
0.13422903 -0.19794935 0.66517407 0.001832585 558 115
0.13737428 -0.19795431 0.66457289 0.0016769936 571 118
0.14052552 -0.19796751 0.66397512 0.0017729542 557 115
0.14375916 -0.19809365 0.6637308 0.0018031043 549 113
0.14714068 -0.19841386 0.66411 0.0016898853 560 116
0.15013546 -0.19820999 0.662709 0.0017998207 578 120
0.15338859 -0.19834863 0.66242707 0.0016486048 558 115
0.15710232 -0.19906528 0.66404569 0.0016727055 548 113
0.16046509 -0.19931775 0.66408473 0.0016423533 560 116
0.16365802 -0.19935361 0.66337341 0.0017435914 560 116
0.16659586 -0.19908321 0.66161638 0.0018459734 571 118
0.16996078 -0.19932379 0.66152924 0.0017724282 554 114
0.17345096 -0.19969974 0.66186059 0.0016543401 559 115
0.17703944 -0.20017342 0.66248316 0.0018083253 552 114
0.18041827 -0.20039746 0.66224808 0.0018953312 551 113
0.18367492 -0.20048043 0.66151679 0.0016701161 542 111
0.18719004 -0.2008379 0.66166085 0.0017534642 545 112
0.19098286 -0.20147628 0.66269726 0.0017318876 545 112
0.19412889 -0.20142262 0.66142708 0.0016277747 560 116
0.19722882 -0.20132361 0.65998203 0.0017398631 579 120
0.20088802 -0.20178953 0.66036123 0.0015952223 581 121
0.20456159 -0.20225504 0.66070902 0.0016031086 578 120
0.2086297 -0.20309027 0.66223359 0.001591566 586 122
0.21186851 -0.20310502 0.66105586 0.0015723964 591 123
0.2152116 -0.20321783 0.66017663 0.0015851288 622 131
0.21860766 -0.20337656 0.65942734 0.0015499705 602 126
0.22221802 -0.20372717 0.65928197 0.0017815002 578 120
0.22602046 -0.20424126 0.65964818 0.0017277778 582 121
0.23032659 -0.20518957 0.66139859 0.0015705014 588 123
0.23382401 -0.20540105 0.66076148 0.0015838809 582 121
0.23700272 -0.20533054 0.65921575 0.001608684 569 118
0.24166515 -0.20652997 0.66174352 0.001673472 540 111
0.2447695 -0.20638357 0.65996116 0.0016325654 561 116
0.24839309 -0.20667306 0.65958613 0.0017204887 531 109
0.25192225 -0.20687746 0.65895641 0.0018994813 509 103
0.2553615 -0.2070037 0.65810204 0.0018056801 518 105
0.25903639 -0.20731536 0.6578669 0.0018452018 507 103
0.26317081 -0.20798233 0.65879291 0.0017477024 501 101
0.26685637 -0.20828243 0.65859741 0.0018198201 473 94
0.27090567 -0.20885564 0.6593135 0.0018941573 444 87
0.2746675 -0.20919606 0.65934992 0.001888192 443 87
0.27794904 -0.20916688 0.65828609 0.0019121441 438 85
0.28130782 -0.20919582 0.65747768 0.0020372763 397 75
0.2848269 -0.20934194 0.65711522 0.0020163648 407 78
0.28806171 -0.20927814 0.65617728 0.0020867069 387 73
0.2916804 -0.20949151 0.65619665 0.0023314769 377 70
0.29493561 -0.20944196 0.65548491 0.0023560603 317 55
0.29987606 -0.21057691 0.65857428 0.003217001 214 30
0.30354118 -0.21080117 0.65891242 0.0076112486 83 0
0.30609968 -0.21026038 0.65696186 0.0065987045 115 5
0.30788213 -0.20920393 0.65350485 0.0027592252 258 41
0.31125155 -0.20923686 0.65355545 0.0025460888 291 49
0.31495845 -0.20949358 0.65440899 0.0026127279 282 47
0.31841883 -0.20958264 0.65484256 0.0025809889 286 48
0.32153279 -0.20944425 0.65466827 0.0027114442 266 43
0.32451689 -0.20922495 0.65434217 0.0027508065 259 41
0.32750908 -0.20901528 0.65414482 0.0029444352 238 36
0.33051801 -0.20882037 0.65409023 0.0029064415 239 36
0.33379653 -0.20879793 0.65467054 0.0031595996 242 37
0.33706754 -0.20877132 0.65533 0.0029949073 231 34
0.33893311 -0.20788321 0.65337151 0.0034321444 213 30
0.34307566 -0.20839533 0.65589917 0.0033508642 201 27
0.34270412 -0.20618182 0.64992398 0.0042897938 187 23
-0.3944445 -0.20678322 0.68171245 0.0045981528 138 11
-0.38914567 -0.20574494 0.67653263 0.0044563101 141 12
-0.38691238 -0.20632347 0.67667568 0.0043241349 145 13
-0.38428643 -0.20670082 0.67617726 0.0043525859 147 13
-0.3793999 -0.20585822 0.67173314 0.0045187161 142 12
-0.37923288 -0.20758414 0.6757139 0.0042309351 149 14
-0.37820125 -0.20886326 0.6782735 0.0049340585 151 14
-0.3739529 -0.20837301 0.67514229 0.005357374 156 15
-0.37058878 -0.20837101 0.67366177 0.0040399074 159 16
-0.36788619 -0.20874435 0.67346019 0.0038693685 167 18
-0.36564061 -0.20938626 0.67418975 0.0036763747 179 21
-0.36342397 -0.2100569 0.67507797 0.004146778 170 19
-0.36071399 -0.21045235 0.67515332 0.0036781409 180 21
-0.35718545 -0.21037316 0.67378527 0.0041556605 186 23
-0.35390261 -0.21043858 0.67296433 0.0039263391 194 25
-0.35140461 -0.21097644 0.67373896 0.0031717399 213 30
-0.34935078 -0.21179409 0.67549163 0.0031672369 217 31
-0.34683207 -0.21234332 0.67647684 0.0037939246 219 31
-0.3420296 -0.21149132 0.6730957 0.0029993567 226 33
-0.33882686 -0.21162131 0.67294133 0.0030229527 228 33
-0.3356007 -0.2117392 0.6728496 0.002942702 238 36
-0.33216438 -0.21172552 0.67244357 0.0032567331 257 40
-0.32831588 -0.21144611 0.67129958 0.0030829187 265 42
-0.32264814 -0.20997685 0.66648644 0.0026789061 271 44
-0.31899706 -0.20980281 0.66589272 0.0025193724 293 49
-0.3142972 -0.20892785 0.6631816 0.0027145566 317 55
-0.31082293 -0.20885749 0.66313082 0.0026592193 337 60
-0.30728748 -0.208744 0.66304862 0.0025496718 354 65
-0.30427003 -0.20898378 0.66419309 0.0022164453 396 75
-0.30083165 -0.20893656 0.66452771 0.0022404729 421 81
-0.29694843 -0.20857587 0.66396314 0.001937256 427 83
-0.29324812 -0.20833683 0.6638791 0.001991618 450 88
-0.28915817 -0.20781225 0.66297281 0.0020027237 466 92
-0.28547782 -0.20757312 0.66305971 0.0017796824 483 97
-0.28204685 -0.20751186 0.66379297 0.0017383938 504 102
-0.27883181 -0.20760986 0.66510928 0.0017457855 500 101
-0.2746745 -0.20700018 0.66422266 0.001686963 527 108
-0.27236477 -0.20778497 0.66787195 0.0018380689 544 112
-0.27075455 -0.20912962 0.67338592 0.0017200751 563 116
-0.26714939 -0.20894788 0.67403823 0.0016866854 563 116
-0.26398012 -0.20910674 0.67582905 0.0015801945 591 123
-0.26007766 -0.20868142 0.67576247 0.0015410987 606 127
-0.25567079 -0.20783494 0.67435038 0.0014548271 664 142
-0.25150454 -0.20716417 0.67351818 0.001531727 683 146
-0.24736808 -0.20650022 0.67271292 0.001499205 674 144
-0.24359244 -0.20612343 0.67284453 0.0016760556 623 131
-0.23986174 -0.20577477 0.67306602 0.0017744447 589 123
-0.23637326 -0.20562707 0.67393976 0.0015880717 587 122
-0.23261769 -0.20523946 0.67401755 0.0015901085 593 124
-0.22855967 -0.20457 0.6731528 0.0015982233 574 119
-0.22429866 -0.20369658 0.67159367 0.0017300423 575 119
-0.22073339 -0.20343842 0.67203963 0.0015524762 605 127
-0.21722482 -0.20322551 0.6726132 0.0016928277 593 124
-0.21371362 -0.2030036 0.67313319 0.0015953708 583 121
-0.2102156 -0.20278744 0.67364663 0.0015947843 578 120
-0.20637091 -0.20222481 0.67297983 0.0016705918 568 118
-0.20266269 -0.20177995 0.67267323 0.0017577067 558 115
-0.19844538 -0.20080544 0.67056584 0.0015676731 596 125
-0.1944183 -0.19999427 0.66896605 0.0015592943 606 127
-0.19118018 -0.199981 0.67000264 0.0015782377 599 125
-0.18783921 -0.19985786 0.67064142 0.0016174588 569 118
-0.18478526 -0.20004116 0.67227978 0.0016526129 566 117
-0.18131903 -0.19977668 0.67238361 0.0016572047 556 115
-0.17772241 -0.19935638 0.67193037 0.0015944529 581 121
-0.17399459 -0.19877075 0.6708858 0.0018263559 565 117
-0.17044772 -0.19837369 0.67044407 0.0017477614 552 114
-0.16721418 -0.1983331 0.67117649 0.0019040852 533 109
-0.16404535 -0.19836915 0.67213959 0.0018379295 521 106
-0.16080934 -0.1983238 0.67279869 0.0016515398 558 115
-0.15679885 -0.19730209 0.67011362 0.0017595278 596 125
-0.15337205 -0.1969877 0.66979831 0.0016257929 568 118
-0.15001073 -0.19674592 0.66970104 0.0018022096 542 111
-0.14701597 -0.19698481 0.67121375 0.0016301118 560 116
-0.14394279 -0.19712687 0.67237204 0.0016071092 574 119
-0.14049631 -0.19675255 0.67174309 0.0017832884 574 119
-0.13605838 -0.19494048 0.66617382 0.0015910101 586 122
-0.13058935 -0.19153032 0.65510356 0.0015666786 601 126
nan nan nan 0 652 139
nan nan nan 0 716 154
-0.10125793 -0.15985462 0.54810882 0.0011391487 997 224
-0.098745272 -0.15996061 0.54888588 0.0011439678 1092 248
-0.096682221 -0.16082016 0.5522337 0.0012563077 985 221
nan nan nan 0 768 167
nan nan nan 0 690 148
-0.096623093 -0.17478882 0.60139138 0.0017121432 630 133
-0.095137499 -0.17727329 0.61030751 0.0015137418 627 132
-0.093200266 -0.17904407 0.61675876 0.0016306184 617 130
-0.090863362 -0.18013577 0.62086016 0.0015815052 613 129
-0.08845561 -0.18115449 0.6246978 0.0015401995 613 129
-0.085790895 -0.18169856 0.62688619 0.0015488663 604 127
-0.083749443 -0.18364781 0.63391173 0.0016178285 606 127
-0.081383072 -0.18500142 0.63887149 0.0016979342 602 126
-0.078340128 -0.18486148 0.63866138 0.0015747019 623 131
-0.07599321 -0.18641788 0.64429951 0.0015217465 626 132
-0.07316684 -0.18687797 0.64613771 0.0016043485 641 136
-0.070564546 -0.18797445 0.65016502 0.001495955 639 135
-0.067754872 -0.18859217 0.65252537 0.0015367873 643 136
-0.06480401 -0.1888565 0.6536516 0.0016312113 649 138
-0.061871111 -0.18920177 0.65504628 0.001660559 648 138
-0.059009023 -0.18981074 0.65734285 0.0014652892 666 142
-0.056065757 -0.19021085 0.65890551 0.0015845748 694 149
-0.053089283 -0.19053815 0.66020525 0.0014587499 697 150
-0.050288409 -0.19157459 0.66395211 0.0014271019 706 152
-0.047189452 -0.19153681 0.66396624 0.0014148816 711 153
-0.044081409 -0.19145435 0.66381449 0.0013718779 735 159
-0.041034065 -0.19164291 0.6645925 0.0014491471 740 160
-0.037671991 -0.19027258 0.65995371 0.001385105 729 158
-0.034464572 -0.18950956 0.65741038 0.0012662185 834 184
-0.031412963 -0.18953818 0.65760338 0.0011845438 942 211
-0.028422242 -0.18997999 0.65922081 0.0011650404 971 218
-0.025370913 -0.19007447 0.65962416 0.0012171422 983 221
-0.022355592 -0.19050176 0.66117364 0.0011895491 941 210
-0.019296244 -0.1906303 0.66167754 0.0011935817 922 206
-0.016206058 -0.19044511 0.66108376 0.0012560681 949 212
-0.013131098 -0.19039412 0.66094714 0.0012666801 940 210
-0.010057588 -0.19033945 0.66078913 0.0011596127 982 220
-0.0069976845 -0.19060728 0.66174251 0.0013196275 932 208
-0.0039230231 -0.190578 0.6616556 0.0011911143 931 208
-0.00084872299 -0.19041753 0.6611051 0.0011880612 944 211
0.0022224307 -0.19043092 0.66114962 0.0012134702 906 202
0.0052940841 -0.19044675 0.66119432 0.0011986666 921 205
0.0083710803 -0.19057259 0.66161251 0.001246602 866 192
0.01146479 -0.19090915 0.66275376 0.0013425269 760 165
0.014613938 -0.19183092 0.66591781 0.0014271033 713 154
0.017708736 -0.1918418 0.66591102 0.0014395416 688 147
0.020782018 -0.19165105 0.66519576 0.001481507 671 143
0.023786746 -0.19095932 0.66273302 0.0014973833 645 137
0.026780969 -0.19035156 0.66055298 0.0015337204 619 130
0.029746011 -0.18968269 0.65815246 0.0015557908 605 127
0.032661479 -0.18885191 0.65518183 0.0015617328 597 125
0.035442751 -0.18745312 0.65023202 0.0015899407 591 123
0.038149413 -0.18591063 0.64477611 0.0016212101 581 121
0.040804323 -0.18435907 0.63928097 0.0016019056 580 121
0.043599132 -0.18360744 0.63655126 0.0017212166 556 115
0.046169054 -0.18206462 0.63107026 0.0016502406 552 114
0.048862681 -0.18116494 0.62781018 0.0017139243 552 114
0.051188063 -0.17907849 0.62042964 0.0016501454 561 116
nan nan nan 0 606 127
nan nan nan 0 711 153
0.05299478 -0.15856037 0.54888737 0.0013128342 888 197
0.055263638 -0.15773733 0.5458672 0.0013406971 770 168
nan nan nan 0 324 57
0.072500318 -0.18948996 0.65530199 0.0022394911 404 77
0.075924523 -0.19041328 0.65824986 0.0017804663 528 108
0.079702906 -0.19211857 0.66388363 0.0016775738 538 110
0.083044335 -0.19268239 0.66555554 0.0016638836 548 113
0.0861618 -0.19270463 0.66534114 0.0019031521 533 109
0.089270413 -0.19270617 0.66504014 0.0016532101 547 112
0.092433624 -0.19282153 0.66511589 0.0016636396 540 111
0.095517837 -0.19276997 0.66459966 0.0018408222 556 115
0.098719321 -0.19295086 0.66486782 0.0016324214 557 115
0.10212511 -0.19350778 0.66641301 0.0016930371 528 108
0.10515828 -0.19334665 0.6654669 0.0016390448 558 115
0.10825509 -0.19330834 0.66492563 0.001802214 559 115
0.11152872 -0.19357912 0.66542804 0.0017983168 553 114
0.11478971 -0.19381385 0.66578597 0.001737994 559 115
0.11793873 -0.19385205 0.66544837 0.0017283182 600 126
0.12105054 -0.19382869 0.66487855 0.0015948203 585 122
0.1242177 -0.19389293 0.66458827 0.001596136 582 121
0.12741981 -0.19400723 0.66444713 0.0016329146 555 114
0.13067678 -0.19419755 0.66454339 0.0016170538 565 117
0.13398057 -0.19444692 0.66481757 0.0016320533 556 115
0.13715066 -0.19449529 0.66438013 0.0018359809 556 115
0.14023501 -0.19442266 0.6635052 0.0018284924 567 117
0.14347196 -0.19456011 0.66332251 0.0017692539 597 125
0.14668521 -0.1946602 0.66298676 0.0015896542 583 121
0.14978009 -0.19460234 0.66208708 0.0017893085 585 122
0.15312073 -0.19485958 0.66223276 0.0016132499 577 120
0.15665823 -0.19535197 0.66314775 0.0016172387 569 118
0.16038349 -0.19605449 0.6647442 0.0015922878 584 122
0.16340706 -0.19588865 0.66336685 0.0017997136 542 111
0.16641092 -0.19570594 0.66190559 0.0015843281 585 122
0.16970418 -0.19586401 0.66156894 0.0016654687 564 117
0.17319182 -0.19623654 0.66192561 0.0016681376 549 113
0.17671932 -0.1966401 0.66235459 0.0018334679 547 112
0.18004841 -0.19681254 0.66197348 0.0016233048 575 119
0.18285428 -0.19641696 0.65965402 0.0016202615 564 117
0.18658234 -0.19700857 0.66062021 0.0016134901 570 118
0.19019938 -0.19746512 0.66109961 0.0017947102 565 117
0.19360083 -0.19768646 0.66075963 0.001674819 589 123
0.19704534 -0.19794393 0.6605103 0.0017575183 565 117
0.20055677 -0.19825929 0.6604237 0.0016616503 582 121
0.20433879 -0.1988281 0.66115034 0.0018051168 574 119
0.20789078 -0.19915897 0.66105551 0.0016204005 590 123
0.21136275 -0.19940421 0.66064966 0.0015435815 601 126
0.21452715 -0.19935633 0.6592496 0.0016718399 617 130
0.21829984 -0.19986679 0.65967321 0.0015338366 615 129
0.22179566 -0.20011258 0.65920115 0.0015553907 637 135
0.22547954 -0.20051859 0.65923804 0.0015747877 587 122
0.22980474 -0.20147532 0.66106486 0.0016640045 590 123
0.23339823 -0.20177285 0.6607126 0.0016811771 602 126
0.23656747 -0.20170049 0.65914351 0.0015274113 624 132
0.23974496 -0.201637 0.65760434 0.0017610319 585 122
0.24364625 -0.20217583 0.65803152 0.0018010155 539 110
0.2480792 -0.20313576 0.65982968 0.0016614458 536 110
0.25151753 -0.20326683 0.65894443 0.0017442812 525 107
0.2549637 -0.20340082 0.6580888 0.0018116998 511 104
0.25895804 -0.20396316 0.65864313 0.0016890969 525 107
0.26295191 -0.20451103 0.65917861 0.0018980333 509 103
0.26673251 -0.2048815 0.65917885 0.0017934138 479 96
0.2699163 -0.20479009 0.65774012 0.0018643549 453 89
0.27361298 -0.20508531 0.6575979 0.0019604403 437 85
0.27747542 -0.20549625 0.65788543 0.0020849439 423 82
0.2812193 -0.20581073 0.6579299 0.0022380375 404 77
0.28468949 -0.20591989 0.65739167 0.0022740355 402 76
0.28823194 -0.20607825 0.65709066 0.0020730549 393 74
0.29147604 -0.20602204 0.65619218 0.0023476544 367 68
0.29509312 -0.20622779 0.65621901 0.0022418576 352 64
0.29895729 -0.20659973 0.6568687 0.0026297607 275 45
0.3026329 -0.2068346 0.65718043 0.0044940817 138 11
0.30601785 -0.20686786 0.6569531 0.0076082661 83 0
0.30755624 -0.20566557 0.65290737 0.0038153226 170 19
0.31009674 -0.2051519 0.65115398 0.003067936 279 46
0.31346247 -0.20518927 0.65125495 0.0024339601 304 52
0.31835124 -0.20621243 0.65459019 0.0025565706 287 48
0.32152262 -0.20611349 0.6544686 0.0029073949 271 44
0.32448545 -0.20588425 0.6540367 0.0032888232 264 42
0.32761416 -0.2057638 0.6540519 0.0031318497 251 39
0.33056691 -0.20553641 0.65382648 0.00281359 257 40
