# .PCD v0.7 - Point Cloud Data file format
VERSION 0.7
FIELDS x y z noise intensity gray
SIZE 4 4 4 4 2 1
TYPE F F F F U U
COUNT 1 1 1 1 1 1
WIDTH 903
HEIGHT 1
VIEWPOINT 0 0 0 1 0 0 0
POINTS 903
DATA ascii
0.22137922 -0.2592867 0.60786104 0.0017853987 500 94
0.22502184 -0.25992906 0.60916811 0.0014136287 719 145
0.22748397 -0.25920883 0.60734117 0.0014082465 781 159
0.23009495 -0.25867525 0.60601306 0.0014806448 660 131
0.23224179 -0.25764084 0.60357362 0.0016535146 594 116
0.23469996 -0.25697422 0.60205829 0.0016392171 553 106
0.23745789 -0.25664878 0.60140502 0.0016129609 564 109
0.23974107 -0.25582501 0.59964657 0.0014457853 670 133
0.24208337 -0.25508422 0.59814441 0.0012961179 809 166
0.24461721 -0.2545611 0.59721458 0.0012192493 902 187
0.24711573 -0.25401446 0.59629095 0.0013423907 780 159
0.24956897 -0.25343505 0.59535068 0.0014901564 658 130
0.25216687 -0.25301462 0.59484363 0.001714275 599 117
0.25463066 -0.25247118 0.59410602 0.0017897462 488 91
0.25680187 -0.2516537 0.59278035 0.0024401548 352 59
0.25808042 -0.2499904 0.58951443 0.002520066 290 45
0.25942561 -0.24842878 0.58653677 0.0028530071 247 35
0.25747028 -0.24377744 0.5763014 0.0032765921 200 24
0.25786251 -0.24142767 0.57153863 0.0037651735 171 17
0.25939414 -0.24018475 0.56943619 0.0037573699 173 18
0.26123911 -0.23925592 0.5681209 0.0039968439 165 16
0.26377741 -0.23897521 0.56838918 0.0036519798 175 18
0.26576978 -0.23821121 0.56755155 0.004615631 145 11
0.26794419 -0.23762476 0.56717741 0.0044511296 151 13
0.26976493 -0.23674022 0.56613034 0.0047872765 147 12
0.27117935 -0.23552105 0.56431657 0.004788368 145 11
0.27294922 -0.23463239 0.56332612 0.0042284131 151 13
nan nan nan 0 147 12
nan nan nan 0 132 8
nan nan nan 0 132 8
nan nan nan 0 128 7
nan nan nan 0 119 5
nan nan nan 0 122 6
nan nan nan 0 115 4
nan nan nan 0 88 0
nan nan nan 0 90 0
nan nan nan 0 92 0
nan nan nan 0 111 3
nan nan nan 0 113 4
-0.31995302 -0.23445083 0.58050668 0.0052825976 112 3
-0.31655294 -0.2340253 0.58096439 0.0051213745 112 3
-0.31338903 -0.23376836 0.5810765 0.0050379229 115 4
-0.31164336 -0.2345742 0.58318251 0.0055650244 114 4
-0.30702379 -0.23321183 0.57939464 0.0050770384 120 5
nan nan nan 0 118 5
nan nan nan 0 126 7
-0.2989327 -0.23347566 0.57709867 0.0061200215 111 3
-0.296949 -0.23412934 0.57745022 0.0052942946 106 2
-0.29604074 -0.23565163 0.57988811 0.004618411 132 8
-0.29412383 -0.23639271 0.58037841 0.0046882639 131 8
-0.2914907 -0.23656707 0.57948041 0.0050913431 137 9
-0.28903475 -0.23689002 0.57896501 0.0052016098 137 9
-0.28768802 -0.23813762 0.58073062 0.004567367 137 9
-0.28578213 -0.23894285 0.58144218 0.0042588268 146 11
-0.28225493 -0.23839508 0.57889909 0.0043152329 146 11
-0.27975056 -0.23870881 0.57849073 0.0042761001 145 11
-0.27794385 -0.23963055 0.57959372 0.0045526796 135 9
-0.27561441 -0.24011628 0.57968092 0.0043263021 147 12
-0.2716448 -0.2391682 0.57635564 0.0047307676 145 11
-0.27078959 -0.24097124 0.57970506 0.0044101998 152 13
-0.26796296 -0.24103999 0.5789243 0.0041846037 162 15
-0.26494163 -0.24093322 0.57777351 0.0042567896 171 17
-0.26206645 -0.24095845 0.57699221 0.0043116966 183 20
-0.25928456 -0.24107102 0.57647324 0.0035551277 185 20
-0.25650629 -0.24118949 0.5760228 0.0038264422 194 23
-0.2549057 -0.24243075 0.57830614 0.0032554078 209 26
-0.25181827 -0.24227034 0.57730049 0.0036648086 221 29
-0.2492964 -0.24265663 0.57765591 0.00303951 223 29
-0.24625497 -0.24254037 0.57687366 0.0029581846 226 30
-0.24481978 -0.24402231 0.57995099 0.0032680309 232 31
-0.24250501 -0.24465296 0.58106261 0.0029757561 235 32
-0.23941526 -0.24450763 0.58039284 0.0032661548 224 30
-0.23570523 -0.24371728 0.57825553 0.0029864586 227 30
-0.23397398 -0.24497889 0.5810492 0.003059003 228 30
-0.23169792 -0.24569499 0.58261037 0.0031141452 221 29
-0.22779788 -0.24468526 0.58014184 0.0032016356 251 36
-0.22433297 -0.24412258 0.57879561 0.0025765728 280 43
-0.22149728 -0.24423876 0.57912016 0.0024309095 311 50
-0.21863295 -0.24432604 0.57943672 0.002401477 315 51
-0.21559061 -0.24421412 0.5793398 0.0023804172 343 57
-0.21325414 -0.24490969 0.58121651 0.002394482 343 57
-0.21027498 -0.24487635 0.58142018 0.0023827394 338 56
-0.20653041 -0.24393804 0.57952768 0.0022605474 341 57
-0.20333433 -0.24362981 0.57918191 0.0023723929 333 55
-0.20065401 -0.24393961 0.58035439 0.0023197916 327 53
-0.19751367 -0.243691 0.58024502 0.0022683092 332 55
-0.19454946 -0.24365546 0.58068597 0.0023654965 320 52
-0.19120787 -0.24313901 0.58002025 0.0026725186 310 50
-0.18795219 -0.2427174 0.57961595 0.0023464488 323 53
-0.18507208 -0.24277513 0.58038956 0.0022777731 335 55
-0.18162888 -0.24208423 0.5794028 0.00239774 329 54
-0.17835478 -0.24159978 0.57893461 0.0024307456 313 50
-0.17560877 -0.24182655 0.58019423 0.0023562284 315 51
-0.17246276 -0.24150082 0.58014923 0.0025959939 321 52
-0.1691457 -0.24092028 0.57950729 0.0022553802 341 57
-0.16562061 -0.24001798 0.57810163 0.0022192956 342 57
-0.16284828 -0.2401939 0.57930267 0.0023806265 360 61
-0.15958267 -0.23963545 0.57874042 0.00228104 381 66
-0.15641123 -0.23920046 0.57847947 0.0024404037 362 62
-0.15311103 -0.2385485 0.57769412 0.0023965915 354 60
-0.15034522 -0.23872013 0.57890314 0.0022225915 348 58
-0.14717712 -0.23824723 0.57854772 0.002224921 356 60
-0.1436684 -0.23719317 0.57677311 0.0023303549 371 64
-0.14086556 -0.23728539 0.57777792 0.0021260676 379 66
-0.13793081 -0.2371546 0.57823348 0.0022884579 382 66
-0.13509235 -0.23718733 0.57907951 0.00222384 379 66
-0.13220766 -0.23713858 0.57971716 0.002104792 375 65
-0.12908418 -0.23664989 0.57926708 0.0021360619 368 63
-0.12569322 -0.23563766 0.577519 0.0020611964 390 68
-0.1225111 -0.23497927 0.57662046 0.0022331546 391 68
-0.11962588 -0.23487258 0.57705986 0.0021792823 397 70
-0.11690819 -0.23509766 0.57830042 0.0020930062 389 68
-0.11384435 -0.23462054 0.57779795 0.0020480603 389 68
-0.11088964 -0.23434974 0.57778591 0.0019778954 411 73
-0.10816674 -0.23456751 0.57896221 0.0020720942 387 67
-0.10535556 -0.23460038 0.57966638 0.0019815776 412 73
-0.10244496 -0.23440759 0.57979566 0.0019668792 417 74
-0.099250264 -0.23353539 0.5782246 0.0021079017 388 68
-0.09652324 -0.23374481 0.57931268 0.0020704973 414 74
-0.093837552 -0.23406993 0.58067155 0.0020005449 402 71
-0.090859152 -0.23366241 0.58019501 0.0020804983 442 80
-0.087810941 -0.23304361 0.57917392 0.001889487 442 80
-0.084779344 -0.23242941 0.57814389 0.0021199097 445 81
-0.081891291 -0.2321803 0.57800263 0.0020015929 429 77
-0.078977428 -0.23183776 0.57761002 0.0020831013 400 70
-0.076301672 -0.23219474 0.5789426 0.0021250462 409 73
-0.073540591 -0.23230931 0.5796544 0.0021126005 407 72
-0.070743516 -0.23231477 0.58007658 0.0020501583 426 77
-0.06777367 -0.23172995 0.57900673 0.0019837185 424 76
-0.064783022 -0.23102066 0.57760656 0.0022146874 405 72
-0.061981931 -0.23095402 0.57779497 0.0019990513 413 73
-0.05910892 -0.23060058 0.57724833 0.0020270378 405 72
-0.056335244 -0.23061886 0.5776152 0.0020861861 414 74
-0.053578801 -0.23071331 0.57815629 0.0020042621 412 73
-0.05076186 -0.23054329 0.57801819 0.0019954219 425 76
-0.047920931 -0.23023836 0.57752496 0.0020407932 410 73
-0.045112763 -0.23006301 0.57734013 0.0021057436 392 69
-0.042394642 -0.23035397 0.5783096 0.0020805756 392 69
-0.03965009 -0.23053205 0.57898027 0.0023059589 385 67
-0.036866508 -0.23049292 0.57908982 0.0021310658 377 65
-0.034036402 -0.23013285 0.57837713 0.0020617121 393 69
-0.031330489 -0.2306231 0.57978606 0.0020368774 401 71
-0.028522203 -0.23038186 0.57934082 0.0021542339 390 68
-0.025752889 -0.23043734 0.57962638 0.0020699585 392 69
-0.022955123 -0.23022085 0.57921249 0.0019928631 410 73
-0.020144349 -0.22979653 0.57826024 0.0021421632 405 72
-0.017355412 -0.22952576 0.57767916 0.0020763744 389 68
-0.014605531 -0.22976673 0.57837099 0.0022940128 399 70
-0.011862105 -0.23024572 0.57964736 0.0020514433 401 71
-0.0090979226 -0.2304913 0.58032143 0.0022259888 392 69
-0.0063146856 -0.23025775 0.5797745 0.0020563714 388 68
-0.0035293472 -0.2295216 0.57794708 0.0020158857 402 71
-0.00076296332 -0.22915114 0.57702565 0.0020390612 419 75
0.0019969735 -0.22906511 0.57680565 0.0022288987 381 66
0.0047621168 -0.22932963 0.57745385 0.0022628228 410 73
0.0075529409 -0.23018253 0.57956856 0.00222627 410 73
0.010301435 -0.22963379 0.57813936 0.002401381 380 66
0.013030754 -0.22898036 0.57643229 0.0021162145 376 65
0.015776746 -0.22879709 0.575894 0.0021477733 393 69
0.018569775 -0.22924902 0.57693964 0.0020708058 385 67
0.021368705 -0.22964731 0.57783508 0.0020288236 396 70
0.024073115 -0.22905497 0.57622296 0.0021429774 404 71
0.026795369 -0.22873679 0.57528597 0.0020038954 409 73
0.029605718 -0.22915982 0.57619792 0.0022726331 393 69
0.032510884 -0.23018202 0.57860023 0.0021744664 405 72
0.035214033 -0.22972564 0.57726997 0.0020011759 403 71
0.037938982 -0.22946763 0.57642335 0.0023222393 379 66
0.04077781 -0.22988667 0.57726157 0.0021112585 375 65
0.043658033 -0.23047093 0.57849813 0.0020728218 388 68
0.046530388 -0.23094624 0.57944405 0.0022725677 394 69
0.049340591 -0.23107685 0.57950842 0.0020488927 398 70
0.051984198 -0.23045498 0.57767004 0.0020531504 395 69
0.054777268 -0.23052515 0.57755071 0.0022465063 413 73
0.05756541 -0.2305688 0.57734835 0.0020614737 382 66
0.060247783 -0.23020433 0.5761078 0.002157286 413 73
0.062943369 -0.22992016 0.5750525 0.0022128713 399 70
0.065786734 -0.23017703 0.5753336 0.0020397673 419 75
0.06870278 -0.23065712 0.57615453 0.0022272123 404 71
0.071553901 -0.23089038 0.5763405 0.0021903848 391 68
0.074335992 -0.23089178 0.57593012 0.0022028682 384 67
0.077063747 -0.23073043 0.57509661 0.0020700349 385 67
0.079927698 -0.23097382 0.57525462 0.0022949406 400 70
0.08284504 -0.23134996 0.57572442 0.002146729 403 71
0.085754745 -0.23168103 0.57606322 0.002166217 409 73
0.088515006 -0.23160017 0.57535958 0.0019841185 418 75
0.091467559 -0.23201197 0.57586163 0.0019281739 433 78
0.094348803 -0.2322239 0.57584876 0.0019642273 421 75
0.097109333 -0.23213501 0.57507217 0.0021816206 390 68
0.099852152 -0.23200998 0.57418931 0.0022685605 392 69
0.10267555 -0.23207384 0.57375705 0.0021312784 419 75
0.10595538 -0.2331387 0.57577986 0.0023053586 411 73
0.10888015 -0.23338743 0.57576698 0.0020162822 409 73
0.11184639 -0.23371029 0.57591927 0.002029154 393 69
0.11469747 -0.23378259 0.57543719 0.002060601 395 69
0.11748938 -0.23373373 0.57464147 0.0020219574 406 72
0.12025524 -0.23363648 0.57371265 0.0020992754 381 66
0.12310846 -0.23370957 0.57318836 0.0021568667 405 72
0.12623531 -0.2342872 0.57388633 0.00205275 391 68
0.12925339 -0.23464218 0.57402384 0.0020216147 405 72
0.13222072 -0.23489171 0.57389045 0.002026204 401 71
0.13509081 -0.23496173 0.57330739 0.0021217065 395 69
0.13758947 -0.23439609 0.5711664 0.0020714733 400 70
0.1406424 -0.23477849 0.57132894 0.0022194725 390 68
0.14421676 -0.23599903 0.57352048 0.0020758393 393 69
0.14725125 -0.23630604 0.57348299 0.0023229339 374 64
0.15004689 -0.23622534 0.57250208 0.0021363462 375 65
0.15325302 -0.23678192 0.57306433 0.002098032 392 69
0.15627909 -0.23704499 0.57291609 0.0021922826 390 68
0.1591762 -0.23710655 0.5722847 0.0023164037 394 69
0.16191994 -0.2369415 0.5711143 0.0022961013 390 68
0.16470268 -0.23683827 0.570104 0.0020481939 392 69
0.1679153 -0.23734613 0.57057637 0.0022874875 408 72
0.17129785 -0.23807321 0.57158804 0.0021976992 403 71
0.17423026 -0.23816104 0.57108158 0.002169854 410 73
0.1772107 -0.23831056 0.57074463 0.0019887509 407 72
0.18019728 -0.23846346 0.57044041 0.0020417646 408 72
0.18450342 -0.24033041 0.57425964 0.0021465358 368 63
0.18922994 -0.24267879 0.57925028 0.0025130548 323 53
0.19401741 -0.24503265 0.58427805 0.0026775189 262 38
0.19818144 -0.2465404 0.58731842 0.0030106457 230 31
0.20011058 -0.24526446 0.58376896 0.0030702695 225 30
0.20366034 -0.24598305 0.58501333 0.0031407392 217 28
0.20791818 -0.24752398 0.58825755 0.0032142869 200 24
0.21200448 -0.24882002 0.59096622 0.0034089524 224 30
0.21749629 -0.25170648 0.59750021 0.0028375178 295 46
0.22294942 -0.25446942 0.60379094 0.0022315858 367 63
0.22735795 -0.2559813 0.60716808 0.0021595203 416 74
0.23005223 -0.25554848 0.60599256 0.001813721 474 88
0.23261766 -0.25498584 0.60457206 0.0018836603 490 91
0.23527057 -0.25453252 0.60347456 0.0018609989 449 82
0.23795082 -0.25412005 0.60253793 0.0019756465 421 75
0.2399735 -0.25302473 0.60004646 0.0018566085 504 95
0.2420271 -0.2519891 0.59776002 0.0015649176 598 117
0.24487224 -0.25179303 0.59752911 0.0016208905 590 115
0.24738778 -0.25126699 0.59657902 0.0018253432 524 99
0.24985136 -0.25070152 0.5955978 0.0019664227 445 81
0.25203472 -0.24987176 0.59405011 0.0021629171 438 79
0.25325069 -0.24811377 0.59035355 0.0021461048 410 73
0.25654241 -0.24840678 0.59159565 0.0021848071 360 61
0.25643453 -0.24543917 0.58512646 0.0026217147 277 42
0.2555038 -0.24176063 0.57700437 0.0029259888 241 33
0.25644457 -0.23991589 0.57330066 0.0034658711 191 22
0.25652802 -0.23731914 0.56784195 0.0039762347 190 22
0.25872928 -0.23671731 0.56719983 0.0037248887 180 19
0.26140711 -0.23655981 0.56767231 0.0042097811 177 19
0.26324707 -0.23565568 0.56639999 0.0044476283 171 17
0.26577455 -0.23537976 0.56668252 0.0048138425 157 14
0.26826778 -0.23507966 0.56695282 0.0045103957 156 14
0.27005413 -0.23417282 0.5658012 0.0046406048 160 15
0.27239719 -0.23376253 0.56588876 0.0042469497 161 15
0.27434438 -0.23302437 0.56522065 0.0041075489 156 14
0.27701083 -0.23290586 0.56609333 0.0038789969 162 15
nan nan nan 0 145 11
nan nan nan 0 132 8
nan nan nan 0 134 9
nan nan nan 0 129 7
nan nan nan 0 119 5
nan nan nan 0 120 5
nan nan nan 0 97 0
nan nan nan 0 100 1
-0.33109784 -0.23351021 0.57890165 0.0066629481 102 1
-0.32787058 -0.23324004 0.58143616 0.0059672049 110 3
nan nan nan 0 112 3
-0.31807598 -0.23026745 0.57827866 0.0050429311 118 5
-0.31502122 -0.23008715 0.57877201 0.0050883587 115 4
-0.31271273 -0.23045366 0.57995242 0.0049424181 121 6
-0.30944937 -0.2301167 0.57881558 0.0049889134 121 6
-0.30789757 -0.23105793 0.58048874 0.0047819344 129 7
-0.30469182 -0.230764 0.5787788 0.0060559968 125 6
-0.30236557 -0.23113687 0.5785622 0.0046793735 129 7
-0.29983157 -0.23135641 0.57785368 0.005266686 123 6
-0.29781687 -0.23198469 0.57810771 0.0048752581 122 6
-0.29586414 -0.2326737 0.57848692 0.0050893594 117 5
-0.29341009 -0.23297808 0.57790864 0.0047931271 141 10
-0.29058129 -0.23298785 0.57661688 0.0042243851 144 11
-0.28876474 -0.23381749 0.57737827 0.0040606735 154 13
-0.28705806 -0.23475352 0.57842755 0.004115555 151 13
-0.28558451 -0.23590095 0.58002561 0.0043511428 154 13
-0.28322008 -0.23632841 0.57988709 0.0042049862 149 12
-0.28073201 -0.23666035 0.57955444 0.0043388549 144 11
-0.27797562 -0.23677072 0.57872283 0.0045823008 139 10
-0.27520943 -0.23687489 0.57792252 0.0043100463 145 11
-0.27335376 -0.23777336 0.5791046 0.0042633615 142 10
-0.27185103 -0.23900132 0.58113092 0.004340285 138 10
-0.26946971 -0.23947512 0.5813688 0.0039988025 159 14
-0.26583138 -0.23882999 0.57894433 0.0038381557 162 15
-0.26259035 -0.23853146 0.57741827 0.0039520715 169 17
-0.259675 -0.23852535 0.57665706 0.0035506499 183 20
-0.25781214 -0.23949689 0.57831377 0.0042079287 183 20
-0.25543451 -0.240007 0.57891083 0.0034738823 207 26
-0.25257504 -0.24007089 0.57849002 0.0030665889 221 29
-0.24893807 -0.23938861 0.5763334 0.002897755 239 33
-0.24664111 -0.23999412 0.57733917 0.0028880979 241 33
-0.24451372 -0.2407811 0.57884151 0.0027714248 248 35
-0.24196479 -0.2411671 0.57944149 0.0027603325 259 38
-0.23904854 -0.24119192 0.57923728 0.0026101423 274 41
-0.23579527 -0.2408731 0.57827193 0.0025715169 281 43
-0.23148666 -0.2394546 0.57473183 0.0028131027 253 36
-0.23065065 -0.24163786 0.57990032 0.0037544845 205 25
-0.22757477 -0.24150066 0.57956314 0.0027452963 284 43
-0.22395328 -0.24077334 0.57787246 0.002411162 328 54
-0.22101268 -0.24076837 0.5779773 0.0022348461 349 59
-0.21821301 -0.24091892 0.57851601 0.0024851297 351 59
-0.21548291 -0.24115142 0.57931101 0.002250392 340 57
-0.2129956 -0.24166584 0.58084166 0.0021889242 359 61
-0.21010716 -0.24173315 0.58135378 0.0024953252 337 56
-0.20676364 -0.24127138 0.58064628 0.0023082756 337 56
-0.20347945 -0.2408665 0.58012462 0.0024320944 337 56
-0.19980846 -0.23998518 0.57850069 0.0023176963 335 55
-0.19654609 -0.23957573 0.5780561 0.0026313872 314 50
-0.19349743 -0.23941834 0.57825989 0.002565983 337 56
-0.1903739 -0.2391621 0.57826221 0.0024980197 330 54
-0.18744817 -0.23915023 0.57888973 0.0022550556 344 57
-0.1845592 -0.2391856 0.57966328 0.0022409309 338 56
-0.18106318 -0.23842281 0.57852846 0.0023127492 329 54
-0.17735404 -0.23734987 0.57666039 0.0021638288 359 61
-0.17488256 -0.23792516 0.57881683 0.0023733133 340 57
-0.17195563 -0.23788975 0.57950741 0.0024969438 342 57
-0.16850506 -0.23711629 0.57841235 0.0023662092 362 62
-0.16549398 -0.23694511 0.57879543 0.0022192074 352 59
-0.16238126 -0.23661965 0.57880896 0.0024066942 372 64
-0.15941334 -0.23649725 0.57932383 0.0021859275 354 60
-0.15609306 -0.235838 0.57852465 0.0021148731 373 64
-0.15290985 -0.23536496 0.57817954 0.0021568695 363 62
-0.14988215 -0.23511776 0.57838571 0.0023739752 362 62
-0.14686704 -0.23488106 0.57861298 0.0021669595 381 66
-0.14317395 -0.23352914 0.57608241 0.0020744419 399 70
-0.14043787 -0.23371495 0.57733464 0.0022441396 396 70
-0.13765132 -0.23382278 0.57838655 0.002111472 391 68
-0.13469176 -0.23363499 0.57869726 0.0022862903 392 69
-0.13182674 -0.23360665 0.57939124 0.0022759621 394 69
-0.12884504 -0.23336573 0.57954472 0.0020319941 398 70
-0.12548134 -0.23240639 0.57789713 0.0022322887 405 72
-0.12227986 -0.23171015 0.57688451 0.0020475718 415 74
-0.11946318 -0.23172735 0.57763118 0.0020182391 405 72
-0.11664239 -0.2317373 0.57834429 0.0020258892 407 72
-0.11379658 -0.2316967 0.5789153 0.0021501833 385 67
-0.11093657 -0.23162442 0.57939023 0.0020692921 392 69
-0.1076474 -0.23062894 0.57753593 0.0022478024 422 76
-0.10531276 -0.23167986 0.58078909 0.0021083863 401 71
-0.10192318 -0.23040405 0.57819152 0.0019946538 420 75
-0.099022806 -0.23019309 0.57824469 0.0021208213 407 72
-0.096456222 -0.23076844 0.5802561 0.0021885757 398 70
-0.093637377 -0.23075667 0.58077472 0.0020645044 391 68
-0.090646967 -0.23030829 0.58017558 0.0019756069 430 77
-0.087598443 -0.22967885 0.57909989 0.0019338205 429 77
-0.084682524 -0.22936702 0.57880503 0.0019259463 433 78
-0.081720315 -0.22890422 0.5781098 0.0019559292 421 75
-0.078762911 -0.22842261 0.5773474 0.0019542307 427 77
-0.076030314 -0.22858158 0.57818604 0.0021013552 407 72
-0.07343246 -0.22917314 0.58010262 0.0020080425 406 72
-0.07071235 -0.22941485 0.58111787 0.0019624492 414 74
-0.06781932 -0.22909239 0.58068657 0.0019713615 416 74
-0.064838514 -0.22843298 0.57938236 0.0019826859 412 73
-0.061788823 -0.22746077 0.57726532 0.0020346765 403 71
-0.059000161 -0.22740325 0.57745135 0.0020032271 409 73
-0.056092124 -0.22685726 0.57637966 0.0020133085 405 72
-0.053367604 -0.22703536 0.57713073 0.0021532308 420 75
-0.050659265 -0.22730552 0.57810026 0.001949548 428 77
-0.047789317 -0.22683984 0.57718199 0.0021391085 416 74
-0.045032211 -0.22688548 0.57754833 0.0019644962 413 73
-0.042340212 -0.22728662 0.57880443 0.0020508273 389 68
-0.039603315 -0.22748604 0.57953161 0.0021317366 383 67
-0.036729969 -0.22687271 0.5781725 0.0020196864 403 71
-0.03403233 -0.22733314 0.57953429 0.0020885775 411 73
-0.031201305 -0.22690521 0.5786162 0.0020286138 402 71
-0.0284058 -0.22667745 0.57819301 0.0021086961 377 65
-0.025648307 -0.22673663 0.57848656 0.0020572143 437 79
-0.022930447 -0.22720282 0.57980394 0.0019132459 433 78
-0.020125039 -0.22681046 0.57891566 0.00199473 410 73
-0.017276032 -0.22572343 0.57623899 0.0019433723 426 77
-0.014593491 -0.22681154 0.57910043 0.0019149416 433 78
-0.011834373 -0.2269401 0.57949775 0.0021308181 402 71
-0.0090508629 -0.22653659 0.57852191 0.0022285257 392 69
-0.0062866863 -0.22647507 0.57840484 0.0022064177 415 74
-0.0035240415 -0.22641557 0.57827842 0.002049939 408 72
-0.00076095306 -0.22579396 0.576702 0.0019940322 407 72
0.0019904235 -0.22556318 0.57610935 0.0020045447 400 70
0.0047463332 -0.22581586 0.57673711 0.0020016192 404 71
0.0075132567 -0.22621457 0.5777235 0.0020848496 391 68
0.010266289 -0.22609323 0.57736719 0.0021466045 385 67
0.013014617 -0.22594158 0.57691914 0.0020379724 410 73
0.0157641 -0.22585949 0.57663423 0.0020752526 408 72
0.018536195 -0.22607762 0.57710117 0.0020565549 411 73
0.02131992 -0.22636272 0.57772434 0.0021965192 399 70
0.024051966 -0.22609664 0.57692599 0.0019847797 415 74
0.026749616 -0.22559524 0.57551283 0.0019935418 407 72
0.029472595 -0.22538103 0.57481796 0.0020785984 418 75
0.032460473 -0.22705631 0.57892603 0.0020549065 397 70
0.035158295 -0.22659881 0.57758015 0.0019894827 409 73
0.037920933 -0.22659528 0.57737654 0.0020273817 402 71
0.040682413 -0.22658576 0.57714224 0.0020294744 401 71
0.043566667 -0.22721782 0.57852602 0.0020122512 407 72
0.046408147 -0.22756454 0.57916659 0.0022405216 389 68
0.048967801 -0.2265681 0.57637364 0.0020259449 406 72
0.051842026 -0.22705589 0.57734114 0.0020623696 416 74
0.054734156 -0.22756864 0.57835454 0.0019683219 417 74
0.057481494 -0.22745898 0.57776952 0.0021789782 402 71
0.060143556 -0.22703749 0.57637644 0.002026076 400 70
0.062856086 -0.22683524 0.57552433 0.0020606068 399 70
0.065454684 -0.22625616 0.57370061 0.0019772169 411 73
0.068516731 -0.2272612 0.575876 0.0020287945 405 72
0.07135272 -0.2274674 0.57600814 0.0021151705 395 69
0.074134447 -0.22749165 0.5756619 0.0020752645 404 71
0.07689289 -0.2274453 0.57511961 0.0019562864 416 74
0.079738513 -0.22765107 0.57519722 0.0019792775 419 75
0.082601249 -0.22789019 0.57534063 0.0022893576 396 70
0.085547134 -0.22833571 0.57598591 0.002059499 393 69
0.088326335 -0.22832225 0.57545489 0.0019796588 409 73
0.091195591 -0.22853529 0.57547647 0.0019627456 419 75
0.09412045 -0.22887091 0.57578754 0.0019270821 436 79
0.096809506 -0.2286303 0.57463115 0.0019332614 431 78
0.099383347 -0.22813867 0.57282788 0.0020381762 417 74
0.10245153 -0.22877774 0.57384574 0.0021167966 419 75
0.10544837 -0.22922784 0.57436925 0.0022485373 409 73
0.10864101 -0.23006926 0.57585287 0.0021562697 428 77
0.11144578 -0.23006766 0.57520694 0.0022272891 397 70
0.11432159 -0.2302092 0.57490188 0.0020104998 409 73
0.11706492 -0.23008354 0.57391334 0.001995885 414 74
0.11989028 -0.23012124 0.57331681 0.0021668258 394 69
0.12287071 -0.23044807 0.57342434 0.0019724288 418 75
0.12583591 -0.23073235 0.57340986 0.0019970464 409 73
0.12876919 -0.2309469 0.5732069 0.0023187906 405 72
0.13186447 -0.23143665 0.57367206 0.0019734318 423 76
0.13481797 -0.23166221 0.57346833 0.0021003159 412 73
0.13735093 -0.23117076 0.57148015 0.0019953977 417 74
0.14017583 -0.23118053 0.57072365 0.0022092771 417 74
0.14400218 -0.23280895 0.57394999 0.0019600433 416 74
0.14694761 -0.23297775 0.57356572 0.0019940194 414 74
0.1499386 -0.23321104 0.57333469 0.0020127103 411 73
0.15284817 -0.23331131 0.57277328 0.0020565132 390 68
0.15605503 -0.23385346 0.57329434 0.0020809341 387 67
0.15877831 -0.23366448 0.57202423 0.0019924128 425 76
0.16154107 -0.23353924 0.57091588 0.0019604017 422 76
0.16457033 -0.23379694 0.57075065 0.0020994567 399 70
0.16759992 -0.23404633 0.57057363 0.0019797047 422 76
0.17093623 -0.23470847 0.57141286 0.0019606759 419 75
0.17348266 -0.23428217 0.56961781 0.0020508599 429 77
0.17681791 -0.23491767 0.57042289 0.0019771026 416 74
0.18018939 -0.23558027 0.57131243 0.0019325743 424 76
0.18365742 -0.23634635 0.5724746 0.0020678067 426 77
0.18737473 -0.2374046 0.57436872 0.0022094462 380 66
0.19147053 -0.23890284 0.57735336 0.0023612124 320 52
0.1948261 -0.23944645 0.57806182 0.00291651 272 41
0.19842353 -0.24026686 0.57947499 0.0028365648 265 39
0.20195596 -0.24098583 0.58068299 0.0026500656 272 41
0.20568734 -0.24191818 0.58244801 0.002761062 254 36
0.2110697 -0.24473849 0.58880097 0.003055258 226 30
0.21665525 -0.24771246 0.59556627 0.0035161376 192 22
0.22087251 -0.24906176 0.59847456 0.0034862352 228 30
0.22633816 -0.25176308 0.60468489 0.0026983009 322 52
0.22981964 -0.25221455 0.60554922 0.0021430249 364 62
0.2324505 -0.25173292 0.60423571 0.002139576 371 64
0.23527467 -0.25147045 0.60351253 0.0022098518 368 63
0.23792988 -0.25103647 0.60244304 0.0023682336 347 58
0.24033011 -0.25034794 0.60082853 0.0022777789 340 57
0.24254327 -0.24948421 0.59885913 0.0021451837 366 63
0.24558698 -0.24948567 0.59903264 0.0022365393 354 60
0.24751736 -0.24836992 0.59658903 0.002759096 315 51
0.24948657 -0.24731959 0.59436619 0.0025705593 287 44
0.25260326 -0.24741828 0.59496903 0.0026646995 292 45
0.25249353 -0.24439177 0.58811629 0.0025642773 294 46
0.25420651 -0.24317953 0.58568531 0.002737998 259 38
0.25347117 -0.23968013 0.57779771 0.0032238618 234 32
0.25209177 -0.23565844 0.5686934 0.0034297244 214 27
0.25392324 -0.23469514 0.56701523 0.003340204 200 24
0.2567814 -0.23469168 0.56771034 0.0033689677 197 23
0.25900277 -0.23411268 0.56706721 0.0040443027 197 23
0.26108968 -0.23342609 0.56621349 0.0034128299 190 22
0.26347476 -0.23301804 0.56608462 0.0035645203 187 21
0.26554739 -0.2323453 0.56536001 0.0040729563 176 18
0.26823679 -0.23222069 0.56601608 0.0047126021 157 14
0.27105647 -0.23221032 0.56699878 0.0043547377 157 14
0.27331153 -0.23172149 0.56685793 0.0044714184 165 16
0.27658784 -0.23209961 0.56888336 0.0042234324 158 14
0.27979422 -0.232412 0.57079518 0.0040681208 156 14
0.282148 -0.23201703 0.57101166 0.0039111762 162 15
0.28193921 -0.22954351 0.56613767 0.0045839096 148 12
nan nan nan 0 133 8
nan nan nan 0 122 6
nan nan nan 0 129 7
nan nan nan 0 117 5
nan nan nan 0 99 0
nan nan nan 0 98 0
-0.33065015 -0.23035078 0.58042866 0.0068793455 96 0
-0.32753861 -0.23016255 0.5827347 0.0064610322 105 2
nan nan nan 0 115 4
-0.31927693 -0.22831827 0.58122295 0.005857666 118 5
-0.31675148 -0.22852972 0.58220053 0.0054343301 108 3
-0.31273112 -0.22765677 0.5798189 0.005982053 121 6
-0.3095192 -0.22736184 0.57846439 0.0061759287 124 6
-0.30710891 -0.22765572 0.57829595 0.0049288189 125 6
-0.30503976 -0.22821029 0.57858229 0.0055949292 123 6
-0.30330643 -0.22902873 0.57940769 0.0047721583 125 6
-0.30053806 -0.22907369 0.57820606 0.0044683306 137 9
-0.29897186 -0.23004447 0.57930952 0.0045915963 130 8
-0.29748815 -0.23109803 0.58060926 0.0046142959 134 9
-0.29416195 -0.23072675 0.57834208 0.0043735858 149 12
-0.2912876 -0.23070611 0.57698345 0.004153098 149 12
-0.28914669 -0.23127173 0.57712203 0.0043071834 148 12
-0.28756839 -0.23230307 0.57845265 0.0038946574 164 16
-0.28605634 -0.23340927 0.58000022 0.0040165563 153 13
-0.28396165 -0.23405774 0.58044565 0.004187345 150 12
-0.28117749 -0.2341454 0.57954282 0.0043445458 140 10
-0.27845946 -0.23429051 0.57882881 0.0043036574 139 10
-0.27507767 -0.23387432 0.57677859 0.004329816 141 10
-0.27351227 -0.23501003 0.57860363 0.0046293326 158 14
-0.27247062 -0.23662494 0.58164978 0.0044263531 153 13
-0.27005509 -0.23706874 0.58186358 0.0039114831 165 16
-0.26580676 -0.23589575 0.57816726 0.0037655558 168 16
-0.2631878 -0.23615879 0.57805067 0.0037301928 173 18
-0.26119176 -0.23699291 0.57938689 0.0035496936 183 20
-0.25924838 -0.2378943 0.58094233 0.0034109771 196 23
-0.25693762 -0.23847534 0.5817728 0.0033694222 203 25
-0.25360984 -0.23811494 0.58036822 0.0030327737 228 30
-0.25007278 -0.23754731 0.57852393 0.0030719934 223 29
-0.24750951 -0.23790224 0.57899082 0.0029123058 238 33
-0.244848 -0.23817007 0.57930964 0.0027830573 254 36
-0.2419946 -0.23825555 0.57924968 0.0026782406 266 39
-0.23889849 -0.23810115 0.57867229 0.0028928036 268 40
-0.23611608 -0.23825951 0.57892078 0.0025306076 286 44
-0.23287216 -0.23795031 0.57809889 0.003081385 271 40
-0.23080529 -0.23885125 0.58028239 0.0031155183 220 29
-0.22734317 -0.23831293 0.57903373 0.0027514538 304 48
-0.22404274 -0.23793226 0.57823139 0.0023485343 325 53
-0.22087537 -0.23768461 0.57781434 0.0022881106 331 54
-0.21813823 -0.2378995 0.57858258 0.0025667807 326 53
-0.21548814 -0.23821652 0.57965869 0.0022599015 344 57
-0.21272916 -0.23842022 0.58051687 0.0022504688 342 57
-0.20997098 -0.23863059 0.58144665 0.0025019483 335 55
-0.20626345 -0.23775265 0.57977545 0.002208479 351 59
-0.20213269 -0.23635449 0.57687998 0.0022036056 367 63
-0.19893359 -0.23602073 0.57662439 0.002460697 347 58
-0.19605993 -0.23606886 0.57734376 0.002599908 329 54
-0.19322434 -0.236165 0.57822013 0.0026328645 330 54
-0.19013904 -0.23595421 0.57838047 0.0022448925 348 58
-0.18722975 -0.2359587 0.57910037 0.0022134604 347 58
-0.18395899 -0.23550051 0.57871217 0.0022472711 347 58
-0.18031637 -0.23454401 0.57712024 0.0021883284 360 61
-0.17668191 -0.23356697 0.57549334 0.0021365974 371 64
-0.1743302 -0.23428148 0.57805163 0.002306581 369 63
-0.1716803 -0.23461257 0.57968277 0.0021796441 368 63
-0.1681997 -0.23380035 0.57849932 0.0021480036 369 63
-0.16480358 -0.23307925 0.57754487 0.0022113947 368 63
-0.16207412 -0.23329209 0.5789088 0.0021138871 370 63
-0.15849796 -0.23227185 0.57721353 0.0022360522 392 69
-0.15564214 -0.23228909 0.57809377 0.0020430514 400 70
-0.15284893 -0.23240221 0.57921177 0.0021089476 380 66
-0.14981662 -0.23214911 0.579413 0.0020483898 400 70
-0.1463877 -0.23125958 0.57801628 0.0020031231 407 72
-0.14304718 -0.23047712 0.5768739 0.0021194411 404 71
-0.14014259 -0.23037952 0.57743388 0.0019828668 410 73
-0.13747758 -0.23067987 0.5789817 0.0020070462 408 72
-0.13445893 -0.230387 0.57902896 0.0021712135 422 76
-0.13153945 -0.23025507 0.57946664 0.0019637472 415 74
-0.1284637 -0.22983769 0.57917041 0.0021829729 405 72
-0.12524362 -0.22913742 0.57814312 0.0021754201 414 74
-0.12228303 -0.22889052 0.57824135 0.0022509103 408 72
-0.11935713 -0.2286984 0.57846069 0.0019995889 406 72
-0.11654697 -0.22872411 0.57921398 0.0019576394 417 74
-0.1136392 -0.22855476 0.57945585 0.0021137998 417 74
-0.11039219 -0.22767715 0.57788175 0.0021625881 410 73
-0.10803289 -0.22863236 0.58094227 0.0020198291 403 71
-0.10457971 -0.22726171 0.57807398 0.0019444763 426 77
-0.10158595 -0.22684136 0.57760006 0.0020684116 418 75
-0.098726526 -0.22670569 0.57783157 0.0019859965 415 74
-0.09616705 -0.22727093 0.57983243 0.0021703329 426 77
-0.093431644 -0.22744189 0.58081102 0.0019631309 433 78
-0.090352118 -0.22675981 0.57959181 0.0019403441 430 77
-0.087376289 -0.2263027 0.57892692 0.0019424661 434 78
-0.084552161 -0.2262212 0.57920367 0.0018436256 465 86
-0.081529342 -0.22558445 0.57803941 0.001987082 452 83
-0.078617774 -0.22522135 0.57755655 0.0019375909 430 77
-0.075849593 -0.22525746 0.5780791 0.0021486562 415 74
-0.073176071 -0.2255881 0.57934076 0.0019624075 416 74
-0.070241332 -0.22510777 0.57850194 0.0019505981 433 78
-0.067331411 -0.22467072 0.57775587 0.0021573962 445 81
-0.064632826 -0.22493155 0.57878703 0.001937044 428 77
-0.061902087 -0.22509888 0.57956159 0.0020516438 414 74
-0.058945626 -0.22442257 0.57814658 0.0019606089 420 75
-0.056047365 -0.22391206 0.57714051 0.0020085357 407 72
-0.053181082 -0.22348294 0.57632691 0.0020777655 424 76
-0.050422806 -0.22348559 0.57661009 0.002217487 429 77
-0.047643404 -0.22338952 0.57662266 0.002043952 436 79
-0.044891104 -0.22341649 0.5769372 0.0020540005 422 76
-0.042251386 -0.22404395 0.57878745 0.0019876033 410 73
-0.039413486 -0.22363488 0.57794487 0.0022713621 395 69
-0.036642306 -0.22357124 0.57797939 0.0020469411 394 69
-0.033919867 -0.22381887 0.57880366 0.0021224024 418 75
-0.031141708 -0.2237101 0.57869142 0.0019953672 421 75
-0.028372606 -0.2236516 0.57869422 0.0021623722 388 68
-0.025640624 -0.22390462 0.57948858 0.0020423059 395 69
-0.022832088 -0.22346954 0.5784874 0.0020189979 403 71
-0.020007716 -0.22273852 0.5767051 0.0018957068 437 79
-0.017288994 -0.22313815 0.57783568 0.0021687795 420 75
-0.014531051 -0.22308709 0.57778502 0.002050603 431 78
-0.011782896 -0.22319758 0.57813859 0.0020079094 406 72
-0.009009636 -0.22275482 0.57704479 0.0020492792 389 68
-0.0062671755 -0.22301906 0.57776839 0.0019402177 423 76
-0.0035121024 -0.22289687 0.57747674 0.0019593758 422 76
-0.00075908488 -0.22249295 0.57644129 0.0020877735 413 73
0.0019829611 -0.22197719 0.57510173 0.0019850717 420 75
0.00473009 -0.22229879 0.57591784 0.0020274266 407 72
0.0074960999 -0.22294573 0.57756275 0.0021741271 396 70
0.010241244 -0.22279133 0.57711732 0.0020345862 397 70
0.012992907 -0.22281407 0.57711691 0.0019753466 415 74
0.015762575 -0.2230837 0.5777415 0.0019586117 420 75
0.018536149 -0.22332016 0.57826591 0.0019831546 414 74
0.021268336 -0.22306135 0.57749349 0.0020049536 404 71
0.024016391 -0.2230092 0.5772419 0.0020464882 409 73
0.026743041 -0.22278947 0.5765422 0.001954277 423 76
0.029610472 -0.22367415 0.5786854 0.0019992925 404 71
0.032319117 -0.22331077 0.57758474 0.0020774603 407 72
0.035044659 -0.22311211 0.57689559 0.0019313098 435 79
0.03784889 -0.22340684 0.57746726 0.001987671 412 73
0.040696427 -0.22389983 0.5785355 0.0020746291 395 69
0.04332326 -0.22319303 0.57648861 0.0021888276 406 72
0.046031445 -0.22296485 0.57566345 0.0020120633 424 76
0.048859179 -0.22330882 0.57629979 0.0020659454 430 77
0.051652271 -0.22346616 0.57643831 0.001946526 434 78
0.054546658 -0.22402354 0.5775919 0.0019242577 434 78
0.057230838 -0.22370549 0.57647198 0.0020737587 439 80
0.059912354 -0.22340678 0.5753864 0.0019507274 429 77
0.062608443 -0.22318633 0.57448679 0.0019210988 444 81
0.065327957 -0.22306439 0.57382476 0.0021741726 405 72
0.068118587 -0.22318541 0.57377088 0.0019898422 410 73
0.071097888 -0.22389111 0.57520175 0.002196105 402 71
0.073947564 -0.22415106 0.57546872 0.0021973599 420 75
0.076771997 -0.22431853 0.5754801 0.0019459591 419 75
0.079574056 -0.22441122 0.57528174 0.0021068803 423 76
0.082424194 -0.2246287 0.57538497 0.0019451926 422 76
0.085154742 -0.22451672 0.57462645 0.0019499018 422 76
0.088215806 -0.22525573 0.57602674 0.0020107343 407 72
0.091144964 -0.22562309 0.57645595 0.0020644946 423 76
0.093832687 -0.22538877 0.57532978 0.0020982465 426 77
0.096333764 -0.22473246 0.57311052 0.0021349953 418 75
0.099192411 -0.2249237 0.57303578 0.0019981365 420 75
0.10206416 -0.22513345 0.57298911 0.0021130883 437 79
0.10508486 -0.22565193 0.57370859 0.0021545943 439 80
0.10806227 -0.22605306 0.57410932 0.0019554317 419 75
0.11108691 -0.2265303 0.57468343 0.0020259705 404 71
0.11389192 -0.22654726 0.57407099 0.0019682345 425 76
0.11670355 -0.22657624 0.57347184 0.0020257472 427 77
0.11964933 -0.22685821 0.57349563 0.0019666867 426 77
0.12267312 -0.22727181 0.5738337 0.0019819923 418 75
0.12570989 -0.22769043 0.57416636 0.0019404637 439 80
0.12860513 -0.22783999 0.57380378 0.0020308851 433 78
0.13153513 -0.22804342 0.57356167 0.0020274608 442 80
0.1343953 -0.22811982 0.57298595 0.0020681261 428 77
0.13725403 -0.22819066 0.57238352 0.0020106272 439 80
0.13986185 -0.22784992 0.57073897 0.0019473316 425 76
0.14324106 -0.22875449 0.57220215 0.0020940283 431 78
0.14661218 -0.22961138 0.57353175 0.0019867406 419 75
0.14929903 -0.22938448 0.57214564 0.0021996158 415 74
0.15222849 -0.22953187 0.57168889 0.0019685884 411 73
0.15527041 -0.22984029 0.57162893 0.0019843925 432 78
0.15842491 -0.23030137 0.57194549 0.0021792371 421 75
0.1613282 -0.23038739 0.57133073 0.0019800332 410 73
0.1642482 -0.23049386 0.57077056 0.0020104118 410 73
0.16729896 -0.23077713 0.57065403 0.0019164828 432 78
0.17034546 -0.23104508 0.57050794 0.0019287388 427 77
0.17328563 -0.2311624 0.57000172 0.0018971065 448 82
0.1764764 -0.23160478 0.57031155 0.0018923557 437 79
0.18017662 -0.23269102 0.5722214 0.0019361618 427 77
0.18300393 -0.23263353 0.57133836 0.0019292694 428 77
0.18673752 -0.23371208 0.57326877 0.0020526838 425 76
0.19026075 -0.23449849 0.57450742 0.0021940025 378 65
0.19357958 -0.23501322 0.57511002 0.0023338844 346 58
0.19570003 -0.23407933 0.57220614 0.0022409065 347 58
0.19936906 -0.23499793 0.5738712 0.0021785195 355 60
0.20458683 -0.23768952 0.57990134 0.0023842722 314 50
0.2101748 -0.240729 0.5868153 0.0030614336 261 38
0.21504086 -0.24286844 0.5915758 0.0034247171 192 22
0.21986246 -0.24489953 0.59611934 0.0042223129 182 20
0.22443128 -0.24659772 0.59990424 0.0032339597 210 26
0.22765595 -0.24679336 0.60009098 0.0027970225 263 39
0.23175694 -0.24792124 0.60260564 0.0022859348 328 54
0.23520102 -0.24832617 0.60342562 0.0024533484 354 60
0.23798785 -0.24803565 0.60262138 0.002691081 283 43
0.23932049 -0.2462562 0.5982666 0.0028291431 251 36
0.24179654 -0.24568316 0.59691012 0.0028290439 248 35
0.24551252 -0.24636862 0.59867883 0.003088434 245 34
0.24582361 -0.2436623 0.59227204 0.0029493342 240 33
0.24758649 -0.24244304 0.58954406 0.0031482151 217 28
0.24795987 -0.23990858 0.58368015 0.0034181778 214 27
0.24775353 -0.23687962 0.57667106 0.0036084293 209 26
0.24899608 -0.23529047 0.57322395 0.0036393735 215 27
0.24997585 -0.23349254 0.56932467 0.0030770686 223 29
0.25133058 -0.23208182 0.56642413 0.0033394003 233 32
0.25427827 -0.23215729 0.56720811 0.0033660319 225 30
0.25717068 -0.23218119 0.56792539 0.0038733392 197 23
0.25936347 -0.23157986 0.56716967 0.0038977643 198 23
0.26162833 -0.23105533 0.56665492 0.0035185078 185 20
0.26487261 -0.2313977 0.56832081 0.0035392842 186 21
0.26705387 -0.23081401 0.56776518 0.0041500931 183 20
0.26832172 -0.22946154 0.56536299 0.0037947064 178 19
0.27101111 -0.22934026 0.56603891 0.0038689559 166 16
0.27469483 -0.23005429 0.56882828 0.0038454202 163 15
0.27748927 -0.23001651 0.56980968 0.0038394022 168 16
0.27987719 -0.22964595 0.5700109 0.0039940099 155 13
0.28129876 -0.22849786 0.56831914 0.0039874781 157 14
0.28336221 -0.22788878 0.56800121 0.0042597433 146 11
0.2853092 -0.22719896 0.56751484 0.0044361972 136 9
nan nan nan 0 133 8
nan nan nan 0 138 10
nan nan nan 0 129 7
nan nan nan 0 100 1
nan nan nan 0 91 0
nan nan nan 0 97 0
nan nan nan 0 111 3
nan nan nan 0 120 5
nan nan nan 0 113 4
-0.3175481 -0.2262762 0.58360237 0.0061754663 110 3
-0.3141146 -0.22584106 0.58197999 0.0052038226 113 4
-0.31032395 -0.22513893 0.57932043 0.005341161 112 3
-0.30767202 -0.22525762 0.57854182 0.0056963647 119 5
-0.30676618 -0.22666867 0.58093065 0.005361672 127 7
-0.30373272 -0.22651933 0.57923394 0.00452663 135 9
-0.30142805 -0.22691578 0.57889634 0.0054557063 130 8
-0.2995114 -0.22761461 0.57931811 0.0044433367 137 9
-0.29846707 -0.22899622 0.58147866 0.0049816272 140 10
-0.29610696 -0.22938523 0.58113396 0.004262337 146 11
-0.29295841 -0.22916508 0.57927835 0.004694744 150 12
-0.29046857 -0.22946092 0.57876503 0.0044178735 150 12
-0.28829476 -0.23001486 0.57893968 0.0047088517 160 15
-0.28662053 -0.23098253 0.58019209 0.0040593771 175 18
-0.28433415 -0.23147155 0.58028114 0.0042465013 164 16
-0.28159091 -0.23159491 0.57949871 0.0042371703 148 12
-0.27831993 -0.23128228 0.57767606 0.0041181324 149 12
-0.27580962 -0.2316018 0.57748359 0.0042295223 145 11
-0.27292097 -0.23160705 0.57655907 0.0038369496 169 17
-0.27150235 -0.23287329 0.57882321 0.0044704666 164 16
-0.26898205 -0.23321183 0.57883149 0.0043388931 173 18
-0.26524279 -0.23248932 0.5762651 0.0037358319 177 19
-0.26312307 -0.23318608 0.57727587 0.004281051 175 18
-0.26156262 -0.23439959 0.5796209 0.0035441725 179 19
-0.25970942 -0.23537534 0.58143401 0.0035151199 188 21
-0.25733075 -0.23589176 0.58217227 0.0032439933 216 28
-0.25377628 -0.23532981 0.5803138 0.0035125113 213 27
-0.25058424 -0.2350947 0.57932812 0.0035299915 219 28
-0.24769108 -0.2351377 0.57909441 0.0033654736 232 31
-0.24512851 -0.2354994 0.57971174 0.0031422707 257 37
-0.24183576 -0.23515984 0.57867008 0.0026978101 265 39
-0.2390749 -0.23533551 0.5789637 0.0029056726 274 41
-0.23661715 -0.23581761 0.58007818 0.0025713583 289 45
-0.23422219 -0.23637529 0.58144546 0.0029196565 283 43
-0.23074448 -0.2358405 0.58019197 0.0030365831 227 30
-0.22749646 -0.23552971 0.57955468 0.0026677281 292 45
-0.22411315 -0.23506886 0.57861179 0.0022777461 340 57
-0.22125743 -0.23515648 0.5790813 0.0023506857 336 56
-0.21847802 -0.23532867 0.57982004 0.0022587641 339 56
-0.21540235 -0.23518209 0.57983208 0.0023657829 347 58
-0.21239169 -0.23510341 0.58006716 0.0022554456 336 56
-0.20941606 -0.23506185 0.58044726 0.0022345246 344 57
-0.20596087 -0.23447318 0.57952553 0.0024141893 347 58
-0.20202221 -0.23330913 0.57722473 0.0022041416 356 60
-0.19896354 -0.23314217 0.57743144 0.0023573621 336 56
-0.19611074 -0.23321506 0.57827222 0.0022755221 335 55
-0.19325304 -0.23328425 0.5791409 0.0026543934 337 56
-0.19018914 -0.2331028 0.57942033 0.0023430097 342 57
-0.18674535 -0.23244284 0.57853723 0.0022676545 337 56
-0.18353595 -0.23205841 0.57836223 0.0024677436 350 59
-0.18002152 -0.23126979 0.57719815 0.0024887326 354 60
-0.17656142 -0.2305263 0.57616001 0.0020884639 385 67
-0.17402756 -0.23098761 0.57814747 0.0020832187 381 66
-0.17153665 -0.23152244 0.58033448 0.0021972375 357 60
-0.16833493 -0.23109978 0.58013099 0.0023470765 369 63
-0.16440135 -0.22964008 0.57732308 0.0023464621 381 66
-0.16131368 -0.22933106 0.57740486 0.0020375447 394 69
-0.15836722 -0.22921526 0.57797211 0.0019955279 405 72
-0.15488236 -0.22830157 0.57652193 0.0020116442 398 70
-0.15256174 -0.22910193 0.57939589 0.0021454096 409 73
-0.14953406 -0.22885081 0.57960689 0.0021597389 408 72
-0.14618351 -0.22808613 0.57850564 0.0020427136 432 78
-0.14283915 -0.2273009 0.57733744 0.0019193193 433 78
-0.14001794 -0.22733313 0.57823211 0.0021086021 426 77
-0.13722323 -0.22741064 0.57923043 0.0021222474 437 79
-0.13433953 -0.22734086 0.57984012 0.0019708921 420 75
-0.13118437 -0.22679871 0.57922888 0.0019336847 446 81
-0.12826917 -0.22665665 0.57962197 0.0019681512 411 73
-0.12505443 -0.2259669 0.57859606 0.0020154349 409 73
-0.12211908 -0.2257618 0.57879156 0.0020382456 405 72
-0.1191332 -0.22545137 0.57869858 0.0021181793 419 75
-0.11622222 -0.22527108 0.57892072 0.0021142699 455 83
-0.11354907 -0.22555424 0.58031648 0.0020494401 428 77
-0.11004275 -0.22415471 0.57736158 0.001985183 433 78
-0.10714474 -0.2239535 0.57747054 0.0020187453 447 81
-0.10453078 -0.22435117 0.57910591 0.0020222648 440 80
-0.10135263 -0.22352649 0.57756662 0.0019131276 436 79
-0.09853255 -0.22346711 0.57798392 0.0020436244 424 76
-0.095908925 -0.22386283 0.5795607 0.0022570628 414 74
-0.093154162 -0.22396703 0.58036566 0.0021044605 430 77
-0.090136796 -0.2234268 0.57948118 0.0019349515 433 78
-0.087284133 -0.22327328 0.57957989 0.0020583109 449 82
-0.084371053 -0.22294998 0.57921869 0.0019269834 460 84
-0.081442334 -0.22256185 0.57866967 0.0019018617 438 79
-0.078442372 -0.22194475 0.57750529 0.0019853767 451 82
-0.075743191 -0.22216459 0.57850039 0.0019698921 424 76
-0.07291849 -0.22201896 0.57852644 0.0019431496 429 77
-0.070075698 -0.22180459 0.57835549 0.0019466749 426 77
-0.067240335 -0.22159702 0.57818455 0.0020428901 418 75
-0.064471036 -0.22159867 0.57854241 0.0020862299 444 81
-0.061829448 -0.22205919 0.58008212 0.0019589337 433 78
-0.059025213 -0.22195137 0.5801214 0.0018840624 447 81
-0.056010056 -0.22100067 0.57793975 0.0019168296 450 82
-0.053123638 -0.22048567 0.57687968 0.002061178 405 72
-0.050328448 -0.22031365 0.57670015 0.0020615547 426 77
-0.047568299 -0.220284 0.57687742 0.0020905258 436 79
-0.044835884 -0.22038701 0.57738692 0.001983207 454 83
-0.042102344 -0.22049764 0.57790124 0.0020159995 416 74
-0.039327245 -0.22039084 0.57783073 0.0020051477 414 74
-0.03657214 -0.22038846 0.57801896 0.0022564377 425 76
-0.033854283 -0.22062844 0.57882822 0.0019117246 435 79
-0.031105861 -0.22069412 0.57916576 0.0020460261 398 70
-0.028324354 -0.22051501 0.5788464 0.0020827667 388 68
-0.025601272 -0.22080114 0.57973403 0.0020200207 402 71
-0.022790324 -0.2203071 0.57855862 0.0021197423 430 77
-0.020015283 -0.22007205 0.57804906 0.0022170269 414 74
-0.017241247 -0.21977489 0.577362 0.0021235913 434 78
-0.014481078 -0.21957536 0.57691735 0.0020141988 430 77
-0.011727122 -0.21939877 0.57651895 0.0019534358 425 76
-0.009000985 -0.21979369 0.57760853 0.0020540727 428 77
-0.006258125 -0.21994779 0.57805163 0.0019653395 416 74
-0.0035062749 -0.21977994 0.57763475 0.0019699782 423 76
-0.00075668388 -0.21905126 0.57573032 0.0019910138 422 76
0.0019816428 -0.21909118 0.57583219 0.0019911616 434 78
0.0047116005 -0.21869628 0.57477754 0.0019765364 410 73
0.0074661169 -0.21931277 0.5763675 0.002018434 394 69
0.010225732 -0.21970771 0.57736105 0.001957892 420 75
0.012968321 -0.21964704 0.57714367 0.001970144 412 73
0.015737064 -0.21997316 0.57792866 0.0020648234 416 74
0.018510368 -0.22025652 0.57858706 0.0019489684 425 76
0.021248948 -0.22010686 0.57809407 0.0019790542 412 73
0.02398994 -0.22001357 0.57773525 0.0019713147 417 74
0.026787642 -0.22040613 0.57863766 0.0019504094 427 77
0.02958194 -0.22070006 0.57926649 0.0019430974 421 75
0.032299113 -0.22041753 0.57836789 0.0021790052 402 71
0.034972202 -0.21990222 0.57684451 0.0022463547 410 73
0.037741836 -0.22002484 0.57698023 0.0022706857 407 72
0.040620517 -0.2207233 0.57861048 0.0020023831 413 73
0.043251932 -0.22007485 0.57669479 0.0021245982 429 77
0.045944422 -0.21979606 0.57573366 0.0021298875 437 79
0.048686851 -0.21977417 0.57543045 0.0019416807 436 79
0.05155297 -0.22028318 0.57650131 0.0019726367 449 82
0.054336373 -0.22040501 0.57654238 0.0020349626 433 78
0.057043765 -0.22022165 0.57576936 0.0020919186 439 80
0.059770223 -0.22012539 0.57520843 0.0021289231 433 78
0.062497083 -0.22003902 0.57465732 0.002042453 446 81
0.065133192 -0.21965387 0.57331032 0.0018964591 435 79
0.067929566 -0.21981855 0.57338202 0.0021030097 429 77
0.070836201 -0.22031333 0.57429695 0.0020272238 417 74
0.073777594 -0.2208751 0.57536763 0.0019321146 429 77
0.076681525 -0.22128825 0.57603216 0.0021372675 417 74
0.079476751 -0.22136985 0.57581526 0.001965005 410 73
0.081997052 -0.22070597 0.57364273 0.0021235542 426 77
0.085119933 -0.22165442 0.57564247 0.0019878456 413 73
0.088162407 -0.22234032 0.57693905 0.0021662463 408 72
0.090799883 -0.22199412 0.57553858 0.0019762244 421 75
0.093451291 -0.22170153 0.57426041 0.0021103991 430 77
0.096116617 -0.22145784 0.57309198 0.0021708882 411 73
0.098622397 -0.22087048 0.5710178 0.001938277 425 76
0.10188485 -0.22196358 0.57326865 0.0019610366 422 76
0.10482085 -0.22230636 0.5735597 0.001954817 431 78
0.10777716 -0.22267343 0.57389313 0.0020218659 451 82
0.11076471 -0.22308491 0.57432079 0.0020690619 416 74
0.11366329 -0.2233014 0.57422662 0.0019690874 430 77
0.11635 -0.22310127 0.57304335 0.0021048286 405 72
0.11929359 -0.22339152 0.57310194 0.0022746166 400 70
0.12236128 -0.22389555 0.5736894 0.0022661122 405 72
0.12542997 -0.22437888 0.57420409 0.0019548051 438 79
0.12855285 -0.22493587 0.57488781 0.0020987005 430 77
0.13117251 -0.22460735 0.57329232 0.0019440483 436 79
0.13400118 -0.22464296 0.57261264 0.0019229527 431 78
0.13706514 -0.2250635 0.57289892 0.0019743484 437 79
0.13967405 -0.22473496 0.57126552 0.0018932858 445 81
0.14292485 -0.22543177 0.57222593 0.0018959924 442 80
0.14599741 -0.22582595 0.57240409 0.001937515 429 77
0.14897327 -0.22605847 0.57216173 0.0020898338 439 80
0.15174419 -0.22597708 0.57111746 0.0019560757 441 80
0.15476404 -0.22626266 0.57099503 0.0020308809 443 80
0.15808478 -0.22696997 0.57193023 0.0019629698 414 74
0.1610707 -0.22718011 0.57160848 0.0019587502 421 75
0.16421433 -0.22760153 0.57181787 0.0019084236 440 80
0.16745126 -0.22813569 0.5723114 0.0020941005 430 77
0.17041273 -0.228283 0.57183909 0.0019324758 423 76
0.17306741 -0.22802123 0.57035273 0.0019092635 473 87
0.17574997 -0.22780412 0.56899315 0.0019170067 454 83
0.17935978 -0.22877659 0.57061857 0.0019412347 448 82
0.18303077 -0.22979541 0.57237285 0.0020501644 437 79
0.18620454 -0.23016812 0.57253671 0.0019856549 416 74
0.18930015 -0.23043431 0.57246071 0.001958889 414 74
0.1920377 -0.23026322 0.57132894 0.0020166882 406 72
0.19478194 -0.2301051 0.5702647 0.0022391011 403 71
0.1976153 -0.23005526 0.56950736 0.0020362856 432 78
0.20244983 -0.23230317 0.57447374 0.0022661446 380 66
0.20820139 -0.23552486 0.58187985 0.0031662032 265 39
0.21456817 -0.239343 0.59079254 0.0034123519 195 23
0.21969675 -0.24169397 0.59612375 0.0033840768 196 23
0.22373728 -0.24280035 0.59843487 0.0037673695 192 22
0.22746091 -0.24353789 0.59989315 0.0035388656 202 24
0.2301055 -0.24311587 0.59855622 0.0031793823 220 29
0.23512605 -0.24518241 0.60340852 0.0024579761 322 52
0.23802163 -0.24500848 0.60281098 0.0023934939 314 50
