# .PCD v0.7 - Point Cloud Data file format
VERSION 0.7
FIELDS x y z noise intensity gray
SIZE 4 4 4 4 2 1
TYPE F F F F U U
COUNT 1 1 1 1 1 1
WIDTH 877
HEIGHT 1
VIEWPOINT 0 0 0 1 0 0 0
POINTS 877
DATA ascii
0.048665013 -0.16375799 0.55769259 0.0017356745 592 114
0.051585 -0.16478299 0.56102192 0.0015803529 587 113
0.053889193 -0.16383685 0.55762994 0.0015864802 590 114
0.056135327 -0.16280943 0.55395293 0.0015819682 592 114
0.058628716 -0.16255802 0.55290675 0.0015904042 626 122
0.061403885 -0.16307613 0.55446649 0.0016515962 617 120
0.0639994 -0.16309452 0.55431485 0.0015423438 612 119
0.066745318 -0.16347988 0.55539817 0.0015828232 590 114
0.069586277 -0.16406044 0.55713099 0.0016450336 600 116
0.07210651 -0.16387026 0.55623317 0.0017437862 593 114
0.074573219 -0.16357592 0.55496955 0.0016511503 594 114
0.077086367 -0.16339977 0.55409437 0.0015630112 601 116
0.079670064 -0.16337982 0.55373538 0.0015980208 604 117
0.082212701 -0.16327956 0.55309027 0.0015719767 598 115
0.08443623 -0.162571 0.55037165 0.0015590646 606 117
0.087006621 -0.16255255 0.54997575 0.0016872686 600 116
0.089376882 -0.162172 0.54834026 0.0016434102 614 119
0.092208751 -0.16262686 0.54951352 0.0015503762 613 119
0.095082603 -0.16312903 0.55082804 0.0016207807 615 119
0.097375326 -0.16263396 0.54875857 0.0015604948 610 118
0.099610105 -0.16207018 0.54644281 0.0016168798 620 120
0.10243757 -0.16247484 0.54737496 0.0016519022 604 117
0.10519458 -0.16275063 0.54785311 0.0015720272 603 117
0.10771406 -0.16265449 0.54706019 0.001646929 609 118
0.10972089 -0.16180685 0.54372352 0.0016831334 611 118
0.11241439 -0.16198748 0.54382491 0.0016155611 609 118
0.11521547 -0.16231158 0.54438657 0.0016772739 618 120
0.11792369 -0.16249354 0.54444939 0.001691553 609 118
0.12056285 -0.1625746 0.54415262 0.0015654693 613 119
0.12086238 -0.15956344 0.53349549 0.0016810327 621 121
0.12557419 -0.1623815 0.54230726 0.0015414881 619 120
0.12773922 -0.16185912 0.53993273 0.0015423645 619 120
0.12930737 -0.16061597 0.53513855 0.0015358961 618 120
0.13151096 -0.16019492 0.53306812 0.0016073618 634 124
0.13316196 -0.15912949 0.52883756 0.0016448691 636 124
0.13539976 -0.15879188 0.52700925 0.0015843443 626 122
0.13827617 -0.15920188 0.52763939 0.0015197895 634 124
0.14111471 -0.15955436 0.52805251 0.0016697731 639 125
0.14285739 -0.15867718 0.52437615 0.0016339378 628 122
0.14488475 -0.15814112 0.52181154 0.001496756 646 126
0.14662012 -0.15731005 0.51825827 0.0015763354 618 120
0.14685646 -0.15492538 0.50958174 0.0015488603 630 123
0.14793895 -0.15349726 0.50405091 0.0014930096 643 126
nan nan nan 0 709 141
nan nan nan 0 732 146
nan nan nan 0 579 111
nan nan nan 0 421 75
0.18531618 -0.17765096 0.57820928 0.0016405886 540 102
0.18848424 -0.17797999 0.57818854 0.0016336016 585 112
0.19168754 -0.17833206 0.57822311 0.0015038087 629 123
0.19492109 -0.17870162 0.57829678 0.0016462739 629 123
0.19836375 -0.17924954 0.57893115 0.0016626187 610 118
0.20263369 -0.18051897 0.58187652 0.0015142049 616 120
0.20600705 -0.18096544 0.58215374 0.0015341487 611 118
0.20809628 -0.18028705 0.57881337 0.0015604709 608 118
0.21220101 -0.18134956 0.58106285 0.0016122904 561 107
0.21566531 -0.18184362 0.58148879 0.001601916 578 111
0.21820855 -0.18155831 0.57943374 0.0016667243 562 107
0.22136174 -0.18178131 0.57901889 0.0017009347 556 106
0.22487783 -0.18229273 0.57954139 0.0016799078 537 101
0.22800449 -0.1824795 0.57905608 0.0017943615 528 99
0.23124339 -0.18275027 0.57886928 0.0017067336 517 97
0.23473021 -0.18320784 0.5793106 0.0017218048 510 95
0.23802821 -0.18350866 0.57929838 0.0018114645 470 86
0.24124125 -0.18373749 0.57910889 0.001837792 464 85
0.2446121 -0.18407962 0.57933193 0.0018427535 461 84
0.24818608 -0.18456469 0.58006501 0.0019263541 425 76
0.25077605 -0.18431526 0.57855755 0.0019138159 436 78
0.25399047 -0.18452522 0.57856625 0.0019604182 422 75
0.25689894 -0.18451068 0.57794845 0.0021602011 388 67
0.26063272 -0.18508251 0.57924777 0.0021171016 376 64
0.26419154 -0.18551876 0.5802055 0.0021761232 362 61
0.26587802 -0.18464513 0.57715511 0.0024138934 335 55
0.26872659 -0.18458873 0.5767504 0.0025487714 345 57
0.27152199 -0.18449746 0.5763275 0.0022843294 340 56
0.27532017 -0.18508221 0.57810789 0.0023810843 313 50
0.27853706 -0.18526801 0.57873404 0.002431357 309 49
0.281344 -0.18518005 0.57859647 0.0024805057 293 45
0.28418797 -0.18511809 0.57863104 0.002622403 275 41
0.28674597 -0.18487298 0.5781824 0.0025715127 283 43
0.28972751 -0.18490319 0.57868242 0.0026843406 260 38
0.29212281 -0.18456239 0.5781067 0.0027229451 259 37
0.29461706 -0.18429022 0.57782841 0.0031647247 252 36
0.29741442 -0.18421115 0.57823598 0.0029951741 227 30
0.29973823 -0.1838432 0.57781434 0.003308007 211 26
0.30189979 -0.18338376 0.5771783 0.0033213254 201 24
0.30431846 -0.18308778 0.57712716 0.0039054863 196 23
-0.33605036 -0.17617075 0.58079076 0.004433759 148 12
-0.33523944 -0.1772442 0.58281624 0.0040229447 157 14
-0.33171695 -0.17689018 0.58014375 0.0037726385 175 18
-0.32935008 -0.17715155 0.57951313 0.0037456548 177 19
-0.32712033 -0.17749192 0.57917142 0.0042470358 159 14
-0.3259488 -0.17841753 0.58077276 0.0038939542 160 15
-0.32439181 -0.17914677 0.5817706 0.004103384 172 17
-0.31987646 -0.1782407 0.57751161 0.0044049243 175 18
-0.31824055 -0.17893717 0.57850242 0.003441324 192 22
-0.31581575 -0.17919876 0.57813889 0.0035702167 187 21
-0.31300855 -0.1792462 0.57714367 0.003381842 197 23
-0.31108353 -0.17980444 0.57785302 0.0035755173 201 24
-0.30941758 -0.18052433 0.57914108 0.003436897 194 22
-0.30597931 -0.18021405 0.57719129 0.003624948 207 25
-0.30386928 -0.18068762 0.5778234 0.0034794745 227 30
-0.30130243 -0.18089606 0.57767934 0.0030428993 229 31
-0.29829916 -0.18084402 0.5767802 0.0030133731 230 31
-0.29604238 -0.18124801 0.57741433 0.0032461553 242 34
-0.29407379 -0.18183821 0.57872128 0.0028138806 247 35
-0.2919167 -0.18232259 0.57977343 0.0028596367 243 34
-0.28866288 -0.1821249 0.5787434 0.002680562 261 38
-0.28678194 -0.18279821 0.58056998 0.0029220835 276 41
-0.28380764 -0.18278134 0.58029461 0.0028791281 274 41
-0.27944356 -0.18185966 0.57723981 0.0026873383 261 38
-0.27614781 -0.18162106 0.57644677 0.002599438 273 41
-0.2729854 -0.18146598 0.57601178 0.0027317444 298 46
-0.26988471 -0.18134905 0.57579041 0.0029016458 292 45
-0.26742324 -0.18166375 0.57703167 0.0026991223 315 50
-0.26472777 -0.1818247 0.57787597 0.0025936246 331 54
-0.26159078 -0.18168262 0.57784587 0.0024994886 330 54
-0.2583209 -0.18144399 0.57759374 0.0022220176 351 59
-0.25510204 -0.18123613 0.57752091 0.0022542956 379 65
-0.25186235 -0.18100847 0.57746208 0.0021689034 399 70
-0.24867199 -0.18081133 0.57757336 0.0020044318 400 70
-0.24560188 -0.18069799 0.57802022 0.0020206699 404 71
-0.24258158 -0.18061902 0.5786401 0.0019947283 409 72
-0.23889555 -0.18003644 0.57770133 0.0018627872 447 81
-0.23530021 -0.1795087 0.57698506 0.0018956107 496 92
-0.23182409 -0.17905991 0.57656312 0.0018748044 493 91
-0.22849113 -0.17871176 0.57650048 0.0018371684 501 93
-0.22447711 -0.1778152 0.57469535 0.0017216746 516 97
nan nan nan 0 542 103
-0.17313409 -0.14074081 0.45665383 0.0012176333 932 192
-0.17079362 -0.14068262 0.45737785 0.0011450188 1054 220
nan nan nan 0 777 157
-0.18317592 -0.15500008 0.50596362 0.0015635499 677 134
-0.18496038 -0.15867549 0.51900959 0.0015587948 668 131
-0.18551564 -0.16138475 0.52893615 0.0014936515 652 128
-0.18310733 -0.16155629 0.53055966 0.0014588715 667 131
-0.18066037 -0.16169822 0.53208005 0.0014450883 686 136
-0.17873649 -0.16231935 0.53517175 0.0015656431 663 130
-0.17623508 -0.16242665 0.53656107 0.0014338556 693 137
-0.17395802 -0.1627471 0.53864223 0.0015124264 696 138
-0.1722438 -0.16361201 0.54251587 0.0014560481 670 132
-0.17038943 -0.16436857 0.54602164 0.0014471711 682 135
-0.16781554 -0.16444404 0.54724997 0.0014699998 686 136
-0.16472059 -0.1640031 0.54673672 0.0014970397 692 137
-0.16167161 -0.16359434 0.54630375 0.0014447885 690 137
-0.16032633 -0.16492453 0.55166042 0.0014531922 683 135
-0.15827505 -0.16556112 0.55468464 0.0014545502 676 133
-0.15503184 -0.16495135 0.55350941 0.0014608315 678 134
-0.15228981 -0.16486287 0.55405587 0.0014918705 678 134
-0.14957352 -0.16479959 0.55466205 0.0014563003 678 134
-0.14672841 -0.16458951 0.55474871 0.0014585756 673 133
-0.14428334 -0.16482873 0.55632561 0.0016101007 676 133
-0.1421389 -0.16542678 0.5590933 0.0015454883 662 130
-0.13945161 -0.16540384 0.55974102 0.0015546327 668 131
-0.13621031 -0.16471009 0.55809164 0.0015429675 669 132
-0.13403036 -0.16529767 0.56076002 0.0014835253 665 131
-0.13181031 -0.16585867 0.56331968 0.0016146961 659 129
-0.12877505 -0.16539584 0.56237954 0.001464343 671 132
-0.12551835 -0.16462304 0.56035835 0.0015527245 663 130
-0.12420413 -0.16641951 0.56706434 0.0014954921 648 127
-0.12100922 -0.16571981 0.56524694 0.0014751577 665 131
-0.11709015 -0.16397431 0.55983323 0.0015792929 668 131
-0.11475877 -0.164423 0.56188589 0.0014812816 660 130
-0.11199117 -0.16425312 0.56180555 0.0014832576 659 129
-0.10942855 -0.16438292 0.56273055 0.0015296069 649 127
-0.10663934 -0.16417031 0.56246394 0.0015565634 642 126
-0.10396642 -0.16413048 0.56276995 0.0015295428 643 126
-0.10157966 -0.16455212 0.56464106 0.0016038655 646 126
-0.099057257 -0.16477077 0.56579953 0.0016476533 652 128
-0.096355006 -0.16469406 0.56592685 0.0015515081 633 123
-0.09381862 -0.16490455 0.56702471 0.0015744822 638 125
-0.091329247 -0.16521238 0.56844199 0.0016657619 629 123
-0.088831164 -0.16552246 0.56985235 0.0015217129 629 123
-0.086149581 -0.16549923 0.57010043 0.0016214448 615 119
-0.08330483 -0.16515104 0.56921345 0.0015361565 626 122
-0.080507204 -0.16487639 0.568564 0.0015146026 635 124
-0.077907406 -0.16500193 0.56928045 0.0015524363 619 120
-0.075344592 -0.16521746 0.5702942 0.0016135224 621 121
-0.072822429 -0.16554122 0.57166892 0.0016739382 613 119
-0.069477096 -0.16394712 0.56640625 0.0015778879 616 120
-0.067351252 -0.16521843 0.57102972 0.0015434159 615 119
-0.064728685 -0.16532578 0.57162017 0.0016403777 610 118
-0.062062953 -0.16532736 0.57183331 0.0015315196 618 120
-0.059413251 -0.16537368 0.57218987 0.0016248235 618 120
-0.056691114 -0.1652133 0.57182008 0.0016860367 598 115
-0.053692821 -0.16419257 0.56846046 0.0017338474 611 118
-0.051159795 -0.1645626 0.5699048 0.0015777219 602 116
-0.048414543 -0.16425303 0.56898558 0.0016965119 609 118
-0.045802485 -0.16438574 0.56958842 0.0015998379 607 117
-0.043415543 -0.16539229 0.57321042 0.0015838004 615 119
-0.0407492 -0.16539654 0.57335043 0.00156606 600 116
-0.038013861 -0.1651018 0.57244438 0.0015692363 609 118
-0.035203546 -0.16441241 0.57016075 0.0016359816 605 117
-0.032618098 -0.16474654 0.57141751 0.0015540135 614 119
-0.029986642 -0.16488686 0.57199401 0.0015781858 592 114
-0.027312977 -0.16479985 0.57177365 0.0015876103 589 113
-0.024681183 -0.16497399 0.57245129 0.0015646541 611 118
-0.021912249 -0.16416277 0.56970155 0.0016668041 604 117
-0.019296484 -0.16443378 0.57069957 0.0015803676 598 115
-0.016630687 -0.16429688 0.57027423 0.0015599855 607 117
-0.013956218 -0.16400617 0.56930745 0.0017008135 598 115
-0.011336439 -0.16437249 0.57061392 0.001728533 596 115
-0.0087091429 -0.16482016 0.57219553 0.0015705313 602 116
-0.006036514 -0.16442633 0.57084852 0.0017314141 595 115
-0.0033895851 -0.1646639 0.57168609 0.0015687724 602 116
-0.00073169568 -0.16416155 0.56994772 0.0015938758 585 112
0.0019202864 -0.16454142 0.57126492 0.0015880334 590 114
0.0045818319 -0.16482453 0.57223892 0.0015983455 579 111
0.0072601624 -0.16528189 0.57381058 0.0016321372 582 112
0.009912407 -0.16505922 0.57301402 0.0015831561 596 115
0.012495885 -0.16402814 0.56940389 0.0016284573 595 115
0.015175255 -0.16439617 0.57064325 0.0015781005 592 114
0.017832777 -0.16445325 0.57079571 0.0016232326 600 116
0.020465968 -0.16430022 0.57021135 0.001560527 606 117
0.023085477 -0.16408505 0.56940365 0.0015834897 592 114
0.025687385 -0.16380188 0.5683524 0.0015705349 593 114
0.028483486 -0.16469434 0.57137227 0.0015720185 604 117
0.031056428 -0.16425431 0.56976068 0.0015789553 597 115
0.033446621 -0.16299288 0.56529266 0.0015888683 602 116
0.036064211 -0.16294266 0.5650177 0.0015780827 601 116
0.03871781 -0.16305092 0.56528354 0.0016521571 588 113
0.041600179 -0.16404758 0.56861979 0.0016029212 574 110
0.044227742 -0.16398028 0.56825835 0.0015886802 591 114
0.046450011 -0.16250269 0.56300163 0.0015862411 598 115
0.049217872 -0.16298971 0.56454271 0.0016645695 605 117
0.052134365 -0.16389461 0.56751996 0.0015790799 593 114
0.054883849 -0.16421247 0.56845319 0.001690332 591 114
0.057578892 -0.16434568 0.56873614 0.0015717457 587 113
0.059778169 -0.1631144 0.5642876 0.001710847 602 116
0.062323123 -0.1628904 0.56331432 0.0016361263 608 118
0.064902477 -0.16277079 0.56269103 0.0016078798 609 118
0.067640036 -0.16304182 0.56340623 0.0015606363 603 117
0.070225187 -0.16293895 0.56281704 0.0015753469 591 114
0.072779834 -0.16277526 0.56200564 0.001700853 589 113
0.075321056 -0.16259399 0.56112128 0.0015580578 607 117
0.077705458 -0.16209778 0.55913776 0.0015530026 608 118
0.080462463 -0.16238587 0.55984646 0.0017453863 604 117
0.083511956 -0.16322745 0.56244725 0.0015915877 583 112
0.085977182 -0.16291052 0.56104046 0.0015517191 613 119
0.08857324 -0.16285297 0.56051272 0.0015507825 609 118
0.090924352 -0.16236129 0.55847663 0.0016342303 620 120
0.093194894 -0.16175732 0.55604059 0.0016387604 618 120
0.095388718 -0.16105671 0.55325925 0.0016766154 604 117
0.098619595 -0.16209781 0.55644351 0.0016817328 609 118
0.10129713 -0.16219912 0.55638158 0.001532802 626 122
0.10378919 -0.16200581 0.55529183 0.0015252373 626 122
0.106738 -0.16251746 0.55659914 0.0015497593 609 118
0.10937076 -0.16253489 0.55619389 0.0015506401 616 120
0.1110225 -0.16112772 0.55089861 0.0015170901 625 122
0.1129843 -0.16022463 0.54731435 0.0016512376 624 121
0.11579473 -0.16053851 0.54786897 0.0016681593 628 122
0.11827379 -0.16038926 0.54682231 0.0016789987 626 122
0.12106344 -0.16065857 0.54718167 0.0015231179 628 122
0.12379014 -0.16083482 0.54720128 0.0016562957 630 123
0.12610717 -0.16048245 0.54540163 0.0015346621 625 122
0.1280826 -0.15971833 0.54218465 0.0015081629 634 124
0.13163191 -0.16090825 0.54557705 0.0015106943 637 124
0.13229057 -0.15858692 0.53704643 0.0015817326 632 123
0.13531619 -0.15913728 0.53822517 0.0015078466 632 123
0.137918 -0.15917799 0.53765476 0.0015456458 648 127
0.13987 -0.15848096 0.53457224 0.0015075544 645 126
0.14183366 -0.15782194 0.53160107 0.0016204716 636 124
0.14439978 -0.15784469 0.53090626 0.0015084423 639 125
0.1467351 -0.15761873 0.52935266 0.0015349169 618 120
0.14672242 -0.15492126 0.51949072 0.0015500273 610 118
0.14841622 -0.15408581 0.51586872 0.0017036953 610 118
0.14925706 -0.1524069 0.50941437 0.001579864 641 125
nan nan nan 0 780 157
0.14010561 -0.13850063 0.46136099 0.0012140346 946 195
0.14359012 -0.13971773 0.46459439 0.0015185808 710 141
nan nan nan 0 273 41
0.18507923 -0.17460777 0.57849616 0.0018028306 472 86
0.18822813 -0.17491712 0.57843179 0.0016874477 594 114
0.19150199 -0.17533173 0.57869369 0.0014841437 647 127
0.19474335 -0.17570496 0.57879877 0.0015825456 638 125
0.1982238 -0.1762801 0.57954997 0.0014988126 636 124
0.20088209 -0.17611814 0.57786489 0.0015870325 617 120
0.20456502 -0.17684653 0.57909048 0.0016429706 617 120
0.2080994 -0.17742825 0.57982337 0.0015050193 629 123
0.21120803 -0.17763607 0.57932949 0.0016883188 594 114
0.21434043 -0.17785808 0.57888335 0.0016564535 601 116
0.21774232 -0.1782949 0.57914108 0.0015974771 568 108
0.22127378 -0.17882499 0.57970959 0.0016733066 577 111
0.22423039 -0.17888291 0.57876289 0.0017724091 539 102
0.22771557 -0.17935565 0.57917994 0.0016833966 531 100
0.23130789 -0.17989987 0.57985204 0.001813566 528 99
0.23453622 -0.18015102 0.57961178 0.0016978829 515 96
0.23765506 -0.18031295 0.57912499 0.0017613344 491 91
0.24098937 -0.18063244 0.57919073 0.0018105727 494 91
0.24501626 -0.18145725 0.58092582 0.0020433243 442 80
0.24809372 -0.18156773 0.58043057 0.0020152647 462 84
0.25095594 -0.18151996 0.57949573 0.0021037525 446 80
0.25357118 -0.18129672 0.57807356 0.0019189676 432 77
0.25681946 -0.18152598 0.57817078 0.0021329992 423 75
0.26096597 -0.18237782 0.58032817 0.0020780582 391 68
0.26347256 -0.18207738 0.57890171 0.0021546676 362 61
0.26585326 -0.18169753 0.57731187 0.0022515573 351 59
0.2686668 -0.18161859 0.57676864 0.0023431366 343 57
0.27270585 -0.1823608 0.57892388 0.0022636617 336 55
0.27573094 -0.18241638 0.57899123 0.0025874034 316 51
0.2784901 -0.18229674 0.57859582 0.002368554 320 51
0.28128251 -0.18220112 0.57836992 0.002466013 298 46
0.28393471 -0.18201758 0.57795727 0.0026967155 298 46
0.28656369 -0.18182309 0.57760113 0.0030086793 277 42
0.289103 -0.18157619 0.57716787 0.0029585969 264 39
0.29151198 -0.18125324 0.57657993 0.002716905 261 38
0.2941567 -0.18108182 0.57655913 0.0027530179 258 37
0.29684952 -0.18094309 0.57672501 0.0031375939 243 34
0.2986972 -0.18029691 0.57535225 0.0034129962 228 30
0.3011561 -0.18002857 0.57526052 0.0034018359 207 25
0.30356038 -0.17973301 0.57515508 0.0033157577 201 24
-0.3406876 -0.17572135 0.58801204 0.0041485433 152 13
-0.33474395 -0.17412794 0.58115977 0.0048284121 155 14
-0.3338224 -0.17514196 0.58302951 0.0039853016 164 16
-0.33071446 -0.17501654 0.58112895 0.0045384676 168 17
-0.32715103 -0.17464578 0.57845843 0.0038147676 168 17
-0.32480854 -0.17492601 0.57799149 0.0046135136 164 16
-0.32202029 -0.17496897 0.5767895 0.0041579101 180 19
-0.32046998 -0.17569146 0.57787609 0.0039916928 186 21
-0.31793064 -0.17587988 0.57725722 0.0040783961 176 18
-0.31559175 -0.17618366 0.57707375 0.003856482 190 22
-0.31312951 -0.17642355 0.5767408 0.0040919683 192 22
-0.31179607 -0.17730983 0.57857978 0.0035924979 207 25
-0.31014943 -0.17803299 0.57994616 0.0035286054 200 24
-0.30763298 -0.17826588 0.57978201 0.0033373837 199 24
-0.30470437 -0.1782621 0.57892185 0.0029449644 234 32
-0.30195907 -0.17836651 0.5784899 0.00348163 233 31
-0.29901403 -0.17835386 0.57775807 0.00285336 250 35
-0.29635748 -0.17851472 0.57767045 0.0028002695 253 36
-0.2940827 -0.17891103 0.57842827 0.0028578355 242 34
-0.29164442 -0.17921486 0.57897288 0.002773314 250 35
-0.2889961 -0.17939451 0.57920492 0.0027299954 263 38
-0.28643253 -0.17963099 0.57971144 0.0026315304 274 41
-0.28348193 -0.17962712 0.57953519 0.0029193712 292 45
-0.27940911 -0.17890464 0.57713497 0.002848702 290 45
-0.2760866 -0.17865233 0.57634604 0.0028902439 300 47
-0.27339864 -0.17880966 0.57697266 0.0024316793 310 49
-0.26959524 -0.17823291 0.57532412 0.0023862256 316 51
-0.26714915 -0.17855074 0.57665533 0.0022409817 343 57
-0.26440293 -0.17867278 0.57744557 0.0025450019 350 58
-0.26131761 -0.17856586 0.57758421 0.002164898 360 61
-0.25864571 -0.17874217 0.57872438 0.0020913191 381 65
-0.25555265 -0.17862818 0.5790062 0.0021299112 371 63
-0.25194442 -0.17814724 0.57817364 0.0021241715 409 72
-0.24855196 -0.17780942 0.577874 0.0019333883 417 74
-0.24523833 -0.17752062 0.57779759 0.0019077874 430 77
-0.24116069 -0.17666517 0.57593197 0.0018959956 448 81
-0.23826469 -0.17666513 0.57690525 0.0018609371 487 90
-0.23508853 -0.17645475 0.57723922 0.0017891838 501 93
-0.23131703 -0.17578672 0.5761134 0.001763197 497 92
-0.22785322 -0.17533866 0.57573771 0.00175128 497 92
-0.22412366 -0.17467199 0.57466727 0.001658816 542 103
nan nan nan 0 571 109
-0.17306149 -0.13841294 0.45720154 0.0011238315 1030 215
-0.17076388 -0.13838965 0.45805508 0.0011532165 1070 224
nan nan nan 0 791 160
-0.18605036 -0.15489337 0.51478153 0.0014353449 686 136
-0.18622002 -0.15717964 0.52344692 0.0016226941 687 136
-0.18559572 -0.15885051 0.53008562 0.0015326153 668 131
-0.18352832 -0.15931623 0.5327099 0.0014761126 662 130
-0.18164538 -0.1599578 0.53591949 0.0014358726 684 135
-0.18012765 -0.16094454 0.54028362 0.0014764945 706 140
-0.17802803 -0.16143292 0.54296947 0.0014501051 672 132
-0.17591485 -0.16192356 0.54565245 0.0014841791 699 139
-0.17349692 -0.16214442 0.5474121 0.0014335251 693 137
-0.1707802 -0.16208857 0.54821855 0.0014918537 703 140
-0.16852275 -0.16247377 0.55049747 0.0014253439 698 138
-0.16635144 -0.16295569 0.55308706 0.0014197265 705 140
-0.16405624 -0.16333 0.5552932 0.0015189986 701 139
-0.1614358 -0.16338757 0.55640119 0.0014239108 699 139
-0.15804224 -0.1626514 0.55477852 0.0014467905 685 135
-0.15676773 -0.16410823 0.56061494 0.001442938 681 134
-0.15378807 -0.16379984 0.56040245 0.0014236176 695 138
-0.15240979 -0.16521636 0.56607217 0.0014415483 685 135
-0.14939673 -0.16487992 0.56571603 0.0014959107 681 134
-0.14607865 -0.16418831 0.56411147 0.0015440483 689 136
-0.14320286 -0.16397713 0.56412888 0.0014897967 687 136
-0.14113961 -0.16470613 0.56735855 0.0014551688 670 132
-0.13799693 -0.16417928 0.566239 0.0014533667 682 135
-0.13526545 -0.16413046 0.56674194 0.0014642279 667 131
-0.13280228 -0.16441183 0.56836236 0.0015765758 671 132
-0.12999468 -0.16426961 0.56849599 0.0014552873 681 134
-0.12755015 -0.16458988 0.57020819 0.0016006061 668 131
-0.12492716 -0.16468871 0.5711326 0.0014802531 657 129
-0.12198258 -0.1643586 0.57054687 0.0014937621 674 133
-0.11918049 -0.1642099 0.57056797 0.0014742318 667 131
-0.11642376 -0.1641183 0.57076597 0.0015748785 660 130
-0.11389187 -0.16434681 0.57205719 0.0014799574 659 129
-0.11124791 -0.16442075 0.5727917 0.0014733672 660 130
-0.10879254 -0.164784 0.57451582 0.0015880569 638 125
-0.10578854 -0.16431361 0.57331461 0.0015095345 637 124
-0.10251839 -0.16339445 0.57052559 0.0015390125 632 123
-0.099956155 -0.16358452 0.57159007 0.0014934008 645 126
-0.09741348 -0.16381794 0.57278991 0.0016011578 630 123
-0.09479446 -0.16393259 0.57355845 0.0015817399 643 126
-0.09189149 -0.16354857 0.5725655 0.0015869811 637 124
-0.089150399 -0.1634382 0.5725137 0.0015617041 642 126
-0.086338051 -0.16318634 0.57195044 0.0015068261 639 125
-0.083746031 -0.16334812 0.5728218 0.0015231172 631 123
-0.080957435 -0.16312449 0.57232702 0.001546182 635 124
-0.078157693 -0.16286239 0.57168275 0.0016245318 625 122
-0.075749099 -0.16342559 0.57392246 0.0015341599 625 122
-0.073060155 -0.16340312 0.57409304 0.0015260576 627 122
-0.070268355 -0.1631401 0.5734055 0.0015251146 640 125
-0.067733116 -0.16347548 0.57480907 0.0015733986 625 122
-0.064970858 -0.16326803 0.57429218 0.0015262493 626 122
-0.062296484 -0.16327308 0.57451099 0.0015903705 619 120
-0.059649151 -0.16335262 0.57498091 0.0015371932 619 120
-0.056835692 -0.16296333 0.5737893 0.0015407054 620 120
-0.054144613 -0.16290383 0.57374799 0.0015615228 603 117
-0.051316228 -0.16240366 0.57214379 0.0015313436 614 119
-0.048739254 -0.16268788 0.57329309 0.0015492301 615 119
-0.046146762 -0.16295025 0.57435626 0.0016683311 621 121
-0.043521233 -0.16312103 0.57508749 0.0015434281 609 118
-0.040883895 -0.163267 0.57572269 0.0016276862 616 120
-0.038111873 -0.16285789 0.57439142 0.0015956121 630 123
-0.035422254 -0.16276582 0.57416952 0.0015418982 616 120
-0.032788355 -0.1629356 0.57486296 0.0015549874 609 118
-0.030149184 -0.16310699 0.57555407 0.0015645797 602 116
-0.027445162 -0.16292675 0.57499647 0.0017009162 597 115
-0.024760399 -0.16283432 0.57474083 0.0015433315 616 120
-0.022110786 -0.16297862 0.57531309 0.0015640467 601 116
-0.019413065 -0.16275926 0.57459414 0.0016847476 605 117
-0.016773069 -0.16303109 0.57560188 0.0016716926 609 118
-0.014102145 -0.16304834 0.57570362 0.0017402319 592 114
-0.011430476 -0.16306303 0.57578903 0.0015815579 599 116
-0.0087574888 -0.16306219 0.57581252 0.0016638811 600 116
-0.0060796789 -0.16293129 0.57536983 0.0015489823 609 118
-0.0034068082 -0.16283146 0.57502961 0.0016249812 610 118
-0.00073659117 -0.16259465 0.57419866 0.0015555548 603 117
0.0019315929 -0.16284093 0.57506692 0.0015742595 596 115
0.0046060649 -0.16302398 0.57570481 0.0017324114 581 111
0.0072773146 -0.16300045 0.57560623 0.0015888774 593 114
0.0099494793 -0.16300455 0.57559806 0.0015893477 613 119
0.012605723 -0.16280128 0.5748508 0.0015638508 598 115
0.015231567 -0.16234504 0.57320309 0.0016164642 599 116
0.017949371 -0.16285887 0.57497346 0.0015640988 598 115
0.020602908 -0.16273206 0.57447428 0.0016835964 597 115
0.023200866 -0.16224565 0.57269865 0.001728788 590 114
0.025923781 -0.16264322 0.57403582 0.0015628833 596 115
0.028566491 -0.1625104 0.57349318 0.001561659 603 117
0.031155871 -0.16212273 0.57204342 0.001563331 608 118
0.033838585 -0.1622435 0.57238001 0.0015573081 606 117
0.036585901 -0.16263382 0.573659 0.0016801626 611 118
0.039285969 -0.16277538 0.57405168 0.0015651225 606 117
0.041940659 -0.16272286 0.57375133 0.001592194 589 113
0.044525634 -0.16242233 0.57256776 0.0016649443 589 113
0.047069624 -0.16201463 0.57099789 0.0016244486 609 118
0.049623109 -0.16168143 0.56968182 0.0015556128 606 117
0.052267917 -0.16166443 0.56947058 0.0016329534 613 119
0.055029247 -0.16199213 0.57046342 0.0016763508 595 115
0.057878286 -0.16253594 0.57220608 0.0015642829 602 116
0.06082081 -0.16328289 0.5746519 0.0015589992 607 117
0.063441709 -0.16313978 0.57395363 0.001567962 613 119
0.065800756 -0.16236216 0.57101274 0.0015569051 606 117
0.067725696 -0.16061547 0.56465554 0.0015908204 612 119
0.071120463 -0.16235486 0.57054198 0.0017214976 611 118
0.073872857 -0.16255525 0.57100475 0.0015563292 606 117
0.075701036 -0.16077875 0.56451327 0.001660684 613 119
0.078370266 -0.16084799 0.56449193 0.0015403571 618 120
0.081019096 -0.16087225 0.56429899 0.0016799438 606 117
0.083619654 -0.16080207 0.56376117 0.0015435581 618 120
0.086566627 -0.16138203 0.56548727 0.0016351097 617 120
0.089199275 -0.16135903 0.56508458 0.0015799688 620 120
0.091693692 -0.16109444 0.56382132 0.0016703469 622 121
0.094406687 -0.16121794 0.56390083 0.0015263165 626 122
0.097113378 -0.16132426 0.56390345 0.0015417921 615 119
0.099118605 -0.16029054 0.55990684 0.0015714028 624 121
0.10156909 -0.16001168 0.55853295 0.0015132308 631 123
0.10433612 -0.16023299 0.55888754 0.0015977711 623 121
0.10701721 -0.16031471 0.55873638 0.0015305002 623 121
0.10972118 -0.16042595 0.55866909 0.0015233586 624 121
0.11238328 -0.16047217 0.55835599 0.001526229 628 122
0.1152247 -0.1607665 0.55888528 0.0015437471 626 122
0.11768814 -0.16053209 0.55755651 0.0015960662 624 121
0.11892804 -0.15867545 0.55057973 0.001666152 634 124
0.12183591 -0.15907609 0.5514195 0.0015158569 638 125
0.12475602 -0.15947561 0.55223125 0.0015155787 628 122
0.12684575 -0.15881902 0.54936516 0.0015475634 642 126
0.12945649 -0.15882806 0.54878193 0.0015154579 640 125
0.13190308 -0.15863931 0.54749358 0.0015928728 638 125
0.13411154 -0.15817702 0.545241 0.0015696671 643 126
0.13610096 -0.15747879 0.54215699 0.0015036287 643 126
0.13867974 -0.15747583 0.54144633 0.0015978933 638 125
0.14098199 -0.15716468 0.5396539 0.0014956265 653 128
0.14243515 -0.15593515 0.53469175 0.0015466003 644 126
0.14465261 -0.15557094 0.53268069 0.0015329754 617 120
0.14725423 -0.15562536 0.53208095 0.0017226165 588 113
0.14867131 -0.15444736 0.52724999 0.0015747084 602 116
0.14985348 -0.15306886 0.52172458 0.0016552575 620 120
0.15019122 -0.15088741 0.51345903 0.0015535528 659 129
nan nan nan 0 795 161
0.14000985 -0.13617381 0.46183151 0.0011516433 995 207
0.14198588 -0.13592862 0.46019351 0.0012979357 811 164
nan nan nan 0 264 39
0.18409713 -0.17088017 0.57642859 0.0019303943 432 77
0.18785052 -0.17175086 0.57828104 0.0015049584 635 124
0.1911058 -0.17214717 0.57850927 0.0015063216 680 134
0.19463181 -0.17277223 0.57948238 0.0016116737 642 126
0.19795962 -0.17320596 0.5797919 0.0014852997 651 128
0.20062678 -0.17305756 0.57813829 0.0014586304 680 134
0.20461269 -0.17403495 0.58023059 0.0016472784 637 124
0.20772022 -0.17424868 0.57976222 0.0016581572 621 121
0.21070588 -0.1743557 0.57893395 0.0015249311 612 119
0.213851 -0.17459007 0.57852739 0.0016040412 606 117
0.21768218 -0.17537095 0.5799306 0.0015836575 569 109
0.22065075 -0.17544559 0.57900298 0.0016150874 568 108
0.22413932 -0.17592646 0.57942808 0.0016768652 567 108
0.22737353 -0.17619801 0.57917982 0.0016288449 557 106
0.23117113 -0.17689386 0.58034718 0.0018099088 548 104
0.23439395 -0.17713808 0.58005989 0.0018781866 517 97
0.23749658 -0.17728662 0.57949615 0.0017415928 499 93
0.24068604 -0.17749557 0.57917327 0.0020432216 470 86
0.2442105 -0.17794366 0.57967883 0.0019592841 463 84
0.24811143 -0.17865221 0.58108473 0.0019898848 462 84
0.25084725 -0.17851512 0.57980114 0.0019219281 475 87
0.25357169 -0.17837316 0.57857233 0.0019971905 431 77
0.25688568 -0.17864445 0.57875788 0.0019520321 416 74
0.26031882 -0.17899151 0.57926613 0.0023107755 390 68
0.26369405 -0.1792915 0.57970321 0.002139389 362 61
0.26646543 -0.1791788 0.57889223 0.0021760603 354 59
0.26872423 -0.17872764 0.5770787 0.0022465289 350 58
0.27225748 -0.17912476 0.57809591 0.0021476012 366 62
0.27531528 -0.1792039 0.57817972 0.0025314195 344 57
0.27819845 -0.17916888 0.57798952 0.0026639374 326 53
0.28081992 -0.17896783 0.57735807 0.0026318671 318 51
0.28366491 -0.17891189 0.5772891 0.00286147 290 45
0.28703779 -0.17918667 0.57838076 0.0029193985 288 44
0.29029885 -0.17938676 0.57932448 0.0026673079 277 42
0.29149637 -0.17832048 0.57626742 0.0025920826 283 43
0.29377034 -0.17792739 0.57547086 0.0026222921 277 42
0.29664233 -0.17790063 0.57594424 0.002860297 244 34
0.29922706 -0.1777038 0.57595015 0.0030118218 225 30
0.30175403 -0.17747679 0.57593775 0.003323762 220 28
0.30461964 -0.1774514 0.57665718 0.00353446 204 25
-0.33423403 -0.16956684 0.57610148 0.0040036039 156 14
-0.33527309 -0.17154437 0.58129567 0.0044751228 164 16
-0.33367568 -0.17219535 0.58199507 0.0036717749 175 18
-0.33131948 -0.1724626 0.58142632 0.0036150243 171 17
-0.32864997 -0.17257003 0.58036011 0.0035288252 187 21
-0.32532969 -0.17233464 0.5781917 0.0040320465 185 20
-0.32302228 -0.1726364 0.57787842 0.003437853 196 23
-0.32072499 -0.17294905 0.57765371 0.0041253469 181 20
-0.31852978 -0.17332287 0.57768804 0.0033128895 200 24
-0.31596714 -0.17350176 0.57713133 0.0034788349 188 21
-0.31374165 -0.17387086 0.5772689 0.004018628 196 23
-0.31195652 -0.1744931 0.57830918 0.0035946956 206 25
-0.31018299 -0.1751336 0.57947379 0.0033848642 205 25
-0.30793676 -0.17551687 0.57985604 0.0035414358 207 25
-0.30522245 -0.17563817 0.57944751 0.0030043395 223 29
-0.30275792 -0.17590687 0.57960349 0.0028297657 246 34
-0.29997054 -0.17599145 0.57923406 0.0027739091 251 36
-0.29642352 -0.17562763 0.57747513 0.0027014199 266 39
-0.29405165 -0.17595972 0.5780921 0.0026857005 268 40
-0.29170173 -0.17631182 0.57886314 0.0027586047 273 41
-0.28909129 -0.17651199 0.5792262 0.0025995518 279 42
-0.28635222 -0.17663692 0.57943571 0.0028359166 273 41
-0.28316233 -0.17648347 0.57882696 0.0025180425 295 46
-0.27867544 -0.17550996 0.57562453 0.002391075 310 49
-0.2765339 -0.17600858 0.57734585 0.0025833778 316 51
-0.2738854 -0.17619173 0.57812834 0.0025226739 327 53
-0.27049845 -0.17589869 0.57744259 0.0026618508 334 55
-0.26681697 -0.17540556 0.57619148 0.0022202628 351 59
-0.26428431 -0.17566513 0.57750279 0.002440728 362 61
-0.26148716 -0.17575274 0.57833743 0.002107013 378 65
-0.25791192 -0.17531343 0.57752091 0.0019986008 407 71
-0.25581899 -0.17588322 0.58010918 0.0023093885 403 71
-0.25172451 -0.17507409 0.57822341 0.0019642625 434 78
-0.24797124 -0.1744861 0.57713109 0.0020537775 438 79
-0.24447998 -0.17407073 0.57666862 0.0019244914 436 78
-0.24107043 -0.17370425 0.57642156 0.0018648508 484 89
-0.23793955 -0.17353208 0.5768677 0.001744142 502 93
-0.23397054 -0.17273693 0.5752821 0.0016681823 531 100
-0.23079014 -0.17251138 0.57562596 0.0017614724 491 91
-0.22709186 -0.1718882 0.5746699 0.0017185378 532 100
-0.22392817 -0.17165892 0.57505113 0.0015971137 568 108
nan nan nan 0 621 121
-0.1729928 -0.13609003 0.4577612 0.0011120775 1091 229
-0.17087018 -0.1362059 0.45909765 0.0011295513 1133 238
nan nan nan 0 795 161
-0.1861957 -0.15247339 0.51605779 0.0014452735 708 141
-0.18737227 -0.15555975 0.5275867 0.0014716713 693 137
-0.18597849 -0.15656887 0.53209251 0.0014314642 686 136
-0.18495603 -0.15792374 0.53778005 0.0014392674 683 135
-0.18370011 -0.15911554 0.54291737 0.0015125677 660 130
-0.1811825 -0.15923339 0.54438442 0.0014259282 700 139
-0.17860255 -0.15929912 0.54565763 0.0013963551 733 146
-0.1764259 -0.159732 0.54817331 0.0014766493 670 132
-0.17461489 -0.16051427 0.55187541 0.0015447981 704 140
-0.17346801 -0.16194081 0.55778527 0.0014142765 711 141
-0.17093058 -0.16209383 0.55929548 0.0013990902 716 143
-0.16719681 -0.16109905 0.55681688 0.0014448232 732 146
-0.1649788 -0.16155611 0.55932891 0.001405437 719 143
-0.16277696 -0.16204444 0.56193012 0.0014585899 721 144
-0.1601484 -0.16211727 0.56306851 0.0014141658 716 143
-0.15745325 -0.16212404 0.56395262 0.0015351723 710 141
-0.15482214 -0.16219819 0.56504601 0.0014853122 712 142
-0.15259497 -0.16270559 0.56762636 0.0014372031 693 137
-0.15023184 -0.16308378 0.56973493 0.0014496719 701 139
-0.14693221 -0.16244058 0.56824875 0.0014834572 701 139
-0.14414932 -0.16235523 0.56868559 0.0014186896 701 139
-0.14155875 -0.16248739 0.56985992 0.0014928626 694 137
-0.13868438 -0.16229254 0.5698626 0.0014903451 690 137
-0.13581784 -0.16209933 0.56984562 0.0015640625 687 136
-0.13333954 -0.16237104 0.57143974 0.0014411799 688 136
-0.13066873 -0.1624147 0.57220936 0.0014491283 684 135
-0.1280053 -0.1624696 0.57299614 0.001586693 672 132
-0.12519805 -0.16234037 0.573111 0.0014735325 669 132
-0.12274243 -0.16267149 0.57482988 0.00152387 673 133
-0.11943155 -0.16185842 0.57248288 0.0014690504 670 132
-0.11678335 -0.16192669 0.57323003 0.0014592547 673 133
-0.11415289 -0.16202331 0.57405788 0.0016076491 670 132
-0.1116331 -0.16228552 0.57545364 0.0014584213 672 132
-0.10897393 -0.1623531 0.57614112 0.0014675398 669 132
-0.10634075 -0.16246384 0.57696366 0.0016083419 649 127
-0.10372389 -0.16260591 0.57787973 0.0015900473 659 129
-0.10032047 -0.16148947 0.57430333 0.001504817 671 132
-0.097647339 -0.16151947 0.57478428 0.0014818856 662 130
-0.095020369 -0.16162969 0.57553446 0.0014885479 656 129
-0.092388958 -0.16173853 0.57626426 0.00149593 651 128
-0.089653432 -0.1616662 0.57633287 0.0016153161 648 127
-0.086869679 -0.16149974 0.5760504 0.0014992382 650 127
-0.084188811 -0.16152003 0.576419 0.0014978369 641 125
-0.081701584 -0.16192541 0.5781486 0.0015051786 635 124
-0.079149403 -0.16222534 0.57948905 0.0015688535 631 123
-0.076253042 -0.16181615 0.57828301 0.0016391006 639 125
-0.07345362 -0.16159017 0.57771778 0.0015464401 642 126
-0.07083559 -0.16176125 0.57855952 0.0015085809 639 125
-0.06815739 -0.16180301 0.57892698 0.0015079414 637 124
-0.06538853 -0.1616241 0.57849324 0.0015114506 633 123
-0.062970862 -0.1623352 0.5812341 0.0015412093 620 120
-0.060295112 -0.16241495 0.5817045 0.0015370524 627 122
-0.057084028 -0.16099241 0.57678211 0.0015255295 623 121
-0.054749791 -0.16202445 0.58064312 0.0015479174 609 118
-0.051785946 -0.1612037 0.57785451 0.0015262907 622 121
-0.049069695 -0.16110601 0.57764733 0.0015467015 615 119
-0.046278059 -0.16073519 0.57645106 0.001511663 634 124
-0.043667421 -0.16098607 0.57747543 0.0016048461 628 122
-0.041136596 -0.16158333 0.57973409 0.0015370854 619 120
-0.038377114 -0.16130318 0.57883632 0.0015169458 626 122
-0.035687018 -0.16129439 0.57890409 0.001521645 629 123
-0.033014022 -0.16136777 0.5792585 0.0015314271 616 120
-0.030307587 -0.16127625 0.57901305 0.0016652829 611 118
-0.027640721 -0.16139795 0.57952541 0.0015378264 618 120
-0.024995649 -0.16168687 0.58063102 0.0015762922 620 120
-0.022254134 -0.16134636 0.57946885 0.0017099967 618 120
-0.019509895 -0.16088982 0.57788229 0.0015814168 624 121
-0.01687927 -0.161374 0.57966757 0.0017289281 615 119
-0.014181487 -0.16127798 0.57936168 0.0016791639 600 116
-0.011491125 -0.16124113 0.5792616 0.0016590279 612 119
-0.0088083548 -0.16132087 0.57957345 0.0015516838 608 118
-0.0061099227 -0.16105776 0.57864684 0.0015542723 612 119
-0.0034201315 -0.16078866 0.57769191 0.0016559886 616 120
-0.00073981215 -0.16062872 0.57712245 0.0015503791 613 119
0.0019391283 -0.16079649 0.57772368 0.0016340655 606 117
0.0046326071 -0.16127571 0.57943732 0.0016760579 600 116
0.0072967126 -0.1607559 0.57755488 0.0015729008 606 117
0.0099900998 -0.16098715 0.57836413 0.0016027344 607 117
0.012691624 -0.16122386 0.57918608 0.0016894951 605 117
0.015314449 -0.16055278 0.57674009 0.0016136428 612 119
0.017996868 -0.16061321 0.57691497 0.0015532596 611 118
0.020807831 -0.1616566 0.58061337 0.0015576787 610 118
0.023335883 -0.16051483 0.57645625 0.0016305874 604 117
0.025969755 -0.16026089 0.57548088 0.0015595771 606 117
0.028757656 -0.16091621 0.5777629 0.0017184349 610 118
0.03143777 -0.16090807 0.57765496 0.0016898754 615 119
0.034022875 -0.16045311 0.5759356 0.0015855846 614 119
0.036679339 -0.16037647 0.57556641 0.0015402001 611 118
0.039370533 -0.1604518 0.57573438 0.0015642769 617 120
0.042144049 -0.16083169 0.57698661 0.0015557021 612 119
0.044802926 -0.16075481 0.57659137 0.0015510542 601 116
0.047622062 -0.16122919 0.5781641 0.0015480727 613 119
0.049722601 -0.15934996 0.57128894 0.0015297928 621 121
0.052781411 -0.16057661 0.57553983 0.0016453505 613 119
0.055380203 -0.16035292 0.57458174 0.0015547608 608 118
0.058309954 -0.16106401 0.57696277 0.0016165593 607 117
0.060901623 -0.16081975 0.57591057 0.0015291038 617 120
0.063549355 -0.16073786 0.57542956 0.0016419486 630 123
0.066287354 -0.1608817 0.57574558 0.0015389452 614 119
0.068883546 -0.16068357 0.57482636 0.0015607165 620 120
0.071524717 -0.16060124 0.57431 0.0015336646 620 120
0.074092209 -0.1603654 0.57323307 0.0016859177 629 123
0.076413773 -0.15963219 0.57036704 0.001532056 623 121
0.078999706 -0.15948206 0.56957299 0.0016304177 619 120
0.081686631 -0.15953892 0.56950486 0.001516698 637 124
0.084479995 -0.15979356 0.57012838 0.0015394817 626 122
0.086948179 -0.15943632 0.56855488 0.0016262183 619 120
0.089551456 -0.15934065 0.56790024 0.0016406883 625 122
0.092145912 -0.15923525 0.56719643 0.0014932508 645 126
0.094924167 -0.15944444 0.56759727 0.0015137162 639 125
0.097837642 -0.15986323 0.56872678 0.0015126718 638 125
0.10092454 -0.16053566 0.57073945 0.001504322 641 125
0.10252673 -0.15887269 0.56443465 0.0015084252 640 125
0.1049799 -0.15857893 0.56298161 0.0015131654 633 123
0.10754564 -0.15846546 0.56215179 0.0016209123 643 126
0.11002948 -0.15823962 0.56090587 0.0015204526 634 124
0.11333882 -0.15918376 0.56378609 0.0015130371 631 123
0.11621245 -0.15948677 0.56437224 0.0016103457 639 125
0.1184356 -0.15890349 0.56180304 0.0015100025 643 126
0.12047617 -0.1581061 0.55846089 0.0015642071 651 128
0.12405323 -0.15931612 0.56218666 0.0015911838 638 125
0.12597173 -0.15839005 0.55835229 0.0015462325 648 127
0.12778427 -0.15737146 0.55417705 0.0016100807 640 125
0.13091628 -0.15798615 0.55573261 0.001497766 643 126
0.13293158 -0.15725559 0.55253381 0.0015450922 632 123
0.1353548 -0.15702648 0.55107784 0.0015835718 632 123
0.13823408 -0.1573251 0.55145007 0.0015092015 638 125
0.1397769 -0.1561199 0.54653174 0.0015862845 634 124
0.14236753 -0.15610769 0.54577094 0.0015285497 624 121
0.14484306 -0.15597194 0.54455513 0.001570393 615 119
0.14614263 -0.15459704 0.53899598 0.0017657117 590 114
0.14766002 -0.15349616 0.53438032 0.0015692814 599 116
0.15013224 -0.15340847 0.53327399 0.0016363063 610 118
0.15063199 -0.15134193 0.5252763 0.0015391514 632 123
0.14995605 -0.14818166 0.51348782 0.001568905 657 129
nan nan nan 0 752 151
0.1401293 -0.13405591 0.46299344 0.0011522468 982 204
0.14091395 -0.13269109 0.45748529 0.0012858697 868 177
nan nan nan 0 266 39
0.18330076 -0.16735204 0.57491302 0.0022367258 412 73
0.18756671 -0.16868031 0.57839698 0.0015750451 606 117
0.1908682 -0.1691148 0.57878441 0.0014479054 666 131
0.19453838 -0.16985857 0.58020359 0.0015766131 635 124
0.1979717 -0.17037714 0.58082825 0.0015528699 640 125
0.2010642 -0.17059192 0.58039737 0.0014881575 686 136
0.20415698 -0.17080091 0.57993203 0.0014848831 641 125
0.20716912 -0.17093763 0.57920986 0.0015185208 622 121
0.21044503 -0.17128535 0.57919359 0.0015062559 629 123
0.21384923 -0.17172675 0.57948685 0.0015190971 606 117
0.21676205 -0.17176713 0.57842606 0.0017028878 589 113
0.22053482 -0.17247902 0.57962823 0.0016894598 554 105
0.22390305 -0.17286028 0.57972395 0.0017072557 535 101
0.2274002 -0.1733301 0.58012831 0.0016748544 534 101
0.23069775 -0.17363788 0.58000833 0.0016971071 543 103
0.23400994 -0.17394899 0.57992464 0.0017418611 496 92
0.23728108 -0.17422231 0.57974672 0.0018933653 492 91
0.24064305 -0.17455485 0.57980388 0.0019434171 487 90
0.24376832 -0.17470987 0.57931679 0.0018091518 473 87
0.24766196 -0.1754054 0.58067185 0.0020099322 455 83
0.25038826 -0.17526762 0.57932597 0.0020693303 458 83
0.25340524 -0.17533411 0.57872248 0.0018840075 440 79
0.25677934 -0.17564334 0.57899076 0.0022337285 420 74
0.26018062 -0.17596404 0.57937151 0.0019844209 414 73
0.26349878 -0.17622197 0.57962573 0.0023196614 382 66
0.26646337 -0.17624034 0.57917684 0.0021954752 352 59
0.26934344 -0.17620306 0.57863444 0.0021794112 359 60
0.27226308 -0.17619216 0.57827079 0.0021256125 370 63
0.27514625 -0.17615815 0.57792515 0.0023477934 352 59
0.27793491 -0.176065 0.57748055 0.0022504318 341 56
0.28055295 -0.17586683 0.57678747 0.0023859383 331 54
0.28340974 -0.17582087 0.57668895 0.0024700519 295 46
0.28784555 -0.17674543 0.57986975 0.0024854022 301 47
0.29044703 -0.17653631 0.57942605 0.0025471798 285 43
0.29259127 -0.17605628 0.57818514 0.0025917615 275 41
0.29433331 -0.17534617 0.57627714 0.0029083842 281 42
0.29624495 -0.17475007 0.57482898 0.0027777012 254 36
0.29991272 -0.17519139 0.57687914 0.0030335132 223 29
0.30284438 -0.17519838 0.57758445 0.0033205971 226 30
0.3041302 -0.17426215 0.57525742 0.0036571601 213 27
-0.33801413 -0.16862676 0.58184677 0.0040521477 154 13
-0.33425301 -0.16817228 0.57876229 0.0043430133 175 18
-0.33318582 -0.16907707 0.5803827 0.0038224254 168 17
-0.33152077 -0.16969149 0.5810346 0.004003 164 16
-0.32933608 -0.17004839 0.58084422 0.0036269051 175 18
-0.32737532 -0.17052822 0.58111912 0.0034680872 188 21
-0.32362583 -0.17007655 0.57827556 0.003860885 177 19
-0.32143062 -0.17044093 0.57826608 0.0037048876 187 21
-0.31905532 -0.1707156 0.57800907 0.0036483826 191 22
-0.31692639 -0.17112829 0.57827944 0.0035991147 200 24
-0.3141844 -0.17121448 0.57751095 0.0033382901 198 23
-0.31190878 -0.17155889 0.57768083 0.0032681348 210 26
-0.30982319 -0.17201522 0.57829672 0.0034670518 210 26
-0.30751166 -0.17235357 0.57858831 0.0031362427 213 27
-0.30526727 -0.17273647 0.5791052 0.0029617636 230 31
-0.30274862 -0.17297001 0.57920116 0.0033182283 234 32
-0.29976764 -0.17294145 0.57850355 0.003044392 238 33
-0.2968308 -0.17293802 0.57797796 0.0030275597 256 37
-0.29407731 -0.1730424 0.57790232 0.0026340003 269 40
-0.29150057 -0.17325394 0.57827622 0.0025852129 283 43
-0.28912652 -0.17359151 0.57916379 0.0028695557 292 45
-0.28568539 -0.17328873 0.57801056 0.0025846492 279 42
-0.28215235 -0.17292334 0.57674521 0.002762462 292 45
-0.27948755 -0.17308798 0.57734478 0.0027398025 304 48
-0.27679265 -0.17323728 0.57799006 0.0024961599 326 53
-0.27386019 -0.17323951 0.57824117 0.0023424749 320 51
-0.27000645 -0.17265265 0.57661986 0.0023654604 350 58
-0.26678431 -0.17246127 0.57641035 0.0021318989 368 63
-0.2641679 -0.17266154 0.57760012 0.0021077946 375 64
-0.2609753 -0.17248546 0.57761735 0.0020428423 394 68
-0.25794283 -0.17241246 0.57806152 0.0019905013 414 73
-0.25389567 -0.17165177 0.57627428 0.0019278412 436 78
-0.25036845 -0.171229 0.5756886 0.001902302 455 83
-0.24741016 -0.17119001 0.57645756 0.0017703607 493 91
-0.2444545 -0.17115195 0.57729006 0.001910622 431 77
-0.24120186 -0.17090254 0.57746226 0.0017924156 481 88
-0.23783864 -0.17056775 0.57739049 0.0016744512 531 100
-0.23426351 -0.17007089 0.57680637 0.0016557153 538 102
-0.22987051 -0.1689605 0.57416576 0.0016541943 534 101
-0.22694562 -0.16891479 0.57516408 0.0016923106 541 102
-0.2233551 -0.16836616 0.57446831 0.001568459 587 113
nan nan nan 0 661 130
-0.17176504 -0.13287228 0.4552485 0.0010511288 1158 244
-0.17173363 -0.13461278 0.46217662 0.0011093754 1058 221
nan nan nan 0 767 154
-0.18628122 -0.15000121 0.51716226 0.0014239262 695 138
-0.18740514 -0.15299413 0.52857125 0.0014242794 697 138
-0.18674625 -0.15459518 0.53519541 0.0014292079 698 138
-0.18611531 -0.15626527 0.54206967 0.0014434261 692 137
-0.18436332 -0.15702869 0.54580146 0.0014460353 681 134
-0.18193351 -0.15722874 0.5475651 0.0014576017 681 134
-0.17915212 -0.15712635 0.54825759 0.0013829233 726 145
-0.17675537 -0.15736334 0.55011499 0.0015159538 698 138
-0.17548031 -0.1586215 0.55553043 0.001468285 676 133
-0.1735761 -0.15934125 0.55905014 0.0014142347 713 142
-0.17174718 -0.16015396 0.56288165 0.0013916115 728 145
-0.16932906 -0.16043453 0.564825 0.0014228808 732 146
-0.16563872 -0.15949918 0.56245869 0.0014311974 735 147
-0.16411284 -0.16065159 0.56743032 0.0014995635 727 145
-0.16093703 -0.16020054 0.56671673 0.0013806204 735 147
-0.15782805 -0.15980166 0.56615704 0.0013955669 718 143
-0.15531872 -0.16000661 0.56770986 0.0015121162 720 143
-0.15372877 -0.16118282 0.57268965 0.001473511 727 145
-0.15088405 -0.16106212 0.57304126 0.0014483079 712 142
-0.14799836 -0.1608925 0.57319146 0.0014016326 717 143
-0.14537521 -0.16100723 0.57432932 0.0014499081 702 139
-0.14273237 -0.16110413 0.57537955 0.0014580232 704 140
-0.13940223 -0.16041392 0.57359129 0.0015187021 707 140
-0.13720937 -0.16103101 0.57645315 0.0014919853 687 136
-0.13443807 -0.16098048 0.57690346 0.0015566394 698 138
-0.13126779 -0.16044019 0.57557327 0.0014652904 690 137
-0.12843442 -0.16029759 0.57564425 0.0014438006 681 134
-0.12639135 -0.16115646 0.579292 0.0014424047 682 135
-0.12362071 -0.16110511 0.57964879 0.0014396734 682 135
-0.12071786 -0.16087523 0.57934099 0.0014399308 689 136
-0.11795671 -0.1608279 0.57966912 0.0015427008 689 136
-0.11461922 -0.15997399 0.57706696 0.0014731876 695 138
-0.11194078 -0.16002081 0.57769209 0.0014361542 692 137
-0.10924976 -0.16005151 0.57824016 0.0014964638 688 136
-0.10669703 -0.16029155 0.57952672 0.0014423497 685 135
-0.10420439 -0.16063675 0.58117694 0.0014457484 678 134
-0.10093828 -0.15977614 0.57844591 0.0014577955 674 133
-0.098221973 -0.15976238 0.5787617 0.0014594501 676 133
-0.095256649 -0.15933128 0.57754838 0.0015459033 681 134
-0.092610754 -0.15942495 0.57822049 0.0014651502 677 134
-0.08993154 -0.15946512 0.5786835 0.0014639065 673 133
-0.087390319 -0.15976009 0.58005685 0.0015972983 672 132
-0.084570125 -0.1595476 0.57957345 0.0015554224 649 127
-0.082184993 -0.16016898 0.58210576 0.0014828453 657 129
-0.079509586 -0.16024774 0.58265388 0.0014884677 649 127
-0.076846808 -0.16035843 0.58330506 0.0014951738 650 127
-0.074002683 -0.16008498 0.58254594 0.0014976824 644 126
-0.071056619 -0.15956178 0.58086473 0.0015316644 642 126
-0.068517104 -0.15994623 0.58247536 0.0015608678 654 128
-0.065946765 -0.16028742 0.58391821 0.0016506921 641 125
-0.063154809 -0.16009612 0.58341026 0.0015166821 638 125
-0.060363408 -0.15988915 0.58283389 0.0015131416 636 124
-0.057793278 -0.16027635 0.58441335 0.001627947 624 121
-0.055017617 -0.16010365 0.58394134 0.001611681 627 122
-0.052143659 -0.15961213 0.58229625 0.0015214802 630 123
-0.049512621 -0.1598511 0.58330631 0.0015268007 630 123
-0.046964649 -0.16040146 0.58544439 0.0015231274 630 123
-0.044013526 -0.15955789 0.58248568 0.0015320001 614 119
-0.041329317 -0.15963484 0.58287841 0.0015573137 628 122
-0.038564555 -0.15938972 0.58208656 0.0016041781 644 126
-0.035824813 -0.15921877 0.58155757 0.0015809622 630 123
-0.033103544 -0.15910882 0.58124322 0.0015287896 635 124
-0.030417673 -0.15916456 0.58152652 0.0015412681 619 120
-0.027874913 -0.16005288 0.58484483 0.0015268089 624 121
-0.025128121 -0.15983494 0.58411366 0.0015262394 633 123
-0.022442115 -0.15999769 0.58476675 0.001525364 629 123
-0.019719671 -0.15990965 0.5844962 0.0015275776 624 121
-0.017029295 -0.16009508 0.58521837 0.0015407983 616 120
-0.014267352 -0.15955044 0.58326501 0.0015712878 611 118
-0.011597984 -0.16002844 0.58504343 0.0015499059 607 117
-0.0088714324 -0.15976837 0.58411711 0.0016181697 606 117
-0.0061682067 -0.15988444 0.58455932 0.0015737601 608 118
-0.0034604634 -0.15997356 0.58489662 0.0015818391 615 119
