# .PCD v0.7 - Point Cloud Data file format
VERSION 0.7
FIELDS x y z noise intensity gray
SIZE 4 4 4 4 2 1
TYPE F F F F U U
COUNT 1 1 1 1 1 1
WIDTH 846
HEIGHT 1
VIEWPOINT 0 0 0 1 0 0 0
POINTS 846
DATA ascii
-0.056196023 -0.012083817 0.52364928 0.0011955535 931 193
-0.053891283 -0.012108431 0.52466273 0.0012736957 938 195
-0.051563904 -0.012130036 0.52554482 0.0012024143 912 189
-0.049606025 -0.012244979 0.53046983 0.0012543035 850 175
-0.047635198 -0.012368487 0.53576493 0.0014007149 755 154
-0.044894796 -0.012294755 0.53251618 0.0012406365 879 182
-0.042342331 -0.012266937 0.53125727 0.0012184996 897 186
-0.039789073 -0.012235454 0.52984107 0.0012115559 912 189
-0.036937114 -0.012101986 0.52401048 0.0011906229 941 195
-0.034594681 -0.012128452 0.5251072 0.0012344033 949 197
-0.032042876 -0.012079975 0.52296126 0.0011689824 960 200
-0.029882303 -0.012183105 0.5273807 0.0012331249 920 191
-0.02805176 -0.012451012 0.53893423 0.0012661123 849 175
-0.026118858 -0.012721207 0.55058783 0.0013709621 802 165
-0.02360205 -0.012734607 0.55112916 0.0012357609 887 183
-0.020736719 -0.012540477 0.54269296 0.0012063846 1018 213
-0.018219065 -0.012532141 0.542301 0.0011718598 1041 218
-0.015786516 -0.012589013 0.54473448 0.0011992799 996 208
-0.01333624 -0.01265063 0.54737669 0.0012310264 950 197
-0.01082875 -0.012674099 0.54837215 0.0012012796 913 189
-0.0082984641 -0.012677072 0.5484848 0.0012040043 941 195
-0.0057853782 -0.01272047 0.55035073 0.0011802738 941 195
-0.003249079 -0.01274085 0.55122477 0.0011722473 952 198
-0.00070357864 -0.012742069 0.55127412 0.0011229138 1033 216
0.0018347602 -0.012690386 0.54903913 0.001207815 1020 213
0.0043693515 -0.012687791 0.54893202 0.0011379215 1003 209
0.0069071222 -0.012692942 0.54916435 0.0011472608 996 208
0.0094180936 -0.012659307 0.54772282 0.0011525683 985 205
0.011940066 -0.012651567 0.54740566 0.0011907725 963 200
0.014469094 -0.012652703 0.54747659 0.0011531911 972 202
0.017007077 -0.012660168 0.54782534 0.0011428547 996 208
0.01956946 -0.012681511 0.54877841 0.001171136 954 198
0.022154087 -0.012710723 0.55007577 0.0012073083 904 187
0.024721175 -0.012724898 0.55072588 0.0012940505 908 188
0.02726518 -0.012725656 0.55079859 0.0012251782 898 186
0.029783534 -0.012715334 0.55039483 0.0012339863 885 183
0.032104515 -0.012628993 0.54670292 0.0012313281 884 183
0.034583643 -0.012612913 0.54605472 0.0012459889 862 178
0.037010983 -0.012581412 0.5447408 0.0012656928 885 183
0.039240375 -0.012490908 0.54087394 0.0012394818 912 189
0.041651241 -0.012465541 0.53982854 0.0012090153 903 187
0.044169094 -0.012473247 0.54021662 0.0012366569 898 186
0.046867937 -0.012528511 0.54266572 0.0012413352 883 183
0.049489014 -0.012558438 0.54401821 0.0012068624 902 187
0.051680099 -0.012481628 0.54074687 0.0012552822 902 187
0.053969406 -0.012434518 0.53876168 0.0012031946 951 198
0.056493439 -0.012443256 0.53919542 0.0011936793 965 201
0.059109055 -0.012470578 0.54043353 0.0011756168 957 199
0.061478581 -0.012445872 0.53941554 0.0012214775 1007 210
0.064444765 -0.012539179 0.54351056 0.0012070298 964 201
0.06779781 -0.012697959 0.55044228 0.0012702246 908 188
0.070109606 -0.012657302 0.54872614 0.0012414096 963 200
0.073079966 -0.012734232 0.55210429 0.0011949086 930 193
0.07600984 -0.012799166 0.55495912 0.0012071468 913 189
0.082942642 -0.013511984 0.58590299 0.0013967481 764 156
0.085513264 -0.013491628 0.58505189 0.0012140459 906 188
0.087313779 -0.013354728 0.57914078 0.0011777595 989 206
0.089649484 -0.013305378 0.57701969 0.0011457077 1001 209
0.092213117 -0.013291724 0.57643956 0.0011223276 1029 215
0.094510458 -0.013241526 0.57426709 0.0011108794 1037 217
0.097176343 -0.013244289 0.5743832 0.0011803742 1019 213
0.10025061 -0.013301092 0.57683408 0.0011173576 1037 217
0.10294376 -0.013305699 0.57701212 0.001119699 1032 216
0.10576699 -0.013326465 0.57788062 0.0011535098 1015 212
0.10866283 -0.013355135 0.57908112 0.0011135042 1038 217
0.1113589 -0.013358464 0.57917124 0.0010665749 1142 240
0.11409152 -0.013365922 0.5794282 0.0010505889 1158 244
0.1168033 -0.013370653 0.5795542 0.0010772148 1138 239
0.11920827 -0.013340837 0.57816941 0.00108825 1125 236
0.1218091 -0.013333764 0.57775635 0.0010552939 1149 242
0.12441746 -0.013327802 0.57737684 0.0010473016 1157 243
0.12709309 -0.013329144 0.5772981 0.0011077791 1105 232
0.1299151 -0.013345467 0.57785189 0.0011566813 995 207
0.1314629 -0.013232872 0.57280785 0.0011504899 1040 217
0.13270685 -0.013094735 0.56664389 0.0011339661 1103 231
0.13462624 -0.013027302 0.56352425 0.0010366639 1182 249
0.13639966 -0.012948567 0.55989939 0.0010023182 1245 255
0.13881285 -0.012932369 0.55896086 0.0011223509 1146 241
0.14394444 -0.013165392 0.56876951 0.0013774218 828 170
0.14771233 -0.013267561 0.57289696 0.0013606881 750 153
0.15041724 -0.013272336 0.57279444 0.0014389966 681 138
0.15246746 -0.013220177 0.57021284 0.0014788193 675 136
0.15457532 -0.013174709 0.56789869 0.0014850147 652 131
0.15646985 -0.013112883 0.56485796 0.0016948223 632 127
0.15670611 -0.012916413 0.55599999 0.0015195698 625 125
0.15913185 -0.012903853 0.55503935 0.0015492315 621 124
0.15847771 -0.012645929 0.54350775 0.0015257215 620 124
0.16022931 -0.012585057 0.54042989 0.0016049538 628 126
0.16086549 -0.012439811 0.53370947 0.0015000943 637 128
0.15854146 -0.01207355 0.51749992 0.0014555488 681 138
nan nan nan 0 779 159
0.14574409 -0.010771208 0.46071932 0.0011763066 1049 219
0.14733662 -0.010730458 0.45846012 0.0012158217 996 208
nan nan nan 0 296 52
0.18868069 -0.013352931 0.56912142 0.0022837468 362 67
0.19315162 -0.013478756 0.57373405 0.0016159348 586 117
0.19681826 -0.013545766 0.57579672 0.0014533775 666 134
0.20021416 -0.013592578 0.57695788 0.0015898648 670 135
0.20308699 -0.0136031 0.57653815 0.0014277304 712 145
0.20641981 -0.013643749 0.57735425 0.0015873538 669 135
0.20964012 -0.013675997 0.57777172 0.0015189922 649 131
0.21312204 -0.013724262 0.57882148 0.0015671335 626 125
0.21609606 -0.013739011 0.57841396 0.0014944165 624 125
0.21947752 -0.013778969 0.57902431 0.0014916343 637 128
0.2225177 -0.013796777 0.57865989 0.0014660308 649 131
0.22552808 -0.013812323 0.57815862 0.0014712753 663 134
0.22858129 -0.013830085 0.57770836 0.0014851049 665 134
0.23088683 -0.013802726 0.57533586 0.001419612 685 139
0.23537748 -0.013905099 0.57832664 0.0014537635 657 132
0.23861276 -0.013931788 0.57812154 0.0014854714 651 131
0.24191567 -0.013961765 0.57801265 0.001513948 621 124
0.24542755 -0.01400298 0.57832938 0.0014715772 647 130
0.24870399 -0.014029983 0.57802218 0.001480746 640 129
0.25203434 -0.014059395 0.57778108 0.0015184196 621 124
0.25554526 -0.014098117 0.57789236 0.001552248 605 121
0.25882766 -0.014123527 0.57743204 0.001525841 617 123
0.26220393 -0.014153456 0.57713664 0.0015486038 592 118
0.26537013 -0.014171527 0.57634431 0.0016044969 593 118
0.26853806 -0.01418931 0.57553506 0.001624289 590 117
0.2718268 -0.014213036 0.5749684 0.0015319005 610 122
0.27598324 -0.014281174 0.57620299 0.0015721422 581 115
0.27974197 -0.014327546 0.57657057 0.0016765954 571 113
0.28332132 -0.014363884 0.57655895 0.0016561395 539 106
0.28694239 -0.01440159 0.5766381 0.0017491421 545 107
0.29049057 -0.014434921 0.57658929 0.0017504415 512 100
0.29415444 -0.014473292 0.57680005 0.0017459762 509 99
0.29689962 -0.014466153 0.57526982 0.0018290742 477 92
0.29910761 -0.01443323 0.57280362 0.0019028382 463 89
0.30345598 -0.014503229 0.57451504 0.0020769311 434 83
-0.34450457 -0.011665723 0.57507735 0.0030001553 235 39
-0.34438831 -0.011761226 0.57916671 0.0031515427 248 41
-0.34190536 -0.011776851 0.57943547 0.0028566918 251 42
-0.33912653 -0.011782465 0.57933384 0.0030600233 252 42
-0.33636186 -0.011788674 0.5793879 0.0027572983 266 45
-0.33374423 -0.011800191 0.57983303 0.0026236735 274 47
-0.33078378 -0.011799688 0.5798201 0.0030273893 273 47
-0.32775509 -0.011796717 0.57982039 0.0027108258 283 49
-0.32382917 -0.011761107 0.57835084 0.0024393748 328 59
-0.32161373 -0.011787535 0.58006591 0.002507675 334 61
-0.31905439 -0.01180173 0.58131313 0.0021769318 354 65
-0.31530252 -0.011771668 0.58050859 0.0024150885 364 67
-0.31188732 -0.011753729 0.58042306 0.0020636546 386 72
-0.30885771 -0.011750118 0.5811615 0.0020880594 399 75
-0.30520773 -0.011722608 0.58082575 0.0020721715 430 82
-0.30127147 -0.011683466 0.58000916 0.0021113034 438 84
-0.29732922 -0.011643321 0.57922697 0.001898629 433 83
-0.29372323 -0.011615685 0.5791412 0.0020590464 440 84
-0.29012722 -0.011587894 0.57911229 0.0017453668 500 97
-0.28678098 -0.011569619 0.57961339 0.0017934851 507 99
-0.28348175 -0.01155289 0.58023661 0.0018870885 509 99
-0.27971292 -0.011516482 0.5799033 0.0018705792 503 98
-0.27594873 -0.011479512 0.5795604 0.0016529828 542 107
-0.27195761 -0.011432223 0.57870442 0.0017607644 543 107
-0.26829568 -0.011397918 0.5785048 0.0017548827 571 113
-0.26495245 -0.011376559 0.57895732 0.0015806885 584 116
-0.26169598 -0.011358507 0.57956773 0.0016133994 574 114
-0.25864264 -0.011348969 0.58059788 0.0016795847 563 111
-0.25396657 -0.01126723 0.57790542 0.001586395 578 115
-0.25085241 -0.011253728 0.5786792 0.0015743983 624 125
-0.24803266 -0.011253278 0.58009684 0.0015217308 620 124
-0.24482249 -0.011234903 0.58055919 0.0016886045 594 118
-0.24166185 -0.0112184 0.58108222 0.0015384844 623 125
-0.23704261 -0.011133003 0.57799077 0.0015252129 620 124
-0.23406374 -0.01112354 0.5787946 0.0015383472 610 122
-0.23051485 -0.011086431 0.57811755 0.0015097025 628 126
-0.22704338 -0.011052191 0.57754421 0.0015165654 620 124
-0.22315317 -0.010996472 0.57580012 0.0015390945 604 121
-0.22018006 -0.010985123 0.57633334 0.0015494225 656 132
-0.21166521 -0.010693513 0.56209326 0.0014669874 659 133
nan nan nan 0 812 167
-0.16530837 -0.0085676704 0.45195612 0.00097059202 1327 255
-0.16571854 -0.0087015321 0.45978639 0.0010603757 1209 255
nan nan nan 0 792 162
-0.18084443 -0.0097514484 0.51688421 0.001455314 669 135
-0.18251987 -0.009976102 0.52956963 0.0015172957 635 127
-0.181504 -0.010057835 0.53465801 0.0015400695 621 124
-0.1818624 -0.010219085 0.54395771 0.001560113 601 120
-0.17991176 -0.010253329 0.54647738 0.0015481681 612 122
-0.1788258 -0.010338551 0.55168921 0.0015684197 591 118
-0.1782489 -0.010456134 0.55860841 0.0017245109 591 118
-0.17705761 -0.010540633 0.56374067 0.0015618392 603 120
-0.1752878 -0.010592723 0.56711608 0.0015795866 591 118
-0.17331958 -0.010634236 0.56989956 0.0016854102 597 119
-0.17109749 -0.01066122 0.57187802 0.0015655369 607 121
-0.16957717 -0.010733479 0.57626039 0.0015360352 615 123
-0.1676435 -0.010781473 0.57931721 0.0015318452 634 127
-0.16501768 -0.010785793 0.58000159 0.0014481384 679 137
-0.16093065 -0.010693166 0.57544214 0.0012980918 808 166
-0.15782918 -0.010664006 0.57426721 0.001188156 935 194
-0.15499651 -0.010652319 0.57400674 0.0011424816 1000 209
-0.15221949 -0.010644113 0.57390887 0.0011240439 1014 212
-0.14975944 -0.010658175 0.57498819 0.0011438298 984 205
-0.14710432 -0.010658611 0.57531011 0.0012201425 979 204
-0.14420897 -0.010641336 0.5746538 0.0011349098 1017 212
-0.14138012 -0.010628412 0.57421052 0.0011430791 995 207
-0.13858137 -0.0106173 0.57384413 0.0011898158 928 193
-0.13565525 -0.010595807 0.57289648 0.0012100164 927 192
-0.13219678 -0.010531049 0.56958932 0.0012948654 909 188
-0.12929581 -0.010508976 0.56857121 0.0012650434 935 194
-0.12645683 -0.010491131 0.56776422 0.0012840594 920 191
-0.1235992 -0.010470954 0.56681401 0.0012166197 906 188
-0.12050775 -0.010429665 0.56470472 0.001239522 877 181
-0.11715981 -0.010363864 0.56125206 0.0012462492 861 178
-0.11446401 -0.010354081 0.56081825 0.0012815499 859 177
-0.11125246 -0.010296118 0.55776072 0.0013749199 838 173
-0.10825925 -0.010256094 0.5556618 0.0013586601 825 170
-0.10441182 -0.010131247 0.54895431 0.0012969893 862 178
-0.10063487 -0.010007206 0.54227805 0.0012576535 865 179
-0.096993409 -0.0098906672 0.53599691 0.0013024043 883 183
-0.094229914 -0.0098599056 0.53435427 0.001238447 891 184
-0.091526464 -0.009833945 0.53296256 0.0012447956 870 180
-0.088939197 -0.0098193791 0.53218007 0.001228592 882 182
-0.086397089 -0.0098091168 0.53162289 0.0012459438 888 184
-0.083959579 -0.0098104766 0.53168827 0.0012361308 895 185
-0.081548348 -0.009815082 0.53192288 0.0012208874 898 186
-0.079112008 -0.0098168561 0.53199804 0.0012372517 881 182
-0.076495491 -0.0097956713 0.53082329 0.0012384135 883 183
-0.073957354 -0.0097834533 0.53012961 0.0012640012 887 183
-0.071149461 -0.0097335009 0.52738684 0.0012836717 917 190
-0.068281069 -0.0096714459 0.52398473 0.0012045053 902 187
-0.065546535 -0.0096244933 0.52139795 0.0011799047 949 197
-0.063129164 -0.0096223103 0.52123374 0.0011715982 961 200
-0.060824476 -0.0096378103 0.52202469 0.001267249 937 195
-0.058344811 -0.0096257189 0.52131921 0.0012194751 942 196
-0.055998143 -0.0096354745 0.52179515 0.0012229788 957 199
-0.053779487 -0.0096691195 0.5235635 0.001188908 936 194
-0.05158015 -0.009709565 0.52569884 0.0012130324 904 187
-0.049472112 -0.0097720334 0.52902561 0.0012648385 855 176
-0.047661133 -0.0099027045 0.53604347 0.0013519541 753 154
-0.045002036 -0.0098618167 0.53377461 0.0013368172 853 176
-0.042369634 -0.0098223854 0.53158575 0.001263521 870 180
-0.03961622 -0.0097483303 0.52752483 0.0012448105 909 188
-0.037080191 -0.0097215725 0.52602535 0.001248278 920 191
-0.034476619 -0.0096721193 0.52329993 0.0011858222 943 196
-0.032083508 -0.0096787047 0.52360868 0.0011969715 933 194
-0.029788878 -0.0097184936 0.52571571 0.0012646248 940 195
-0.027990682 -0.0099416599 0.53774393 0.0013178377 860 177
-0.025789473 -0.010051191 0.5436269 0.0013029296 833 171
-0.023594815 -0.010187165 0.5509423 0.0013755121 825 170
-0.020990551 -0.010157779 0.54931766 0.0012244987 911 189
-0.018316694 -0.01008201 0.54518861 0.0011493033 993 207
-0.015846489 -0.010112054 0.54678524 0.00118556 996 208
-0.013366091 -0.010145747 0.54858303 0.0011847205 942 196
-0.010835697 -0.010148375 0.54870498 0.0013000029 918 190
-0.0083512925 -0.010208826 0.55195719 0.0011933756 930 193
-0.0058015483 -0.010207426 0.55186951 0.0011967133 935 194
-0.0032519165 -0.010204187 0.5516867 0.0011571451 977 203
-0.00070359913 -0.010196554 0.55127072 0.0011474276 1042 218
0.0018372146 -0.010168485 0.5497542 0.0011157193 1037 217
0.0043743039 -0.010164332 0.54953486 0.0011799592 1036 217
0.0069186292 -0.010173867 0.55005997 0.001160463 1019 213
0.0094391797 -0.010152712 0.54892999 0.0011922022 994 207
0.011945133 -0.010128136 0.54761916 0.0011823138 981 204
0.014472948 -0.010127445 0.54760361 0.0011416028 1004 209
0.017013161 -0.010134344 0.54800266 0.0011465589 991 207
0.019559719 -0.010142748 0.54848689 0.0012031513 956 199
0.022279836 -0.010228908 0.55317974 0.001300165 897 186
0.02481826 -0.010222507 0.55287075 0.0012295353 889 184
0.027236516 -0.010172419 0.55020207 0.0012232733 896 185
0.029704146 -0.010147744 0.54891074 0.0013198785 880 182
0.032137949 -0.0101163 0.54725564 0.0012478716 868 179
0.034520097 -0.010074363 0.54503524 0.0012898197 863 178
0.036866713 -0.010028456 0.54260194 0.0012125646 901 187
0.039106503 -0.0099611785 0.53901368 0.0012237357 939 195
0.041603632 -0.0099635767 0.53919691 0.0012434174 912 189
0.044320375 -0.01001533 0.54205269 0.0013052197 875 181
0.04700356 -0.010054381 0.54422241 0.001238391 878 181
0.049560979 -0.010063929 0.54479629 0.0012227444 891 184
0.05216071 -0.010080737 0.54576337 0.0011985494 916 190
0.054515801 -0.010050891 0.54420453 0.0012374251 938 195
0.056751866 -0.010002695 0.54165095 0.0011835075 950 197
0.059185468 -0.0099919103 0.54112184 0.0011437634 994 207
0.061687771 -0.0099931266 0.54124135 0.0011406647 997 208
0.064409941 -0.010028483 0.54320812 0.0011798736 974 203
0.06785395 -0.010169375 0.55088991 0.001222204 896 185
0.070016526 -0.010114982 0.54799032 0.0012474082 964 201
0.07235004 -0.010088209 0.54658329 0.0011728049 967 201
0.076064445 -0.010249306 0.55535197 0.0012478683 910 189
0.082736678 -0.010785498 0.58444297 0.0014789759 756 154
0.085489646 -0.010793077 0.58488613 0.001298465 881 182
0.087570019 -0.010717873 0.58083719 0.0011630208 971 202
0.089690462 -0.010651886 0.57728124 0.0011412144 1004 209
0.09199588 -0.01061104 0.57508039 0.0011324018 1038 217
0.094522312 -0.010597254 0.57433885 0.0011254339 1030 215
0.096840337 -0.010561493 0.57239813 0.0011618994 1033 216
0.099341817 -0.010547105 0.57160699 0.0011060477 1062 222
0.10208894 -0.010558864 0.57222366 0.0011075246 1061 222
0.10512746 -0.010599414 0.57439053 0.0011653741 1023 214
0.10849253 -0.010670088 0.57817882 0.001210158 1003 209
0.11151678 -0.010704658 0.57999885 0.0011510657 1029 215
0.11429009 -0.010714083 0.58044428 0.0010611627 1137 239
0.11693886 -0.010711672 0.58023566 0.0010444089 1166 245
0.11931015 -0.010684519 0.57867348 0.001044933 1162 245
0.12168614 -0.010658965 0.57718426 0.0010329538 1181 249
0.12429006 -0.010654043 0.57679796 0.0010333509 1180 249
0.12696587 -0.01065536 0.57673383 0.001067859 1117 235
0.13018811 -0.01070154 0.57908106 0.001168013 1013 211
0.13141797 -0.010585383 0.57262802 0.0011914364 1037 217
0.13261509 -0.010471218 0.56626916 0.0010685162 1112 233
0.1348405 -0.010441093 0.56443942 0.0010579901 1202 253
0.13642079 -0.010363104 0.56000561 0.0010385386 1226 255
0.13903111 -0.010364809 0.55986047 0.0011186955 1146 241
0.14360583 -0.01051022 0.5674538 0.001276571 835 172
0.14789873 -0.010630157 0.57364392 0.0014645456 744 152
0.1504014 -0.010619461 0.57275939 0.0014215241 699 142
0.15273058 -0.010597098 0.57122362 0.001456974 676 137
0.15447555 -0.010535655 0.56756008 0.0015359785 652 131
0.15637887 -0.010486884 0.56455874 0.0014928859 643 129
0.15745904 -0.01038543 0.55870169 0.0015958583 631 127
0.15902907 -0.010319049 0.55471236 0.001557116 625 125
0.15834779 -0.01011103 0.54309446 0.0015029596 633 127
0.15994328 -0.010052639 0.53949869 0.0015043899 636 128
0.16110358 -0.0099691236 0.53453404 0.0015373951 635 127
0.15915473 -0.0096986797 0.51953661 0.0014659878 666 134
nan nan nan 0 753 154
0.14693202 -0.0086894222 0.46450844 0.0011149098 1059 222
0.14750822 -0.0085965609 0.45902884 0.0011311905 1024 214
nan nan nan 0 333 60
0.18824854 -0.010660602 0.567864 0.0021750589 353 65
0.19326505 -0.010792092 0.57411915 0.0015594029 591 118
0.19726503 -0.010863986 0.57715386 0.0015883578 649 131
0.20029883 -0.010881438 0.57725364 0.0014223974 694 141
0.20309533 -0.010885706 0.5766151 0.0014836253 677 137
0.20570968 -0.010880226 0.57542288 0.0014388227 685 139
0.20913303 -0.010917122 0.57643068 0.0014967521 665 134
0.21281411 -0.010966347 0.57804352 0.0014462805 675 136
0.21633986 -0.01100642 0.57912666 0.001604845 654 132
0.21958636 -0.011031458 0.57937312 0.0015523229 673 136
0.2227332 -0.011050932 0.57928348 0.0015408816 673 136
0.22583878 -0.011067907 0.57901984 0.0014608506 661 133
0.22872944 -0.011074067 0.57814884 0.0015568752 668 135
0.2321232 -0.011104146 0.57848418 0.00144236 670 135
0.23504889 -0.011111387 0.57758808 0.0015521246 671 135
0.23822127 -0.011129986 0.57724297 0.0015773361 643 129
0.24148789 -0.011152509 0.57706159 0.0014701312 648 130
0.24504194 -0.01118764 0.57749277 0.0014764938 644 129
0.24861963 -0.011223045 0.5778991 0.001495499 639 128
0.25195396 -0.0112468 0.57767045 0.0015012078 635 127
0.25542665 -0.011276138 0.57769817 0.001510825 625 125
0.25905561 -0.011311661 0.57801485 0.0016217137 608 121
0.26227137 -0.01132857 0.57735908 0.0015839214 584 116
0.2654269 -0.011342543 0.57654119 0.0015635532 583 116
0.26864305 -0.011358786 0.5758329 0.001532635 605 121
0.27196929 -0.011379294 0.57534164 0.0017246241 607 121
0.27624786 -0.011438813 0.57682592 0.0016349751 548 108
0.27972579 -0.0114643 0.57660592 0.0017618963 551 109
0.28341532 -0.011497855 0.57681668 0.0016888079 527 103
0.2875092 -0.011546978 0.57784098 0.0016634131 529 104
0.2907722 -0.011562086 0.577209 0.001746084 514 101
0.29403695 -0.011576964 0.5766266 0.0019112389 479 93
0.29711187 -0.011584153 0.57573414 0.0017684432 483 94
0.29925576 -0.011555254 0.57313579 0.0018715701 455 87
0.30132261 -0.011523958 0.57051957 0.0019285124 444 85
-0.34729657 -0.0088239517 0.57971799 0.0029013313 235 39
-0.34534878 -0.0088492818 0.58076525 0.0029897164 235 39
-0.34261242 -0.0088546667 0.58062047 0.0028155942 249 42
-0.33938602 -0.0088473717 0.57976741 0.0030072276 254 43
-0.33644059 -0.0088473372 0.5795179 0.0027110456 261 44
-0.33369508 -0.0088526066 0.57974607 0.0028805961 273 47
-0.33070889 -0.0088515254 0.57969123 0.0026483622 283 49
-0.32747689 -0.0088437879 0.57933509 0.0024897656 306 54
-0.32448381 -0.0088424217 0.57953113 0.002620982 319 57
-0.32182899 -0.0088503305 0.58046973 0.0022946384 333 60
-0.31915757 -0.0088579264 0.58152115 0.0020847411 373 69
-0.31530109 -0.0088324677 0.58053023 0.0023020429 376 70
-0.31219184 -0.0088276574 0.58101821 0.0023001931 372 69
-0.30896553 -0.0088194143 0.5813967 0.0021087129 400 75
-0.30512509 -0.0087933149 0.58070475 0.0019007372 454 87
-0.30107975 -0.0087607484 0.57967991 0.0021128824 441 84
-0.29754007 -0.0087424023 0.57968074 0.0019202784 423 80
-0.2944589 -0.0087372987 0.58063781 0.001847773 460 89
-0.29067966 -0.0087111741 0.58026373 0.0020249863 461 89
-0.28723505 -0.0086946515 0.58058214 0.0017426822 501 98
-0.28302455 -0.0086543737 0.57935363 0.0016515313 544 107
-0.27950674 -0.0086346669 0.57953024 0.0018048155 526 103
-0.27635902 -0.0086261025 0.58047795 0.0016966428 509 99
-0.27281764 -0.008604941 0.5805912 0.0016680594 534 105
-0.26881677 -0.0085686846 0.57968581 0.0016500646 545 107
-0.26430491 -0.0085151885 0.57759988 0.0016114461 566 112
-0.26119167 -0.0085060801 0.57850868 0.0016806414 567 112
-0.2578826 -0.008490325 0.57894951 0.0016097686 568 113
-0.25400099 -0.0084551629 0.5780412 0.0016540342 607 121
-0.25048909 -0.0084316563 0.57789797 0.0016136385 614 123
-0.24731515 -0.0084191235 0.57847518 0.0017845252 584 116
-0.24437301 -0.0084142843 0.57954919 0.0015648989 596 119
-0.24160294 -0.0084153265 0.58099586 0.0015338687 605 121
-0.23733263 -0.0083635245 0.57875204 0.0015313608 598 119
-0.23391184 -0.0083407871 0.57847202 0.001552779 599 119
-0.23057789 -0.0083206352 0.5783276 0.0015280215 617 123
-0.22703922 -0.0082925186 0.57758445 0.0014997998 636 128
-0.22353557 -0.0082650017 0.57683647 0.0015483696 612 122
-0.22013439 -0.0082406374 0.57626212 0.0014818192 661 133
-0.2121319 -0.0080412375 0.56337875 0.0014727633 652 131
nan nan nan 0 810 166
-0.16667116 -0.0064814826 0.45571733 0.00098386244 1299 255
-0.16595614 -0.0065382873 0.4604803 0.0010064442 1246 255
nan nan nan 0 858 177
-0.18067455 -0.0073098247 0.51643533 0.0014753315 660 133
-0.18283634 -0.0074982382 0.53052419 0.001536084 621 124
-0.18220282 -0.0075756414 0.53675222 0.0015257245 623 125
-0.18173344 -0.007662137 0.54360682 0.001564033 602 120
-0.1808957 -0.0077353432 0.54950011 0.0016666882 590 117
-0.17920335 -0.0077735903 0.55288714 0.0015694506 596 119
-0.17770334 -0.0078214239 0.5569309 0.0015761505 587 117
-0.176892 -0.0079014404 0.5632447 0.0016196173 600 120
-0.17483659 -0.0079274634 0.56568652 0.0015773533 592 118
-0.17307398 -0.0079677626 0.56912118 0.00171482 601 120
-0.17164811 -0.0080250604 0.57374674 0.0016018046 603 120
-0.16942996 -0.0080465414 0.57578731 0.0015427532 606 121
-0.16762091 -0.0080884546 0.5792653 0.0015133852 630 126
-0.16503878 -0.0080938218 0.58010089 0.0015146693 669 135
-0.16047044 -0.0080003422 0.57382017 0.0013098632 793 163
-0.158151 -0.0080177216 0.57546079 0.0012752087 927 192
-0.15468365 -0.007976504 0.57286936 0.0011414182 1004 209
-0.15214856 -0.0079827588 0.57366168 0.0011838543 1023 214
-0.14971158 -0.0079944748 0.57482362 0.0011733939 978 204
-0.14701165 -0.0079923207 0.57496589 0.001151152 982 205
-0.14428741 -0.0079887398 0.57498342 0.00114529 999 208
-0.14130446 -0.0079704328 0.57391918 0.001203965 951 198
-0.13856339 -0.0079653291 0.57378471 0.0011816038 947 197
-0.13494094 -0.0079083722 0.56989372 0.0011948483 946 197
-0.13217841 -0.0079005482 0.56952292 0.0011879051 934 194
-0.12943684 -0.0078936862 0.56920332 0.0011997093 971 202
-0.12655485 -0.0078777978 0.56821519 0.0012477966 935 194
-0.12388845 -0.0078749415 0.56815034 0.0012305053 904 187
-0.12133174 -0.0078790849 0.56857491 0.0012794876 864 178
-0.11765467 -0.0078090504 0.56363064 0.0012282755 888 184
-0.11443139 -0.0077666515 0.56066543 0.0012547903 860 177
-0.1113485 -0.0077320416 0.55824834 0.0012788936 833 171
-0.10852853 -0.0077144848 0.55704916 0.0012924303 817 168
-0.10486294 -0.0076345108 0.55133027 0.001367501 828 170
-0.10160969 -0.0075813313 0.54753441 0.0012306086 882 182
-0.098027781 -0.0075002974 0.54171562 0.0012611672 882 182
-0.094339058 -0.0074066441 0.53497499 0.0012315678 879 182
-0.091600299 -0.0073845484 0.5333935 0.0012341221 874 181
-0.088982239 -0.0073712328 0.5324378 0.0013233819 890 184
-0.086387709 -0.007359168 0.53156459 0.0012796135 894 185
-0.083880417 -0.0073540476 0.53118587 0.0012254053 895 185
-0.08134786 -0.0073463372 0.53061324 0.0013189475 880 182
-0.07875853 -0.0073328633 0.52961838 0.001231486 889 184
-0.076265432 -0.0073277741 0.52922356 0.0013034852 892 185
-0.073888242 -0.0073338524 0.5296303 0.0012306733 888 184
-0.070919462 -0.0072796224 0.52567744 0.0011903783 923 191
-0.068267681 -0.0072552464 0.52387679 0.00119389 937 195
-0.065750673 -0.0072439318 0.52301604 0.0011694636 971 202
-0.063294515 -0.0072387131 0.52259254 0.0012844179 953 198
-0.060663078 -0.0072122444 0.52063262 0.0011983056 967 201
-0.058268964 -0.0072129718 0.52063406 0.0012476393 952 198
-0.055966586 -0.0072256052 0.52149314 0.0012371603 961 200
-0.053642478 -0.0072364425 0.52222115 0.0011892517 935 194
-0.051547956 -0.0072807246 0.52536166 0.0012811881 914 189
-0.049479436 -0.0073332279 0.52909422 0.0013507118 838 173
-0.047606546 -0.0074216784 0.5354194 0.0014843476 719 146
-0.044938087 -0.0073889946 0.53300548 0.0012776393 829 171
-0.042222522 -0.007344333 0.52972907 0.0012410801 873 180
-0.03952501 -0.0072975173 0.52629894 0.001202162 920 191
-0.037027553 -0.0072839265 0.52526689 0.0012863739 919 191
-0.034499381 -0.0072619659 0.52363336 0.0012121275 918 190
-0.032028586 -0.007249685 0.52270007 0.0011933709 926 192
-0.029827675 -0.0073014675 0.52638769 0.001229725 909 188
-0.027582886 -0.0073507405 0.5298965 0.0012262644 897 186
-0.025520081 -0.007462821 0.53793478 0.0013212023 842 173
-0.023380868 -0.0075743143 0.54593259 0.0013899507 813 167
-0.02107314 -0.0076515623 0.55146468 0.0013098284 821 169
-0.018408975 -0.007602836 0.54792088 0.0012050043 928 193
-0.015919076 -0.0076220213 0.54927522 0.001194584 972 202
-0.013369078 -0.0076142484 0.5486908 0.0011936952 966 201
-0.010902955 -0.0076617836 0.55209577 0.0012048054 936 194
-0.0083443969 -0.0076535512 0.55148631 0.0011547265 991 207
-0.0058028246 -0.0076605114 0.55197579 0.0011666187 972 202
-0.0032547016 -0.0076629529 0.55214399 0.0011562305 970 202
-0.00070350256 -0.0076496196 0.55117983 0.0011600637 1042 218
0.0018404821 -0.0076431781 0.5507167 0.0011606753 1052 220
0.004370837 -0.0076204473 0.54908419 0.0011165916 1056 221
0.0069046798 -0.0076182559 0.54893595 0.0011520754 1043 218
0.0094269505 -0.0076079029 0.54820383 0.0011233167 1027 215
0.011950238 -0.0076025808 0.54783833 0.0011578223 1009 211
0.014488967 -0.0076072249 0.54819506 0.0011498961 1006 210
0.017035443 -0.0076139513 0.54870588 0.0012021972 985 205
0.019640788 -0.0076418403 0.55074579 0.0011826624 947 197
0.022300713 -0.0076821363 0.55368376 0.0012946898 902 187
0.024803286 -0.0076655149 0.55252314 0.0012568689 894 185
0.027188972 -0.0076192371 0.54922801 0.001220867 899 186
0.029667147 -0.0076045617 0.5482136 0.0012329224 876 181
0.032116815 -0.0075854613 0.54688281 0.001277616 882 182
0.034417905 -0.0075366078 0.54340905 0.0013127159 900 186
0.036516402 -0.0074530421 0.5374338 0.001179729 951 198
0.039033156 -0.0074600438 0.53799087 0.0012008242 921 191
0.041512173 -0.0074594277 0.53800029 0.0012547178 937 195
0.044257093 -0.007503964 0.54126775 0.001279257 894 185
0.047052775 -0.0075518922 0.54478163 0.0012530956 853 176
0.049657147 -0.0075658113 0.54584324 0.0013258683 889 184
0.052192472 -0.0075683747 0.54608595 0.0012480994 932 193
0.054532107 -0.0075436309 0.54435802 0.001230763 956 199
0.056780335 -0.0075089778 0.54191399 0.001144135 989 206
0.05918983 -0.0074976734 0.54115367 0.0011800444 1004 209
0.061691035 -0.007498431 0.54126251 0.0011352828 1009 211
0.064388081 -0.0075220088 0.54301679 0.0011628768 968 201
0.067611583 -0.0076030218 0.5489158 0.0012163359 899 186
0.070077255 -0.0075960453 0.54845983 0.0011756845 953 198
0.072616532 -0.0075972565 0.54859149 0.0011964162 923 191
0.076621339 -0.0077465507 0.55941319 0.0013282434 885 183
0.082672425 -0.008086279 0.58398497 0.0013868917 747 152
0.085335605 -0.0080836583 0.58382887 0.0012573692 871 180
0.087895148 -0.0080716815 0.58299118 0.0011843666 950 197
0.089679778 -0.0079913624 0.57721078 0.0011474414 991 207
0.092133142 -0.0079735434 0.57593757 0.0011231813 1034 216
0.094499528 -0.0079494053 0.57420027 0.001109194 1049 219
0.097035095 -0.0079404265 0.57354981 0.0011608355 1058 221
0.099072084 -0.0078922063 0.57005638 0.0011576291 1069 224
0.10178442 -0.0078988858 0.57051909 0.0010967234 1070 224
0.10436377 -0.0078951688 0.57022113 0.0010987296 1065 223
0.10699421 -0.0078954045 0.57019794 0.0011224189 1039 217
0.11108494 -0.008000805 0.57775778 0.001185024 1021 213
0.11437885 -0.0080452245 0.58090097 0.001172221 1042 218
0.11682578 -0.0080293994 0.57968128 0.0011298622 1128 237
0.11933373 -0.0080183819 0.57879543 0.0011002647 1180 249
0.12181981 -0.0080064097 0.57782692 0.0010306026 1196 252
0.12426201 -0.0079921279 0.57667726 0.0010299808 1191 251
0.12701023 -0.0079977131 0.57694578 0.0010589639 1132 238
0.12984408 -0.0080083515 0.57756233 0.001125989 1025 214
0.1309038 -0.0079113394 0.57039994 0.0011140265 1031 215
0.13260554 -0.0078561893 0.56624162 0.0010875203 1082 227
0.13475019 -0.0078289043 0.56407553 0.0010204439 1208 255
0.13654099 -0.0077824858 0.56051409 0.0010154573 1215 255
0.13937296 -0.0077960347 0.56125313 0.0010464047 1157 243
0.14337341 -0.0078732548 0.56655288 0.0012316456 894 185
0.14797077 -0.0079798941 0.57394189 0.0014421081 758 155
0.1505141 -0.007973955 0.57320833 0.0015414858 694 141
0.15282597 -0.0079561714 0.57160115 0.0014957811 679 137
0.15488872 -0.0079262452 0.56909984 0.0015005858 652 131
0.15627229 -0.0078631463 0.56419653 0.0015060597 635 127
0.1570777 -0.0077735139 0.55737203 0.0014996199 645 130
0.15903297 -0.0077427696 0.55475044 0.0014937185 639 128
0.15835886 -0.0075870291 0.54315752 0.0014994302 649 131
0.15972181 -0.0075322422 0.53877753 0.0016507119 638 128
0.16100588 -0.007475487 0.53423673 0.0016180451 640 129
0.15932567 -0.0072849202 0.52012193 0.0015674575 668 135
nan nan nan 0 743 151
0.14756691 -0.0065480107 0.46654189 0.0011632551 1031 215
0.14725724 -0.0064391885 0.45827469 0.0010888315 1075 225
nan nan nan 0 387 72
0.18800095 -0.0079883318 0.56715298 0.0023569595 329 59
0.19327997 -0.0080981376 0.57420093 0.0016412914 586 117
0.19634721 -0.0081135295 0.5745073 0.0015221037 615 123
0.20041445 -0.0081692636 0.57762694 0.0015640532 654 132
0.20338975 -0.0081795938 0.57749254 0.0014358455 674 136
0.20604783 -0.0081770606 0.57641137 0.0014303421 682 138
0.20929028 -0.0081974827 0.57690805 0.0014647684 660 133
0.21345709 -0.0082531199 0.57983547 0.0014806687 638 128
0.21617004 -0.008251844 0.57871866 0.0014390812 684 138
0.2195304 -0.0082750041 0.5792734 0.0015155773 676 137
0.22298931 -0.008301259 0.57999873 0.0014291371 679 137
0.22597264 -0.0083093839 0.57941341 0.0015161979 678 137
0.22901741 -0.0083195437 0.57892817 0.0014416137 673 136
0.23185804 -0.0083221337 0.57787579 0.0014531148 668 135
0.23501205 -0.0083357785 0.57755101 0.001480897 661 133
0.23817267 -0.0083493367 0.57717949 0.0014703129 682 138
0.24171126 -0.0083756801 0.57765061 0.0015379272 642 129
0.24504067 -0.0083942553 0.57754582 0.0016031701 644 129
0.24847165 -0.0084158536 0.57761174 0.0014734704 652 131
0.25175875 -0.0084321508 0.5772801 0.0014938571 645 130
0.25519374 -0.0084529873 0.5772289 0.0015697617 645 130
0.25930408 -0.0084954947 0.57862705 0.0015237746 620 124
0.26246899 -0.0085064471 0.57785189 0.0017187626 604 121
0.26584673 -0.0085239876 0.57751054 0.0016429396 585 116
0.26901785 -0.0085346038 0.57669306 0.0017202577 588 117
0.27218261 -0.008544798 0.57584876 0.0015894992 579 115
0.27590096 -0.0085719815 0.57615638 0.0016571692 577 115
0.27970943 -0.0086013796 0.57662559 0.0016493226 550 109
0.28313068 -0.0086183948 0.57628912 0.0017024898 511 100
0.28715459 -0.0086532319 0.57717794 0.0018654009 493 96
0.29083171 -0.0086770281 0.5773744 0.0017886261 478 93
0.29409969 -0.0086882701 0.57679409 0.002013165 478 93
0.29726499 -0.0086962907 0.5760721 0.0017800576 475 92
0.29998761 -0.0086913314 0.57457525 0.0018982216 463 89
0.30194667 -0.0086645531 0.5717352 0.0018595398 445 85
-0.34885967 -0.0059141363 0.58231282 0.0030193236 231 38
-0.34608531 -0.005917131 0.58199191 0.003310377 234 38
-0.34307727 -0.0059161484 0.5813989 0.0032103534 235 39
-0.33932999 -0.0059022894 0.57966506 0.002706581 264 45
-0.33676937 -0.0059090103 0.58008021 0.0027779124 260 44
-0.33422378 -0.0059161149 0.5806635 0.0029934181 277 48
-0.3313143 -0.0059168465 0.58075428 0.002544347 285 50
-0.32764694 -0.0059039374 0.57964087 0.0024089366 315 56
-0.3248333 -0.005906316 0.58016336 0.0023525495 322 58
-0.32246652 -0.0059169368 0.58163083 0.002480692 335 61
-0.31892848 -0.0059060641 0.58111799 0.0021664614 367 68
-0.31552058 -0.0058974223 0.58095175 0.0023580617 376 70
-0.31199041 -0.0058863093 0.58066368 0.0020938038 409 77
-0.30873036 -0.0058801309 0.5809775 0.0019964266 410 77
-0.30521443 -0.0058689136 0.58090085 0.0020850622 442 85
-0.30142647 -0.0058521973 0.58037591 0.0018769351 464 89
-0.29792401 -0.0058407513 0.58045965 0.001924661 472 91
-0.29471886 -0.0058349678 0.58118355 0.0019549015 450 86
-0.29130548 -0.0058249021 0.58154798 0.0018746202 477 92
-0.28756529 -0.005808033 0.58128613 0.0017682182 490 95
-0.28342271 -0.0057826121 0.58020645 0.0018347722 502 98
-0.27964288 -0.0057641463 0.57985145 0.0017894609 524 103
-0.27596676 -0.0057474566 0.57969379 0.0017761402 519 102
-0.27251339 -0.0057351026 0.57998437 0.0017501338 547 108
-0.26834503 -0.0057072812 0.57870942 0.0016268049 557 110
-0.26409942 -0.0056772027 0.57719189 0.0016231075 593 118
-0.26108888 -0.0056733089 0.57832229 0.0016210007 554 109
-0.2580424 -0.005668541 0.57934964 0.0015531697 597 119
-0.25432104 -0.0056486768 0.57881063 0.001650552 586 117
-0.25065321 -0.0056295712 0.5783174 0.0015945326 624 125
-0.24718077 -0.0056144707 0.57820117 0.0015317297 624 125
-0.24432167 -0.0056131142 0.57946736 0.0016336762 593 118
-0.24053665 -0.0055902074 0.57847095 0.0015227773 636 128
-0.23706526 -0.0055741384 0.57813859 0.0015807973 632 127
-0.23383631 -0.0055634566 0.57832307 0.0014886254 638 128
-0.23057882 -0.0055518304 0.57836705 0.0015469373 592 118
-0.22697088 -0.0055313818 0.57744688 0.0015396465 623 125
-0.22344528 -0.0055124606 0.57663882 0.001600453 604 121
-0.22006609 -0.005496724 0.57611775 0.0016290409 610 122
-0.21262877 -0.0053779511 0.56473124 0.0015274687 615 123
nan nan nan 0 803 165
-0.1662145 -0.0043128142 0.45449382 0.00099214306 1280 255
-0.16622342 -0.0043695909 0.46124664 0.0010344199 1199 253
nan nan nan 0 842 173
-0.18042223 -0.0048705493 0.51574004 0.00160464 661 133
-0.18335806 -0.0050173528 0.53206402 0.0016166291 613 123
-0.18125895 -0.0050285375 0.53399694 0.0016112785 614 123
-0.18134749 -0.0051015783 0.54247725 0.0016063227 604 121
-0.1803441 -0.0051455428 0.54784888 0.0016222548 601 120
-0.17933647 -0.0051906537 0.55332136 0.0015905536 581 115
-0.17742909 -0.0052106632 0.55609429 0.0015727006 596 119
-0.17610057 -0.0052485191 0.56074685 0.0015715228 602 120
-0.17473108 -0.0052862782 0.56536669 0.001633889 600 120
-0.17310543 -0.0053173266 0.56924558 0.001545604 610 122
-0.17130443 -0.0053438703 0.57261807 0.001567289 602 120
-0.16934031 -0.0053660823 0.57550216 0.0015412903 613 123
-0.16728726 -0.0053861463 0.57813096 0.0015127824 627 126
-0.16480742 -0.0053928988 0.57930541 0.0015142892 666 134
-0.16183273 -0.0053834147 0.57870859 0.001348689 761 155
-0.1577933 -0.0053375941 0.57417536 0.0012170194 925 192
-0.15459627 -0.0053191851 0.57256109 0.0011331426 1005 210
-0.15193282 -0.0053188126 0.57286268 0.0011640934 966 201
-0.14963301 -0.0053313826 0.57453561 0.0011702745 948 197
-0.14703335 -0.0053335321 0.57506365 0.0011652424 961 200
-0.14405203 -0.005321661 0.57405758 0.0011480266 988 206
-0.14126718 -0.0053167371 0.57377923 0.0012791432 927 192
-0.13765046 -0.0052797198 0.57001483 0.0011866383 941 195
-0.13479964 -0.0052712066 0.56930679 0.0012403297 959 199
-0.13220789 -0.0052726874 0.56965911 0.0012052259 951 198
-0.12938036 -0.0052646347 0.56896341 0.0011844641 936 194
-0.12670158 -0.0052624261 0.56888181 0.0011785538 945 196
-0.12410601 -0.0052636536 0.56915516 0.0013117067 881 182
-0.121343 -0.0052576791 0.56863403 0.0012449846 893 185
-0.11740743 -0.005199512 0.56245196 0.0012191108 898 186
-0.1147067 -0.0051946384 0.56201929 0.0013072811 868 179
-0.11177149 -0.005178676 0.56037331 0.0012756494 836 172
-0.10876799 -0.0051587205 0.55828184 0.0013045153 816 168
-0.10501487 -0.0051013832 0.55213213 0.0013437513 835 172
-0.10180335 -0.0050681601 0.54858041 0.0012796791 868 179
-0.097435012 -0.0049741892 0.53844172 0.001275638 862 178
-0.094800293 -0.0049661235 0.53759176 0.0012336158 876 181
-0.091594599 -0.0049269125 0.53336108 0.0012371996 871 180
-0.088993102 -0.0049189352 0.53250289 0.0013225676 862 178
-0.086237565 -0.00490175 0.5306403 0.0012130014 908 188
-0.08351016 -0.0048852088 0.52884024 0.0012688974 899 186
-0.081090324 -0.0048862048 0.52893192 0.0012413011 873 180
-0.078598678 -0.0048828027 0.52854156 0.0012262467 887 183
-0.075811438 -0.0048602321 0.52607077 0.0013330795 883 183
-0.073307857 -0.0048549562 0.52546722 0.0012184391 894 185
-0.070761181 -0.0048463685 0.52450091 0.0012825753 893 185
-0.068203114 -0.0048363656 0.52337754 0.0012284805 885 183
-0.065773025 -0.0048350375 0.52318966 0.0013061289 910 189
-0.063239843 -0.0048257415 0.52213657 0.0011797494 941 195
-0.060621779 -0.0048089758 0.52027315 0.0012105579 962 200
-0.05839375 -0.0048230439 0.52174354 0.0011808268 965 201
-0.055975486 -0.0048219338 0.52157021 0.0011490101 997 208
-0.053611342 -0.0048255944 0.52191186 0.001181271 948 197
-0.05128717 -0.0048333681 0.52269733 0.0012376392 931 193
-0.049428541 -0.0048879436 0.52854311 0.0012493473 861 178
-0.047609802 -0.004952332 0.53544855 0.0015051486 722 147
-0.044779394 -0.004912775 0.53111565 0.0012894545 824 169
-0.042233959 -0.0049017137 0.52986467 0.001265205 874 181
-0.039367653 -0.0048497641 0.52419555 0.0012304792 942 196
-0.036972638 -0.0048528723 0.52447957 0.0012088661 940 195
-0.034521647 -0.0048485557 0.52396274 0.0011950758 936 194
-0.032031585 -0.0048376862 0.52274019 0.0011954568 928 193
-0.029649789 -0.0048427298 0.52323937 0.0011960029 930 193
-0.027397472 -0.004871693 0.52632517 0.0012483788 914 189
-0.025261275 -0.0049289474 0.53246981 0.0013508588 857 177
-0.023196226 -0.0050139264 0.54161137 0.0012764167 846 174
-0.021106284 -0.0051134098 0.55232173 0.001320099 789 162
-0.018549172 -0.0051115011 0.55208319 0.0013373861 806 165
-0.015964082 -0.0051000468 0.55081761 0.0011817464 945 196
-0.013444403 -0.0051091076 0.5517717 0.0012230596 959 199
-0.010890881 -0.0051065381 0.55147362 0.0012070034 939 195
-0.0083472515 -0.0051084543 0.55166417 0.0011728755 954 198
-0.0058043259 -0.0051126732 0.55210763 0.0011800167 948 197
-0.003253707 -0.0051114173 0.55196428 0.001190628 929 193
-0.00070477085 -0.005113285 0.55216253 0.0011574463 993 207
0.0018399479 -0.0050983056 0.55054593 0.0011633883 1051 220
0.0043763965 -0.0050910865 0.54977173 0.0011024893 1082 227
0.0069000069 -0.0050797174 0.54855365 0.0010955291 1071 224
0.0094327405 -0.0050793672 0.5485298 0.0011148851 1036 217
0.011996465 -0.005092321 0.54994678 0.001138914 1007 210
0.014518102 -0.0050860029 0.54928678 0.0011949175 984 205
0.017073907 -0.0050917547 0.54993421 0.0011632877 959 199
0.01963553 -0.0050975271 0.55058783 0.0012070521 927 192
0.022237776 -0.0051113134 0.55211091 0.0012196143 902 187
0.024721647 -0.0050978535 0.55069441 0.0012151307 909 188
0.02713036 -0.0050728512 0.54803413 0.0012693469 922 191
0.029607628 -0.0050638397 0.547104 0.0013017007 908 188
0.032013603 -0.0050450093 0.54511589 0.0012165053 898 186
0.034076553 -0.0049788048 0.53801066 0.0012021381 920 191
0.036489196 -0.0049692155 0.53702474 0.0012504754 953 198
0.03897883 -0.0049706651 0.53723377 0.0011964832 919 191
0.041595917 -0.0049872212 0.53907722 0.0012084711 911 189
0.044671949 -0.0050538308 0.54633343 0.0012407149 872 180
0.047518943 -0.0050887982 0.5501712 0.0013480803 860 177
0.049915493 -0.005074427 0.54867554 0.0012115034 905 187
0.052178003 -0.0050484743 0.54592752 0.0011604247 977 203
0.05474484 -0.0050529996 0.54647493 0.0011583011 980 204
0.05671227 -0.0050042369 0.54125822 0.0011421524 997 208
0.059175231 -0.0050014658 0.54101443 0.0011363922 1009 211
0.061634228 -0.0049985978 0.54075867 0.0011396314 1014 212
0.064090617 -0.0049957503 0.5405032 0.0011447343 995 207
0.067551032 -0.0050684488 0.54841954 0.0011876724 939 195
0.070269123 -0.0050822147 0.54995728 0.00118561 947 197
0.073001541 -0.0050960211 0.55149645 0.0011734806 958 199
0.077238068 -0.0052103638 0.56391287 0.0012541994 851 175
0.083175272 -0.0054282546 0.58753407 0.0014174505 752 153
0.085341662 -0.0053940718 0.58386797 0.0012115678 900 186
0.087889098 -0.0053853258 0.5829491 0.0011632602 966 201
0.090261988 -0.0053667226 0.58095676 0.0011738302 1002 209
0.092349611 -0.0053327163 0.57728988 0.0011585751 1023 214
0.094752669 -0.0053183194 0.57573819 0.0011567252 1040 217
0.09655264 -0.005271777 0.57069856 0.0011319397 1053 220
0.099206366 -0.0052730832 0.57083005 0.0010918039 1077 226
0.10167275 -0.0052646198 0.56989479 0.0010997787 1067 223
0.10425282 -0.0052623223 0.56961709 0.0011033863 1058 221
0.10686914 -0.0052619213 0.56953412 0.0010957548 1059 222
0.1103034 -0.0053008478 0.57369632 0.0011105197 1055 221
0.11358868 -0.0053309603 0.57689208 0.0011489912 1014 212
0.11684325 -0.0053582862 0.57977265 0.0011425872 1046 219
0.11935102 -0.0053509101 0.57888484 0.0010557394 1143 240
0.12183416 -0.005342775 0.57790112 0.0010646803 1182 249
0.12438589 -0.0053379317 0.57725894 0.0010188046 1215 255
0.12712267 -0.0053410674 0.57746404 0.0011059947 1160 244
0.12989418 -0.0053455033 0.57779342 0.0011440525 1070 224
0.13121288 -0.0052911751 0.57175547 0.0011167433 1034 216
0.13308422 -0.0052608363 0.56829524 0.0010902149 1083 227
0.13438016 -0.005209364 0.56253672 0.0010265689 1194 252
0.13680074 -0.0052026147 0.56159115 0.0010495425 1240 255
0.13924062 -0.0051968377 0.56073177 0.0010359505 1180 249
0.14343661 -0.0052556163 0.5668149 0.0012014626 912 189
0.14795516 -0.005323892 0.57389468 0.0013466396 758 155
0.15071869 -0.005327723 0.57400143 0.0014800781 700 142
0.15302712 -0.0053156125 0.5723682 0.0015170171 669 135
0.15503797 -0.0052937539 0.5696637 0.0015538237 654 132
0.15631722 -0.0052480646 0.56437498 0.001496173 640 129
0.15732442 -0.0051948968 0.55826426 0.0015617271 639 128
0.15804785 -0.0051342347 0.55133146 0.0014892819 653 131
0.15943375 -0.0050966828 0.54686224 0.0016134136 645 130
0.16066998 -0.0050556017 0.54199463 0.0015913249 624 125
0.16084516 -0.0049829176 0.53372252 0.0015030045 646 130
0.15944809 -0.0048644785 0.52054095 0.0014597577 671 135
nan nan nan 0 733 149
0.14826596 -0.0043897498 0.46877098 0.0011891887 962 200
0.14691174 -0.0042863633 0.45721865 0.0011380248 1114 234
nan nan nan 0 463 89
0.18514431 -0.0052490938 0.55856019 0.0026221711 309 55
0.19341825 -0.005407216 0.57463855 0.0016420373 552 109
0.19678096 -0.0054255784 0.57580411 0.0014408713 666 134
0.20034406 -0.0054488932 0.57745284 0.0015262073 672 136
0.20350762 -0.0054608625 0.57785666 0.0015298291 688 139
0.20677942 -0.0054753828 0.57848859 0.0014095382 688 139
0.20936848 -0.0054716803 0.57715505 0.0015716954 672 136
0.21264111 -0.0054857084 0.57765132 0.0014801654 649 131
0.21586402 -0.0054981131 0.57793266 0.001448883 659 133
0.2191402 -0.005511547 0.57827801 0.0014739952 646 130
0.22306556 -0.0055407733 0.58023226 0.0014574681 666 134
0.22583391 -0.0055408967 0.57909352 0.0014235962 685 139
0.22857033 -0.0055402424 0.57783461 0.0014116982 696 141
0.23206407 -0.005557742 0.57842678 0.0014561828 657 132
0.23523335 -0.0055671493 0.57813299 0.0014970074 694 141
0.23887405 -0.0055873641 0.57891816 0.0014527821 688 139
0.24214834 -0.005598641 0.57873476 0.0015283277 666 134
0.24518649 -0.0056042629 0.5779295 0.0015530667 668 135
0.24841434 -0.0056140455 0.57751906 0.0014830808 642 129
0.25161582 -0.0056230202 0.57699317 0.0015970231 632 127
0.25469258 -0.0056290412 0.57613641 0.0016297596 633 127
0.25884762 -0.0056585027 0.57764983 0.0015133915 618 124
0.26255336 -0.0056776125 0.57807881 0.0016310881 609 122
0.26575914 -0.0056856177 0.57736129 0.0017190879 589 117
0.26898488 -0.0056938767 0.57666302 0.0016051425 597 119
0.27232611 -0.0057043824 0.57619232 0.0015677223 592 118
0.27611965 -0.0057240478 0.57665229 0.0016624845 573 114
0.27959141 -0.0057367086 0.57642055 0.0016219196 554 109
0.28312579 -0.0057503837 0.57631612 0.0018623248 518 101
0.2869626 -0.0057698665 0.57682759 0.0018279967 529 104
0.29089659 -0.0057908962 0.57753706 0.0018396112 497 97
0.29434392 -0.0058019198 0.57730496 0.0018187129 483 94
0.29727459 -0.0058026435 0.57612026 0.0019395464 466 90
0.30040029 -0.0058071245 0.57539272 0.0018585931 453 87
0.30424902 -0.0058253636 0.57611924 0.0019004381 463 89
-0.35029748 -0.0029768255 0.58470428 0.0029994333 231 38
-0.34572726 -0.0029630398 0.58138275 0.0030500961 228 37
-0.34240153 -0.0029597748 0.58024818 0.0029529058 238 39
-0.33994931 -0.0029640682 0.58071899 0.0028292818 251 42
-0.33727553 -0.0029664892 0.58094972 0.002745993 260 44
-0.33487794 -0.0029714033 0.58179945 0.0026737219 271 47
-0.33143067 -0.0029670077 0.58095956 0.0027427238 288 50
-0.32778937 -0.0029607809 0.57989591 0.0026696944 298 53
-0.32463336 -0.0029588644 0.57981116 0.0023602955 323 58
-0.32201397 -0.0029618482 0.58082145 0.0023016501 340 62
-0.31864113 -0.0029578928 0.580603 0.0024150515 343 63
-0.31510487 -0.0029523335 0.5801968 0.0021549254 359 66
-0.31190833 -0.0029498821 0.58052331 0.0021797565 379 71
-0.30806443 -0.0029412026 0.57973838 0.0020245807 399 75
-0.30542919 -0.002944008 0.58132517 0.0019353054 427 81
-0.30218926 -0.0029409826 0.58186185 0.0019159978 430 82
-0.29804236 -0.0029289841 0.5807088 0.0018325754 468 90
-0.29454917 -0.0029232369 0.58086866 0.0019391645 476 92
-0.29114008 -0.0029182183 0.58123875 0.0018637561 468 90
-0.28752866 -0.0029110496 0.5812341 0.0018276445 492 96
-0.28355461 -0.0029000265 0.58049923 0.0017668831 494 96
-0.27994418 -0.0028925338 0.58049965 0.0017711225 484 94
-0.27613643 -0.0028828259 0.58007425 0.0018365085 511 100
-0.27231485 -0.0028727672 0.57958609 0.001697841 523 103
-0.26912907 -0.0028692745 0.5804249 0.0017287281 549 108
-0.2649917 -0.0028554525 0.57916677 0.0018397024 545 107
-0.26154682 -0.0028488743 0.57936144 0.0016840893 568 113
-0.25809881 -0.0028421173 0.57950109 0.0016304124 597 119
-0.25457418 -0.0028343576 0.57941151 0.0016609249 580 115
-0.25076693 -0.002823242 0.57860434 0.0015624596 617 123
-0.24743682 -0.0028173074 0.57882446 0.0016295515 601 120
-0.24419752 -0.0028122822 0.57919681 0.0015808687 605 121
-0.24105963 -0.0028083227 0.57975227 0.0015102731 631 127
-0.23724982 -0.00279635 0.57861191 0.0014750413 649 131
-0.23371956 -0.0027874275 0.57805705 0.0016631358 623 125
-0.23018996 -0.0027782987 0.57741392 0.0015873994 581 115
-0.22710733 -0.0027744083 0.57781571 0.0015721656 587 117
-0.22365724 -0.0027658779 0.57720715 0.001640747 597 119
-0.21995604 -0.0027539907 0.57585037 0.0015574511 598 119
-0.21346478 -0.0027064302 0.56697154 0.0016407117 628 126
nan nan nan 0 751 153
-0.16621844 -0.0021619562 0.45451972 0.0010587324 1166 245
-0.16546778 -0.0021804082 0.45916468 0.0010256601 1213 255
nan nan nan 0 904 187
nan nan nan 0 676 137
