# .PCD v0.7 - Point Cloud Data file format
VERSION 0.7
FIELDS x y z noise intensity gray
SIZE 4 4 4 4 2 1
TYPE F F F F U U
COUNT 1 1 1 1 1 1
WIDTH 882
HEIGHT 1
VIEWPOINT 0 0 0 1 0 0 0
POINTS 882
DATA ascii
0.14553736 -0.1466841 0.88243526 0.0046237325 141 66
0.14967929 -0.1467507 0.88261896 0.0056045237 124 58
0.15352668 -0.1465327 0.88107353 0.0039994181 165 77
0.15813677 -0.14703506 0.88384032 0.0040282677 165 77
0.16242376 -0.1472193 0.88467389 0.0039901026 169 79
0.16649549 -0.14720418 0.88428855 0.0043432368 169 79
0.17043957 -0.14707962 0.88322449 0.0048631369 156 73
0.1747915 -0.14730458 0.88423657 0.0040696575 167 78
0.17903952 -0.1474337 0.88464898 0.0040162825 167 78
0.18258901 -0.14699471 0.88162875 0.004780347 166 78
0.18660513 -0.14694236 0.8809033 0.0039395993 170 79
0.1907558 -0.14699592 0.88078648 0.0040015415 172 80
0.19520152 -0.14726986 0.88196129 0.0040897708 161 75
0.20029722 -0.14801286 0.88591319 0.004015706 177 83
0.20393443 -0.14766987 0.88333386 0.0039389152 174 81
0.20790528 -0.14757721 0.88222289 0.0040778648 181 85
0.21216072 -0.14768627 0.88228542 0.0044523361 177 83
0.21677041 -0.1480331 0.88373363 0.004529655 170 79
0.22117069 -0.14822666 0.88423008 0.004315522 172 80
0.22523057 -0.14818922 0.8833124 0.0038379026 178 83
0.22916141 -0.14806971 0.88186991 0.0039206967 171 80
0.23317283 -0.1480056 0.88072044 0.0049725142 170 79
0.23717877 -0.14794023 0.87952572 0.0041466602 179 84
0.2416326 -0.14815176 0.87993598 0.0042617898 173 81
0.24618109 -0.14841323 0.8805995 0.0046408405 181 85
0.25108659 -0.1488778 0.88242131 0.0039434871 171 80
0.25536543 -0.14896175 0.88194036 0.0048550651 159 74
0.25983739 -0.1491539 0.88205349 0.0049885726 166 78
0.2640945 -0.14921862 0.88136548 0.0051294174 166 78
0.26878592 -0.14952293 0.88204348 0.0041858247 160 75
0.27336943 -0.14975885 0.88226628 0.0039354479 173 81
0.27833357 -0.15019313 0.88360363 0.0039820527 170 79
0.28331187 -0.15062211 0.88485307 0.0049051875 170 79
0.28799784 -0.1508854 0.88507277 0.0048781559 166 78
0.29257822 -0.15108667 0.88487321 0.0041010431 176 82
0.29702696 -0.1512152 0.88419288 0.0039115828 169 79
0.30179146 -0.15149866 0.88436252 0.0047813035 171 80
0.3059898 -0.15149404 0.8827951 0.0041271392 161 75
0.31071097 -0.15174487 0.88266122 0.003963382 168 79
0.31662884 -0.1525656 0.88577867 0.0041215871 161 75
0.32073268 -0.15250213 0.88370252 0.004191821 161 75
0.32519129 -0.1526068 0.88254899 0.0047248425 164 77
0.33059713 -0.15314759 0.88385999 0.004888983 163 76
0.33543995 -0.15341713 0.88354737 0.0048264521 159 74
0.34030649 -0.15369059 0.88320434 0.0040006181 167 78
0.34462631 -0.15371345 0.88137376 0.0040382133 167 78
0.34992012 -0.15416487 0.88195354 0.0038332343 185 87
0.35550898 -0.15473378 0.88315535 0.0039306316 171 80
0.36094633 -0.15522395 0.88386142 0.0040241661 165 77
0.36599588 -0.15553775 0.88352537 0.0052435123 165 77
0.37045926 -0.15559803 0.88172388 0.0039973292 167 78
0.37666163 -0.15637885 0.88398033 0.0039795651 168 79
0.381594 -0.15662068 0.88317078 0.0043231077 151 71
0.38723513 -0.15714464 0.88394564 0.0053564855 154 72
0.39186165 -0.15724979 0.88237011 0.0050585568 156 73
0.39730811 -0.15767802 0.882626 0.0049476321 148 69
0.40210623 -0.1578424 0.88143444 0.0045039845 147 69
0.40786454 -0.15837611 0.88234621 0.0048865108 142 66
0.41415974 -0.15910466 0.88439137 0.0052549695 146 68
0.41855809 -0.15909684 0.88241196 0.0056907106 140 65
0.42448583 -0.15966442 0.88370913 0.0047432594 132 62
0.42920944 -0.15977205 0.88255852 0.004919027 129 60
0.43473333 -0.16017234 0.88313824 0.0053479159 113 53
0.43966362 -0.16034801 0.88260579 0.0053763259 114 53
0.4451052 -0.16070476 0.88320899 0.005516442 110 51
0.44914663 -0.16055393 0.88117522 0.0078280829 94 44
0.4578568 -0.16205855 0.8883816 0.0065949308 100 47
0.46275693 -0.16219847 0.88826823 0.006400974 102 47
0.4662773 -0.16185671 0.88569582 0.007823186 94 44
0.46875498 -0.16116299 0.88138247 0.0064069512 96 45
-0.51709235 -0.1530388 0.87018687 0.01047939 56 26
-0.52236223 -0.15591672 0.88489115 0.009851289 59 27
-0.52185208 -0.15710407 0.89009047 0.0090132058 68 31
-0.51784366 -0.15724969 0.88951439 0.0080836033 73 34
-0.51214981 -0.15688162 0.88617986 0.0082849478 74 34
-0.50771922 -0.15689741 0.88516837 0.0076787532 74 34
-0.50383574 -0.15708403 0.88527757 0.0087067634 82 38
-0.49913236 -0.15701613 0.88411564 0.0081578726 90 42
-0.49373341 -0.15672617 0.88187456 0.006798137 88 41
-0.48994434 -0.15694661 0.88268006 0.0067112949 92 43
-0.48681757 -0.15738524 0.8848902 0.006526106 93 43
-0.4830372 -0.15761879 0.88612902 0.0061050975 102 47
-0.47784787 -0.15739264 0.88496822 0.0061629778 104 48
-0.47282729 -0.15721832 0.88428426 0.0053933342 117 55
-0.46860424 -0.15730834 0.88527244 0.0053990576 117 55
-0.46424112 -0.15735267 0.88618714 0.0062610642 112 52
-0.46047476 -0.15760209 0.88843799 0.0061566671 111 52
-0.45536458 -0.15739198 0.88827318 0.0068001533 88 41
-0.4500058 -0.15709089 0.88775843 0.0067085247 121 56
-0.44513553 -0.15695597 0.88833785 0.004764142 134 63
-0.44084057 -0.15702324 0.89020896 0.0052388175 145 68
-0.43529436 -0.1566416 0.88966817 0.0049465797 150 70
-0.42956516 -0.15618554 0.88881922 0.0044695712 149 70
-0.42384928 -0.15572478 0.88804281 0.0043871696 148 69
-0.41710159 -0.15487112 0.88510549 0.0050279908 151 71
-0.4115116 -0.15443364 0.88461143 0.0044814139 159 74
-0.40604702 -0.15403424 0.88439149 0.0041007916 171 80
-0.40153793 -0.15399253 0.88627273 0.0036277571 191 89
-0.3961786 -0.15362024 0.88628572 0.0037812511 182 85
-0.3901673 -0.15298393 0.88478917 0.0040294244 186 87
-0.38507029 -0.15269578 0.88530964 0.0035897237 191 89
-0.37943801 -0.15218632 0.88454133 0.0040792217 201 94
-0.37410474 -0.15178639 0.8843931 0.0034642951 200 94
-0.36871368 -0.15135333 0.88402766 0.0033675092 207 97
-0.36373022 -0.15107933 0.88456172 0.0040576896 211 99
-0.35850701 -0.15069793 0.88443178 0.0039830897 209 98
-0.35323241 -0.15028544 0.88407665 0.0035370146 202 95
-0.34816679 -0.14995277 0.88414437 0.0033277052 216 101
-0.34224972 -0.14924055 0.88191986 0.0031413003 226 106
-0.33793831 -0.14921935 0.88372552 0.0033533259 220 103
-0.33263958 -0.14875607 0.88286048 0.0032475784 219 103
-0.32770199 -0.1484444 0.88283712 0.0034107722 217 102
-0.32324761 -0.1483463 0.88402867 0.003980868 224 105
-0.31876287 -0.14823149 0.88506693 0.0032141337 220 103
-0.31411546 -0.14803693 0.88557303 0.003306119 215 101
-0.30785707 -0.14706746 0.88137817 0.0032784636 217 102
-0.30305105 -0.1467746 0.88117176 0.0032026218 219 103
-0.29823709 -0.14646959 0.88083357 0.0039489311 214 100
-0.29308668 -0.14598836 0.8793754 0.0033439039 211 99
-0.2885986 -0.14582787 0.87979102 0.0039645536 222 104
-0.28401852 -0.14561553 0.87983894 0.0032547161 218 102
-0.27923349 -0.14529024 0.87914908 0.0033611418 207 97
-0.27409288 -0.14476731 0.87720621 0.0032813745 214 100
-0.26689628 -0.14312583 0.86841893 0.0030273239 242 113
nan nan nan 0 334 157
-0.22169137 -0.12264185 0.74599731 0.0016154033 569 255
-0.21809694 -0.12259078 0.74656016 0.0015040368 637 255
-0.21501514 -0.12283085 0.74885911 0.001666961 559 255
-0.21215619 -0.12320833 0.75196254 0.001635231 578 255
-0.20753379 -0.12255717 0.74875015 0.0016626152 556 255
-0.2063981 -0.123978 0.75816536 0.0018925183 570 255
-0.20359202 -0.12442759 0.76161718 0.0017800748 508 239
-0.20038986 -0.12464681 0.76362878 0.0018070567 496 233
-0.19938815 -0.12626742 0.77420217 0.0018673553 467 219
-0.19638391 -0.12665625 0.77720082 0.0019807983 456 214
-0.19228254 -0.12633879 0.77583432 0.0019425796 445 209
-0.18910539 -0.12662807 0.77816302 0.001962791 438 206
-0.18636985 -0.12723008 0.78238785 0.0019801299 432 203
-0.18339729 -0.12769106 0.78572077 0.0021505579 429 201
-0.18037385 -0.12813458 0.78892189 0.002040593 418 196
-0.1769845 -0.12833117 0.79057825 0.0020699615 409 192
-0.17382349 -0.12870511 0.79330289 0.0022587972 403 189
-0.16990289 -0.12852067 0.79256129 0.0020959377 394 185
-0.16657084 -0.12878311 0.79455161 0.0023017235 403 189
-0.16300409 -0.12887181 0.79544777 0.0020290359 408 191
-0.15974982 -0.12921742 0.79790819 0.0022625825 405 190
-0.15634692 -0.12945627 0.79968953 0.0023989766 402 189
-0.15272976 -0.12952504 0.80040008 0.0021123237 397 186
-0.14836046 -0.12894346 0.79707116 0.002076936 396 186
-0.14529665 -0.12949581 0.80073273 0.002450316 394 185
-0.14174618 -0.12963197 0.80180377 0.0021243056 393 184
-0.13858406 -0.13014008 0.80515957 0.0021246909 393 184
-0.13501756 -0.13028604 0.80625898 0.0022459205 397 186
-0.13147974 -0.13046874 0.80757087 0.0023224722 388 182
-0.1278947 -0.13061385 0.80863553 0.0021594903 376 176
-0.12425792 -0.13071325 0.80940348 0.0021647702 380 178
-0.12110534 -0.13134395 0.81344861 0.0021507719 380 178
-0.11737049 -0.1313633 0.81369567 0.0021983811 372 175
-0.11372736 -0.13148996 0.81459534 0.0021710859 379 178
-0.1099114 -0.13141865 0.8142575 0.0022908968 384 180
-0.10636581 -0.131677 0.81595194 0.0021976077 370 174
-0.10276974 -0.13188949 0.81735247 0.0025399223 386 181
-0.099099562 -0.13201943 0.8182326 0.0022587616 384 180
-0.095326677 -0.13201742 0.81828642 0.0024726305 391 183
-0.091444664 -0.13185789 0.81735581 0.0021179318 393 184
-0.087856501 -0.13212655 0.81907237 0.0021342365 392 184
-0.084446564 -0.13269944 0.82266814 0.0023985442 380 178
-0.08074896 -0.13285287 0.82365763 0.0021495181 383 180
-0.077089474 -0.13308723 0.82514334 0.0024390619 381 179
-0.073276863 -0.13306783 0.82505083 0.0023165126 384 180
-0.069491364 -0.13309826 0.82526249 0.0021674826 383 180
-0.065863542 -0.1334517 0.82747298 0.0022117086 367 172
-0.062266 -0.1339137 0.8303529 0.0021728356 383 180
-0.058458921 -0.13395599 0.83062744 0.0021625322 382 179
-0.054609224 -0.13389973 0.83028805 0.0021515738 383 180
-0.050843839 -0.13405731 0.83127207 0.0023121065 380 178
-0.047022335 -0.13408056 0.8314209 0.0022890514 375 176
-0.043207776 -0.13412945 0.83172739 0.0021629028 379 178
-0.039429236 -0.13431057 0.83285218 0.0026795801 379 178
-0.03562602 -0.13443764 0.83364087 0.002153981 384 180
-0.031893488 -0.13489434 0.83647275 0.0021750138 383 180
-0.028086776 -0.13511971 0.83786958 0.0021826881 382 179
-0.024237972 -0.13518216 0.83825564 0.0023710215 382 179
-0.020385139 -0.13524154 0.83862275 0.0022023325 376 176
-0.016551597 -0.13548662 0.84014106 0.0023578666 373 175
-0.012699488 -0.1356829 0.84135699 0.0023764612 384 180
-0.0088093551 -0.1354669 0.84001678 0.002248087 386 181
-0.0049695582 -0.13629301 0.84513879 0.0021462876 391 183
-0.001076034 -0.13629216 0.84513319 0.0021507964 385 181
0.0028096833 -0.13591598 0.84280062 0.0022390294 391 183
0.0067196735 -0.13646926 0.84623188 0.0021433334 389 183
0.010631856 -0.13664444 0.84731901 0.0021886125 379 178
0.014532794 -0.13661982 0.84716731 0.0023458055 380 178
0.018436495 -0.13662611 0.84720749 0.002240746 377 177
0.022326807 -0.13654828 0.84672624 0.0021598872 381 179
0.026241243 -0.13661924 0.84716743 0.0021313517 391 183
0.030226888 -0.13699456 0.84949571 0.0021494138 382 179
0.034294948 -0.1376145 0.85334057 0.0024093664 385 181
0.038228974 -0.13762443 0.85340178 0.0021648821 382 179
0.042181365 -0.13769247 0.85382247 0.002158317 383 180
0.046087753 -0.13761151 0.8533181 0.0021375427 391 183
0.050031133 -0.13764508 0.85352218 0.0023173995 393 184
0.05389275 -0.13746518 0.85240072 0.0020909891 396 186
0.057767186 -0.1373402 0.85161769 0.0020856431 402 189
0.061637674 -0.13722233 0.85087603 0.0021376626 389 183
0.065635368 -0.13738482 0.85186976 0.0022487375 375 176
0.06948173 -0.1372301 0.85089296 0.0023086504 343 161
0.073225208 -0.13689953 0.84882188 0.0024026542 327 153
0.076775476 -0.13625959 0.84482843 0.002958463 311 146
0.08047241 -0.13592914 0.842749 0.0028713658 294 138
nan nan nan 0 279 131
nan nan nan 0 296 139
nan nan nan 0 273 128
nan nan nan 0 135 63
0.10395618 -0.14146514 0.87681574 0.0044250465 170 79
0.10832516 -0.14189442 0.87940115 0.0042952802 179 84
0.11264507 -0.14223075 0.88140064 0.004454188 172 80
0.1167474 -0.14227849 0.88160145 0.0043622712 173 81
0.12075105 -0.14220683 0.8810513 0.0041180155 166 78
0.12501739 -0.14243914 0.88237256 0.0044196034 163 76
0.12923223 -0.14259994 0.8832379 0.0044537564 161 75
0.13363081 -0.14294749 0.88524628 0.0040979702 159 74
0.13757345 -0.14280117 0.88418156 0.0040322961 169 79
0.14130566 -0.14245109 0.88184136 0.0047246111 168 79
0.14513545 -0.14221628 0.88019913 0.0053821593 134 63
0.14921355 -0.14223094 0.88008487 0.0061280006 122 57
0.15350278 -0.14244074 0.88116014 0.0041385046 159 74
0.15801544 -0.14284167 0.88339835 0.0040782406 165 77
0.16221485 -0.14294636 0.88378412 0.0048231669 174 81
0.16617215 -0.14283781 0.88283128 0.0040648575 164 77
0.16974992 -0.14241605 0.87992227 0.0042728689 161 75
0.17357019 -0.1422127 0.87834215 0.0041399212 159 74
0.17797117 -0.14248361 0.87966752 0.0047463789 159 74
0.18231425 -0.14269704 0.88061285 0.0043775858 158 74
0.18631051 -0.14263566 0.8798365 0.0055674263 153 71
0.19057414 -0.14277717 0.88028538 0.0043659508 147 69
0.19457366 -0.14271905 0.87947571 0.0045286715 142 66
0.19935234 -0.14322312 0.88210052 0.0045175562 149 70
0.20375334 -0.14344101 0.88293076 0.0047243885 147 69
0.20751266 -0.14320749 0.88095176 0.0044235559 149 70
0.21166815 -0.14325111 0.88064682 0.0045898049 143 67
0.21617746 -0.14352797 0.88174158 0.0053156889 138 64
0.22054076 -0.14369941 0.88215262 0.0048774923 144 67
0.22518241 -0.14404263 0.88358074 0.0052929618 144 67
0.22879647 -0.14372797 0.88093704 0.0048194267 132 62
0.23234251 -0.14338249 0.87807006 0.0058127018 141 66
0.23647104 -0.14340219 0.87740278 0.0043640658 153 71
0.2408326 -0.14356013 0.87754071 0.0045666019 146 68
0.24544239 -0.14385824 0.87849212 0.0045054378 147 69
0.25034571 -0.14431578 0.8803702 0.0045949323 140 65
0.25506485 -0.14465404 0.88147259 0.004695965 136 63
0.25941595 -0.14477612 0.88120997 0.004600212 142 66
0.26363778 -0.14482334 0.88044506 0.00459872 136 63
0.26813635 -0.14501879 0.88053292 0.0045695524 139 65
0.2727778 -0.14528437 0.88099557 0.004364863 148 69
0.27766132 -0.145669 0.88212633 0.0042164675 157 73
0.28254986 -0.14604487 0.88314813 0.0043690451 148 69
0.28704366 -0.14620872 0.88283259 0.0044055348 145 68
0.2912297 -0.14621338 0.88150334 0.0043503889 150 70
0.29591164 -0.14646333 0.88159853 0.0040940531 165 77
0.30064052 -0.14672926 0.8817327 0.005015153 159 74
0.3052091 -0.14691068 0.88130188 0.0042113974 156 73
0.30981877 -0.14710669 0.88090187 0.0043060998 167 78
0.31597206 -0.14802061 0.88473606 0.0039923689 163 76
0.32017437 -0.14800847 0.88297248 0.0040141498 165 77
0.32508618 -0.14832035 0.8830865 0.0039722342 167 78
0.32971144 -0.14849518 0.88232809 0.004371888 160 75
0.33456114 -0.14876537 0.88208121 0.003907531 169 79
0.33910909 -0.14889626 0.88095587 0.0038914131 175 82
0.34403077 -0.14918599 0.88071978 0.0038577558 176 82
0.34884295 -0.14942174 0.88011569 0.0042344509 176 82
0.35493776 -0.15019451 0.88262254 0.0039562737 167 78
0.36048403 -0.15071949 0.88362104 0.0040102089 169 79
0.36497301 -0.15079524 0.88194853 0.0050136363 164 77
0.36909708 -0.15072022 0.87937069 0.0050915461 158 74
0.37463397 -0.15121718 0.88010788 0.0040861024 165 77
0.38096142 -0.15201828 0.88258815 0.0049574082 156 73
0.38553208 -0.15210819 0.88092732 0.0042913388 156 73
0.39099285 -0.1525434 0.88126892 0.0043010353 150 70
0.39636967 -0.15293659 0.88137752 0.0050845011 144 67
0.40122053 -0.15312049 0.88030493 0.0044814046 144 67
0.40639529 -0.15342273 0.87995172 0.0044947127 141 66
0.41249317 -0.15406327 0.88158572 0.0052278205 142 66
0.41735336 -0.1542329 0.88058716 0.004542415 139 65
0.42259768 -0.15453944 0.8804515 0.004569137 141 66
0.42827767 -0.15499736 0.88127035 0.0050447141 125 58
0.43335092 -0.15522854 0.88090736 0.0060656294 120 56
0.44007677 -0.15604101 0.88396049 0.005193416 118 55
0.44333297 -0.15561926 0.88015872 0.0068104547 118 55
0.45063919 -0.15661344 0.88451195 0.0068880189 108 50
0.45672876 -0.15716936 0.88654029 0.0069634127 107 50
0.46110293 -0.15712994 0.88537723 0.0060368618 101 47
0.46402851 -0.1566024 0.88164318 0.0065351063 107 50
0.47138578 -0.15756625 0.88648504 0.0058485842 106 49
-0.52750367 -0.15166022 0.88720876 0.0094880657 60 28
-0.52220267 -0.15141636 0.884157 0.0088735269 65 30
-0.51981831 -0.15202126 0.8861925 0.0099565014 63 29
-0.51689744 -0.15247838 0.88749784 0.0086160107 72 33
-0.51243234 -0.15248403 0.8863194 0.0077505796 75 35
-0.50731683 -0.15229447 0.88416237 0.0088830628 81 38
-0.50346226 -0.15248348 0.88436371 0.0068406286 87 40
-0.49949685 -0.15264198 0.88455325 0.0069829933 89 41
-0.49438417 -0.15244961 0.8828817 0.006504402 93 43
-0.4891178 -0.15220587 0.88109052 0.0066053155 101 47
-0.4854593 -0.1524626 0.88237768 0.0062497254 94 44
-0.4810814 -0.1524961 0.88255638 0.0059066918 104 48
-0.47725853 -0.1527078 0.88395274 0.0059783044 100 47
-0.47217783 -0.15251723 0.88320702 0.0057962616 102 47
-0.46680257 -0.15222695 0.8820681 0.0073255706 114 53
-0.46265075 -0.1523339 0.8834132 0.0053350101 116 54
-0.45778784 -0.15220648 0.88357776 0.0063402825 110 51
-0.45377859 -0.1523632 0.88556463 0.0068111848 85 39
-0.44957781 -0.15245807 0.88735914 0.005785529 126 59
-0.44496265 -0.15241297 0.88849521 0.004499923 142 66
-0.43841755 -0.15169911 0.8858701 0.0044609467 147 69
-0.43257138 -0.15121491 0.88470638 0.004481446 146 68
-0.4279623 -0.15115762 0.88615292 0.0043505142 149 70
-0.4221364 -0.15066481 0.88514537 0.0043081674 156 73
-0.41590348 -0.15001473 0.88328999 0.0043348833 150 70
-0.40952778 -0.14929868 0.88110471 0.0041035498 159 74
-0.40481186 -0.14917874 0.88248819 0.0039451797 170 79
-0.39994931 -0.14900155 0.88357747 0.0038201374 176 82
-0.39457715 -0.1486285 0.8835333 0.0037018852 186 87
-0.38975024 -0.14845476 0.88468993 0.0038219693 188 88
-0.38330203 -0.14765252 0.88209903 0.0034548086 204 95
-0.37845707 -0.14745659 0.88311785 0.0034834293 197 92
-0.372453 -0.14679924 0.88135368 0.003316371 208 97
-0.36718675 -0.14642072 0.88123327 0.0032909256 212 99
-0.36221024 -0.1461501 0.88173056 0.0033287755 211 99
-0.35736194 -0.14592534 0.88246876 0.0032903077 213 100
-0.3525047 -0.14569144 0.88311142 0.0034216044 204 95
-0.3465535 -0.14499407 0.88089353 0.0032903154 211 99
-0.34140745 -0.14462037 0.88058531 0.0036428405 219 103
-0.33655867 -0.14436479 0.88094276 0.0032038505 222 104
-0.33206201 -0.14425562 0.88214135 0.0032857067 214 100
-0.32713398 -0.14395382 0.88210714 0.0033083782 222 104
-0.32165626 -0.14339903 0.88046139 0.0032663892 218 102
-0.31785691 -0.14358769 0.88332385 0.0040054335 217 102
-0.31234318 -0.14299656 0.88133174 0.003162792 223 104
-0.30690801 -0.14242573 0.87939858 0.0031344092 227 106
-0.30218476 -0.14217409 0.87937403 0.0034277658 224 105
-0.29732803 -0.14185168 0.87885296 0.0032923338 213 100
-0.29251391 -0.14154074 0.87834382 0.0032901224 219 103
-0.28785157 -0.1412953 0.87818372 0.0032414931 223 104
-0.28323966 -0.14106779 0.87807935 0.003466371 223 104
-0.27823555 -0.14063528 0.87664199 0.0032440454 217 102
-0.27153805 -0.13932088 0.86964267 0.0031019431 224 105
nan nan nan 0 277 130
-0.23069479 -0.122048 0.76379055 0.0020720148 397 186
-0.22554851 -0.12121118 0.75946844 0.0020136568 508 239
-0.22188902 -0.12115931 0.76001835 0.0017775209 506 238
-0.21950758 -0.12181499 0.76497203 0.0018414134 477 224
-0.21700683 -0.12242512 0.76961005 0.0018514474 472 222
-0.21434684 -0.1229645 0.77377373 0.001919594 455 214
-0.21211511 -0.12377225 0.77959806 0.001926334 452 212
-0.20898314 -0.12407379 0.78220469 0.0020812396 432 203
-0.20583273 -0.12437486 0.78477716 0.0021345301 425 199
-0.20265678 -0.12467112 0.78728861 0.002032171 419 197
-0.19905342 -0.12471053 0.78814703 0.0020476307 419 197
-0.19556318 -0.1248236 0.7894398 0.0020706404 405 190
-0.19246186 -0.12519401 0.79233152 0.0020655838 404 190
-0.18795329 -0.12464559 0.78937739 0.002095094 393 184
-0.18544996 -0.12543163 0.79484648 0.0020941389 396 186
-0.18086763 -0.12481489 0.79139918 0.0020760652 405 190
-0.17789127 -0.1253038 0.79493505 0.0021031173 393 184
-0.17507409 -0.12592791 0.79930615 0.0021187854 394 185
-0.17151262 -0.12603204 0.80035418 0.0021397816 383 180
-0.16796899 -0.12615423 0.80149299 0.0024971403 390 183
-0.16457352 -0.12639567 0.8033675 0.0024408998 398 187
-0.16042703 -0.12605816 0.80153948 0.0020786794 405 190
-0.15686087 -0.12617148 0.80255616 0.002429517 403 189
-0.15361983 -0.12655813 0.80529183 0.0021080419 390 183
-0.1501909 -0.12680534 0.80712205 0.0021696535 396 186
-0.14645797 -0.12680194 0.8073386 0.002112278 397 186
-0.14261588 -0.12670141 0.80691874 0.0020966467 394 185
-0.1394939 -0.12725236 0.81063133 0.0023556913 390 183
-0.13551632 -0.12703167 0.80941284 0.0021222534 394 185
-0.1317898 -0.12704049 0.80964071 0.0023255928 398 187
-0.1282928 -0.12727751 0.8113085 0.0021214639 396 186
-0.12499958 -0.12773705 0.81438142 0.0021016654 400 188
-0.12138961 -0.12789133 0.81549603 0.002123151 386 181
-0.11803795 -0.12833634 0.81845224 0.0025090307 373 175
-0.11401764 -0.12805972 0.81679475 0.0021888749 375 176
-0.11036226 -0.12818807 0.81770939 0.0024137334 369 173
-0.1069345 -0.12859924 0.820418 0.0021878576 371 174
-0.10318737 -0.12864244 0.82076961 0.0021705041 370 174
-0.099489562 -0.12875272 0.82154036 0.0021903955 381 179
-0.09599591 -0.1291464 0.8241114 0.0023948662 381 179
-0.09223862 -0.12920323 0.82452536 0.0025356172 380 178
-0.088359617 -0.12908709 0.82382846 0.0023084509 381 179
-0.084959835 -0.12969209 0.8277275 0.0021435318 389 183
-0.081234612 -0.12983382 0.82866395 0.0022927842 386 181
-0.077426888 -0.12985116 0.82880116 0.0021236066 389 183
-0.073724389 -0.13005595 0.8301301 0.0021858793 383 180
-0.069961935 -0.13017157 0.83088541 0.0021288614 387 182
-0.066252343 -0.13040465 0.83238673 0.0021444282 384 180
-0.062464144 -0.13050212 0.83301908 0.0022784076 379 178
-0.058696635 -0.1306584 0.83402389 0.0021809603 377 177
-0.054858115 -0.13066743 0.83408618 0.002134657 384 180
-0.051026106 -0.13069452 0.83426166 0.0022669274 378 177
-0.047191698 -0.13071936 0.83442134 0.0021677597 382 179
-0.043354169 -0.13073921 0.83454722 0.0022421929 383 180
-0.039623518 -0.13111657 0.83695436 0.0021418324 385 181
-0.035850551 -0.13142021 0.83889019 0.0021321739 381 179
-0.032025654 -0.13158381 0.83993155 0.0021717141 381 179
-0.028241592 -0.13198325 0.84247798 0.0021686838 384 180
-0.02437751 -0.1320764 0.84306943 0.0021652472 389 183
-0.020473313 -0.13194634 0.8422361 0.0024351587 379 178
-0.016639013 -0.13231125 0.84456241 0.0025166669 381 179
-0.012782243 -0.13266572 0.84682262 0.0021796387 383 180
-0.0089056231 -0.13303511 0.84917861 0.0021475856 384 180
-0.0049899518 -0.13294283 0.84858847 0.0022388713 396 186
-0.0010797507 -0.13285603 0.84803361 0.0024750475 385 181
0.0028278087 -0.13288501 0.84821898 0.0024952248 397 186
0.0067475457 -0.13312061 0.8497237 0.0021157328 397 186
0.010671035 -0.13323006 0.85042381 0.0021649369 388 182
0.014594039 -0.13327628 0.85072106 0.0023250608 378 177
0.018508198 -0.13323925 0.85048723 0.0024890266 385 181
0.022414938 -0.13317108 0.85005528 0.0025218094 379 178
0.026534019 -0.13419713 0.85660803 0.0021571256 381 179
0.030450001 -0.13406332 0.855757 0.0021260984 388 182
0.034422554 -0.13418067 0.85650927 0.0021674959 385 181
0.038384542 -0.13423692 0.85687131 0.0024304679 399 187
0.042445101 -0.13459527 0.8591609 0.0023626992 394 185
0.046268091 -0.13420342 0.85666084 0.0021205228 396 186
0.050161093 -0.13406028 0.85574698 0.0020951713 399 187
0.054113775 -0.13408585 0.85590863 0.0021124508 396 186
0.057992734 -0.1339377 0.85495937 0.0023025884 402 189
0.061947472 -0.13397227 0.85517406 0.0020852536 399 187
0.065852843 -0.13390233 0.85471892 0.0021471952 387 182
0.069970317 -0.13424723 0.85690856 0.0022508886 359 168
0.073872656 -0.13416454 0.85636514 0.0025864912 328 154
0.077189349 -0.13308057 0.84942645 0.0025030044 311 146
0.080350339 -0.13184573 0.84152043 0.0029469354 288 135
0.0831303 -0.1301281 0.83052856 0.0026877229 283 133
nan nan nan 0 292 137
nan nan nan 0 310 145
nan nan nan 0 141 66
0.10363317 -0.13699688 0.87418014 0.004343315 150 70
0.10793629 -0.13734604 0.87634146 0.004177833 162 76
0.11232693 -0.1377774 0.87901765 0.0040861298 160 75
0.11633758 -0.13772883 0.87862176 0.004084982 162 76
0.1203962 -0.13773842 0.87858629 0.0043093436 153 71
0.12454868 -0.1378513 0.87919801 0.0052758749 147 69
0.12890486 -0.13817535 0.88114405 0.0043295673 152 71
0.13347012 -0.13869689 0.8843357 0.0044630631 148 69
0.13738492 -0.13853163 0.88313407 0.0044062235 148 69
0.14109674 -0.1381771 0.88071167 0.0046472512 143 67
0.14480355 -0.13783763 0.87837052 0.0048107463 134 63
0.14918441 -0.1381408 0.88010842 0.0050488529 123 57
0.15345673 -0.1383301 0.88110274 0.0050934586 133 62
0.15780593 -0.1385771 0.88244575 0.0048983041 133 62
0.16192178 -0.1386119 0.8824178 0.0047451509 142 66
0.1657431 -0.13839905 0.88079363 0.0050580613 132 62
0.16906159 -0.13778661 0.876607 0.0049639996 129 60
0.17291693 -0.13763015 0.87530124 0.0059559438 133 62
0.17727907 -0.13787496 0.87652445 0.0056703286 136 63
0.1818867 -0.13829552 0.87883902 0.0050397422 131 61
0.18575899 -0.1381508 0.87753582 0.0060415841 122 57
0.1893982 -0.13784261 0.87516993 0.0054999986 126 59
0.1941018 -0.13830577 0.87767363 0.0049956767 128 60
0.19846608 -0.13851309 0.87852371 0.0054239798 127 59
0.20284297 -0.13872072 0.879345 0.0053367005 128 60
0.20700328 -0.13877496 0.87916261 0.0048958496 132 62
0.21084031 -0.13861457 0.87758958 0.0047722273 132 62
0.21530506 -0.13886511 0.8785854 0.00526259 141 66
0.22046214 -0.13954455 0.88225681 0.0054429122 145 68
0.22485596 -0.13972485 0.88273376 0.0053853444 148 69
0.2275683 -0.13887261 0.87665457 0.0043808222 147 69
0.23173426 -0.13892183 0.87623292 0.0042277491 152 71
0.23592086 -0.13898146 0.87583834 0.0046960791 162 76
0.24036026 -0.13918549 0.87631273 0.0042022364 158 74
0.24494579 -0.13946587 0.87722439 0.0049639987 157 73
0.24958262 -0.13976577 0.87821335 0.0044701803 151 71
0.25417167 -0.14002962 0.8789292 0.0040645227 165 77
0.25894433 -0.14038458 0.8801685 0.0041905805 156 73
0.26308766 -0.14039257 0.8791846 0.0041254396 162 76
0.26772952 -0.14066228 0.87979096 0.0044204369 166 78
0.27200571 -0.14073452 0.87911236 0.0038255968 171 80
0.27681017 -0.14107387 0.8800503 0.0048493356 170 79
0.28153887 -0.14136516 0.88063359 0.0045407172 176 82
0.28572831 -0.14138111 0.87944871 0.0038232824 176 82
0.28982419 -0.14135098 0.87792647 0.0037869662 177 83
0.2948339 -0.14176109 0.87908298 0.0040077665 177 83
0.29930109 -0.14190257 0.8785156 0.0044903229 190 89
0.30419821 -0.14224117 0.87911105 0.003725331 180 84
0.30890396 -0.14248231 0.87904519 0.0036627115 186 87
0.31340507 -0.14262387 0.87830764 0.0035257537 196 92
0.31958753 -0.14351676 0.88213205 0.0042985347 189 88
0.32349434 -0.14337775 0.87955272 0.0038103356 184 86
0.32888108 -0.1438898 0.88091141 0.003662379 188 88
0.33340994 -0.14401828 0.87986332 0.0037282312 190 89
0.33746153 -0.14393996 0.87750268 0.003470538 198 93
0.34294009 -0.14446472 0.87876624 0.0034483913 199 93
0.34864521 -0.1450709 0.88046604 0.0034946776 199 93
0.35414314 -0.14557722 0.88150418 0.0035538289 191 89
0.35943064 -0.14598602 0.88190246 0.0035456575 196 92
0.36288488 -0.14564934 0.87776494 0.0037080124 184 86
0.36831459 -0.14610414 0.87836987 0.0039795213 191 89
0.37284175 -0.14619461 0.8767572 0.0047077951 177 83
0.38016784 -0.14736794 0.88160861 0.0039323168 171 80
0.38573736 -0.14784157 0.88224685 0.0048064026 169 79
0.39064571 -0.14805411 0.88132352 0.0039850967 170 79
0.39587492 -0.1483822 0.88109756 0.0051444294 165 77
0.39968413 -0.14817668 0.87773001 0.0041258312 158 74
0.40493158 -0.14850307 0.87755305 0.004391599 157 73
0.41109931 -0.14915639 0.87934899 0.0048791603 148 69
0.41713876 -0.14974986 0.88084328 0.0042655054 158 74
0.42131004 -0.14966726 0.87843698 0.0043705497 146 68
0.42681587 -0.1500556 0.87888753 0.0045877276 147 69
0.43224159 -0.15040809 0.87923014 0.005095948 137 64
0.43760872 -0.15073323 0.87953007 0.0047059623 132 62
0.44318298 -0.15112253 0.88033372 0.0052939169 125 58
0.4481349 -0.15129395 0.88001209 0.0055996594 110 51
0.45528629 -0.15219727 0.88409823 0.0069425832 109 51
0.45864832 -0.15182863 0.88095951 0.0055872682 114 53
0.46165764 -0.15135144 0.87737125 0.0053497306 116 54
0.46468973 -0.15089075 0.87406266 0.0054469705 111 52
-0.51877487 -0.14476453 0.87206078 0.012856341 64 30
-0.52044511 -0.14646895 0.88074225 0.0089393146 64 30
-0.5166328 -0.14664651 0.8803584 0.008867871 65 30
-0.5126878 -0.14678915 0.8799051 0.0082110045 73 34
-0.51025259 -0.14737034 0.88222426 0.0079265609 77 36
-0.50623643 -0.14750111 0.88199806 0.0071577961 80 37
-0.50180686 -0.1475127 0.88122112 0.0072345268 81 38
-0.49922815 -0.14807351 0.88389111 0.0067367414 95 44
-0.49560985 -0.14833331 0.88493556 0.0064765494 93 43
-0.48915008 -0.14773966 0.88106847 0.0071841748 94 44
-0.48393565 -0.14751464 0.87958395 0.0077019166 97 45
-0.48112845 -0.14802606 0.88267618 0.0060474752 101 47
-0.47587144 -0.14778629 0.88147616 0.0067749661 110 51
-0.4700931 -0.14737852 0.87945998 0.0055231475 115 54
-0.46488786 -0.1471443 0.87866277 0.0054069273 115 54
-0.46042842 -0.14714393 0.87944287 0.0050873575 124 58
-0.45594677 -0.14713638 0.88035738 0.0058050174 103 48
-0.45182791 -0.1472469 0.88214999 0.0062421118 97 45
-0.44769263 -0.1473542 0.88408774 0.004989211 134 63
-0.44125935 -0.14669971 0.88160241 0.0045356341 140 65
-0.43729699 -0.1468617 0.88416022 0.0047152308 143 67
-0.43134013 -0.14635034 0.88278872 0.0043935985 150 70
-0.42584214 -0.14598565 0.88240665 0.004318777 149 70
-0.42054391 -0.1456825 0.88248891 0.0039860634 164 77
-0.41423589 -0.1450194 0.88046402 0.0047237431 166 78
-0.40896165 -0.14470789 0.88063228 0.0039822636 165 77
-0.4040229 -0.1445096 0.88154036 0.0038056297 178 83
-0.39899656 -0.14427531 0.88226676 0.0036110366 190 89
-0.39397341 -0.14403701 0.88299352 0.0037673675 190 89
-0.38851166 -0.14363119 0.88270295 0.0035690009 195 91
-0.38367948 -0.14345159 0.88380265 0.0038738414 199 93
-0.37721297 -0.14264981 0.88105303 0.0036025145 200 94
-0.37127593 -0.142032 0.87940776 0.0033677765 209 98
-0.36592776 -0.14162759 0.87905049 0.0035004958 207 97
-0.36089242 -0.14133613 0.87935907 0.0038715594 215 101
-0.3563523 -0.14123391 0.88080853 0.0032872786 213 100
-0.35161516 -0.14105017 0.88170964 0.0034568773 203 95
-0.34643251 -0.14068104 0.88140392 0.0038244911 203 95
-0.34076199 -0.1401021 0.87972677 0.0033065442 216 101
-0.33576185 -0.13978764 0.87965178 0.0033952678 210 98
-0.33107212 -0.13959606 0.88029462 0.0038187052 213 100
-0.32641503 -0.13941343 0.88093859 0.0038458486 211 99
-0.32124287 -0.13900317 0.88008493 0.0038490254 210 98
-0.31616801 -0.13862465 0.87936991 0.0040668268 209 98
-0.31147665 -0.13840637 0.87961125 0.0033139598 212 99
-0.3071003 -0.13832399 0.88065916 0.0031818466 223 104
-0.30126587 -0.13757351 0.8773911 0.00319712 224 105
-0.29694551 -0.13750309 0.87839794 0.0036945287 215 101
-0.29198027 -0.13712776 0.87739974 0.0032331694 218 102
-0.28726754 -0.13686194 0.87704366 0.0032329834 223 104
-0.28242528 -0.13652571 0.8761791 0.003201891 219 103
-0.2763167 -0.1355582 0.8712008 0.0032963587 212 99
nan nan nan 0 260 122
nan nan nan 0 343 161
-0.22985449 -0.1180274 0.76149398 0.0020399392 404 190
-0.23146233 -0.12073132 0.77986401 0.0020306981 411 193
-0.22768945 -0.12067044 0.78035444 0.0020275204 413 194
-0.22427045 -0.12079815 0.78202552 0.0019595555 435 204
-0.22066362 -0.12082725 0.7830205 0.0019911756 426 200
-0.21757098 -0.12114362 0.78584158 0.0021641331 421 198
-0.21342805 -0.12087604 0.78483808 0.0020241619 414 194
-0.20934229 -0.12063205 0.78394938 0.0023803562 415 195
-0.2067361 -0.12124714 0.78861058 0.0020212147 413 194
-0.2044829 -0.12209522 0.79476136 0.0023508319 401 188
-0.20055547 -0.1219565 0.7944594 0.002054275 409 192
-0.19705316 -0.12207592 0.79580694 0.0020955214 400 188
-0.19405188 -0.12251623 0.79921812 0.0024139471 382 179
-0.19002271 -0.12231211 0.79839641 0.0020877288 400 188
-0.1863374 -0.12232559 0.79896539 0.0020939317 391 183
-0.1823975 -0.12216911 0.79839581 0.0023341391 400 188
-0.17955299 -0.12275503 0.80265254 0.0023155294 405 190
-0.17621143 -0.1230187 0.80477911 0.002161595 386 181
-0.17256352 -0.12307531 0.80552679 0.0021890476 385 181
-0.16894907 -0.1231588 0.80642682 0.0022032596 391 183
-0.16564164 -0.12347491 0.80882776 0.0020772428 400 188
-0.16144328 -0.12312617 0.80685133 0.00238841 400 188
-0.15773197 -0.12314117 0.80723625 0.0020858648 405 190
-0.15405303 -0.12318277 0.8077752 0.0020836149 402 189
-0.1505387 -0.12336133 0.80919319 0.0020943035 402 189
-0.1471258 -0.12363422 0.81121194 0.0021693904 398 187
-0.14357691 -0.12380411 0.81253797 0.0020638264 409 192
-0.14012526 -0.1240692 0.8144725 0.0020768915 407 191
-0.13653378 -0.12422171 0.81565225 0.0021271743 391 183
-0.13319217 -0.12461663 0.81840897 0.0023343288 402 189
-0.12926555 -0.12447131 0.81760335 0.0020862315 396 186
-0.1260035 -0.12497636 0.82105666 0.0021295524 386 181
-0.12236146 -0.12512417 0.82215023 0.0021459884 385 181
-0.11854585 -0.12509826 0.82209027 0.0024755544 376 176
-0.11506342 -0.12543386 0.82439476 0.0023104739 379 178
-0.11128017 -0.12545322 0.82461011 0.0025283198 372 175
-0.10739801 -0.12535852 0.82406545 0.0021772631 394 185
-0.10386287 -0.12567677 0.82622623 0.0021769663 379 178
-0.10034408 -0.12603979 0.82867265 0.0021508567 384 180
-0.096522845 -0.1260366 0.82870358 0.0021507565 386 181
-0.092867121 -0.12625816 0.83020496 0.0021431183 385 181
-0.089198954 -0.12648115 0.83170855 0.0022743735 385 181
-0.085450955 -0.12660584 0.83255988 0.0024441583 392 184
-0.081547141 -0.12650058 0.83189315 0.0022241834 390 183
-0.077817895 -0.12666905 0.83302146 0.0021849889 393 184
-0.074126571 -0.12691997 0.83468753 0.0023995063 391 183
-0.070342921 -0.12703159 0.83543348 0.0021466794 390 183
-0.066511132 -0.12706417 0.83565575 0.0021820003 408 191
-0.062686779 -0.12711583 0.83600068 0.0021204702 391 183
-0.058898591 -0.12725241 0.83690125 0.0022234039 395 185
-0.055071697 -0.12731862 0.8373369 0.0021808424 391 183
-0.051235676 -0.12737215 0.83768719 0.0022334962 392 184
-0.047408674 -0.1274586 0.83825266 0.0021012858 396 186
-0.043639023 -0.12772825 0.84002197 0.0023272531 388 182
-0.039770104 -0.12773158 0.84003866 0.0024343436 392 184
-0.035909761 -0.12776616 0.84026045 0.0022870083 396 186
-0.032080173 -0.1279317 0.84134334 0.002466239 386 181
-0.028227158 -0.1280365 0.84202689 0.0023391075 383 180
-0.024398306 -0.12830174 0.84376591 0.0025427351 377 177
-0.020556103 -0.12858401 0.84561723 0.0022987474 377 177
-0.016690873 -0.12882058 0.84716856 0.0023330227 387 182
-0.012815094 -0.12909529 0.84897161 0.0021729316 381 179
-0.0089179957 -0.12930226 0.85032982 0.0023660082 389 183
-0.0050078765 -0.12949684 0.85160762 0.0021150941 391 183
-0.0010847282 -0.1295435 0.85191381 0.0023715242 401 188
0.0028465041 -0.12982993 0.85379761 0.002115895 394 185
0.006782358 -0.12987249 0.85407865 0.0020931934 399 187
0.010711792 -0.12980601 0.85364377 0.002089072 400 188
0.014658366 -0.12992716 0.85444379 0.0020935042 400 188
0.018632565 -0.13019001 0.85617638 0.0021088794 395 185
0.022641731 -0.13056268 0.85863185 0.0023899588 396 186
0.026620891 -0.13067719 0.85939032 0.0021056645 402 189
0.030547339 -0.13053679 0.85847265 0.0023254487 395 185
0.03448813 -0.13048287 0.85812384 0.0021216827 395 185
0.03855874 -0.13088065 0.86074567 0.0021041678 398 187
0.042570148 -0.13102208 0.86168122 0.002120551 401 188
0.04656741 -0.13109951 0.86219543 0.0021169982 394 185
0.050391614 -0.13071589 0.8596763 0.0020918751 397 186
0.054261904 -0.13049899 0.85825253 0.0020477243 412 193
0.058221117 -0.1305109 0.85833168 0.0021695101 410 192
0.062213466 -0.13059084 0.85885644 0.0021605459 393 184
0.066197306 -0.13064443 0.85920525 0.0021902516 376 176
0.070195042 -0.13071786 0.85968149 0.0022859066 355 167
0.074070409 -0.13056774 0.85868424 0.0023743212 333 156
0.077494636 -0.12967789 0.85281825 0.0024569237 315 148
0.080720797 -0.12855847 0.84543836 0.002570776 294 138
0.083281413 -0.12653098 0.83208227 0.0026858996 280 131
nan nan nan 0 290 136
0.083215266 -0.11577185 0.76127231 0.0023874997 321 151
0.086508185 -0.11548515 0.75935 0.0036226776 179 84
nan nan nan 0 124 58
0.10737523 -0.13261412 0.87186992 0.0045933202 141 66
0.11158436 -0.13284169 0.87329859 0.0052110096 149 70
0.11579955 -0.13306037 0.87465924 0.0044387053 151 71
0.11995249 -0.13319519 0.875458 0.0047853612 128 60
0.12409104 -0.13330582 0.87608629 0.0052183969 135 63
0.12816817 -0.13334553 0.8762368 0.0046366625 136 63
0.1324936 -0.13363326 0.8780039 0.005144916 129 60
0.13695522 -0.13403724 0.88052046 0.004792531 135 63
0.14104536 -0.13406484 0.88054979 0.0050755739 121 56
0.14482586 -0.13380481 0.87867492 0.0052076899 125 58
0.14903484 -0.13394402 0.87940586 0.0062909145 116 54
0.15334643 -0.13416567 0.88066053 0.0049573816 131 61
0.15762164 -0.13434483 0.88161755 0.004557014 137 64
0.16135558 -0.13406524 0.87954539 0.0052912454 140 65
0.16506509 -0.13377962 0.87741494 0.0046078251 147 69
0.16875586 -0.13349284 0.87525749 0.0042302953 158 74
0.17273085 -0.13343903 0.87460655 0.0041969889 156 73
0.17704655 -0.13364489 0.87563455 0.0045729536 152 71
0.18158546 -0.13400629 0.87765646 0.0041112807 158 74
0.18504757 -0.13357459 0.87445974 0.0050844047 158 74
0.18904136 -0.13353695 0.87381822 0.0041651474 157 73
0.19372237 -0.13397615 0.87626928 0.0039617065 166 78
0.19807142 -0.13417244 0.87710166 0.004725087 159 74
0.20166074 -0.13385658 0.87455726 0.00410116 162 76
0.20606489 -0.13408335 0.87552887 0.0042988537 167 78
0.21032183 -0.13420743 0.87579727 0.0039468044 170 79
0.21497785 -0.1345766 0.87763089 0.0037734783 181 85
0.21972233 -0.13498639 0.87969244 0.0047032796 175 82
0.22346877 -0.13477929 0.877698 0.0037934636 178 83
0.22838041 -0.13526973 0.88020903 0.0037367737 180 84
0.23115225 -0.13449785 0.87447041 0.0040870504 190 89
0.23543052 -0.13461402 0.87447149 0.0036375949 189 88
0.24013761 -0.13496728 0.87597072 0.0037388671 184 86
0.2446941 -0.13522546 0.87680864 0.0042148912 182 85
0.24905565 -0.1353692 0.87686056 0.0045364229 174 81
0.25343958 -0.13552025 0.87691522 0.0038667701 170 79
0.25749126 -0.13549164 0.87576246 0.0039774589 177 83
0.26215279 -0.1357798 0.87661022 0.004081924 191 89
0.26693571 -0.13612098 0.8777492 0.0045005903 193 90
0.27148116 -0.13633248 0.87800038 0.0036443712 192 90
0.27577657 -0.13641396 0.8773638 0.0037340659 181 85
0.28032589 -0.13661683 0.87745571 0.0040838858 181 85
0.28439015 -0.13658081 0.87596178 0.0038426262 178 83
0.28892833 -0.13677014 0.87586081 0.0047043706 181 85
0.2933625 -0.13690561 0.87535989 0.0036393192 192 90
0.29851389 -0.13736734 0.87688679 0.0036090233 195 91
0.30312246 -0.13757001 0.8767001 0.0042923116 195 91
0.30781519 -0.13780485 0.87666041 0.0034867274 199 93
0.31280577 -0.13816498 0.87735778 0.0043692649 194 91
0.3176578 -0.1384552 0.87755036 0.004312471 193 90
0.32272053 -0.1388285 0.8782087 0.003479819 202 95
0.32781357 -0.13920507 0.87882644 0.003387921 203 95
0.33269459 -0.13948317 0.87876284 0.0036029299 198 93
0.33708405 -0.13955081 0.8773191 0.0040188259 205 96
0.34181792 -0.13975757 0.87669897 0.0036415327 201 94
0.34796616 -0.14053048 0.87957162 0.0042045624 200 94
0.35386297 -0.14118439 0.88163692 0.0035370607 202 95
0.35756993 -0.14095944 0.87817013 0.0034766872 201 94
0.36238489 -0.14117138 0.87739152 0.0037962869 192 90
0.36633292 -0.14104463 0.87447876 0.0040496155 191 89
0.37176609 -0.14148602 0.87506193 0.0035874136 194 91
0.37923679 -0.14268394 0.88028479 0.0037616682 180 84
0.38461462 -0.14307629 0.88050717 0.0038425026 174 81
0.39035481 -0.14359321 0.88148534 0.0048240977 178 83
0.39431152 -0.14344989 0.87841827 0.0040753111 167 78
0.39945963 -0.14373842 0.87801844 0.0045731771 164 77
0.40456605 -0.14400588 0.87751859 0.0040440499 164 77
0.41075531 -0.14464894 0.87934488 0.0048129791 155 72
0.41459444 -0.14445958 0.87616795 0.0040964289 160 75
0.42135704 -0.14528215 0.87919813 0.0042903437 152 71
0.4258174 -0.14530213 0.87745267 0.0047090696 149 70
0.43153653 -0.14574686 0.87837309 0.004999388 150 70
0.43693244 -0.14607449 0.87869942 0.0053131757 137 64
0.4415808 -0.14614815 0.87762731 0.0046381359 134 63
0.44790688 -0.14677007 0.87998682 0.0056533543 123 57
0.45352444 -0.14714991 0.88104272 0.0057175793 107 50
0.45641077 -0.14664483 0.87696695 0.005542452 115 54
0.45963731 -0.14625771 0.87377626 0.0057730242 124 58
0.46535739 -0.14666387 0.87550354 0.0058056517 119 55
-0.52156305 -0.14113286 0.87630081 0.0088978605 65 30
-0.51731604 -0.14117725 0.8750332 0.0088121425 63 29
-0.51270992 -0.14112359 0.87329584 0.0099335955 67 31
-0.50990027 -0.14156772 0.87477976 0.0098495055 72 33
-0.50869244 -0.14246829 0.87922424 0.0080097532 74 34
-0.50539052 -0.14279307 0.88026476 0.0096462909 78 36
-0.49891523 -0.14221904 0.87593043 0.0081415195 83 39
-0.49812299 -0.14326926 0.88176864 0.0064871074 94 44
-0.49466997 -0.14356627 0.88314223 0.0065056216 94 44
-0.48883706 -0.1431717 0.8804428 0.0060452106 102 47
-0.48519507 -0.14341746 0.88186622 0.0057362122 106 49
-0.48021555 -0.14326876 0.88105124 0.0059433063 103 48
-0.47562385 -0.14323404 0.88112545 0.0067229178 113 53
-0.46996522 -0.14287432 0.8793869 0.0053829877 115 54
-0.46483153 -0.14266881 0.87878126 0.0059736893 126 59
-0.46023902 -0.14262702 0.87936479 0.0052074711 123 57
-0.45594341 -0.14267732 0.88069242 0.0059884749 103 48
-0.45123717 -0.14259887 0.88139468 0.005861389 101 47
-0.44511041 -0.14206544 0.87943965 0.0046035717 141 66
-0.44104135 -0.14218464 0.88167042 0.0044132802 154 72
-0.43530631 -0.14176375 0.88068676 0.0053625349 149 70
-0.43032065 -0.14158073 0.88129866 0.0055032289 154 72
-0.42453602 -0.14112833 0.88033646 0.004045045 167 78
-0.41905475 -0.1407683 0.88003641 0.0040160902 166 78
-0.41382486 -0.140486 0.8802951 0.0047341269 167 78
-0.40862569 -0.14020818 0.88064176 0.003944437 168 79
-0.4035559 -0.13996923 0.88127822 0.0037668878 177 83
-0.39858621 -0.13976011 0.88213611 0.0036508092 188 88
-0.39263439 -0.13919818 0.8807829 0.0036497251 191 89
-0.38778219 -0.13901788 0.88184851 0.0038513914 187 87
-0.38236004 -0.13862686 0.88157374 0.0037714604 197 92
-0.37632746 -0.13800304 0.87979817 0.0042302012 197 92
-0.37065753 -0.13749926 0.878757 0.0038777166 207 97
-0.36537594 -0.13712941 0.87853771 0.0037317139 205 96
-0.36008114 -0.13674578 0.87819123 0.0033597769 213 100
-0.35467294 -0.13630934 0.87746036 0.0032273247 221 103
-0.35033947 -0.13628037 0.87930787 0.0033199608 212 99
-0.34574363 -0.13614736 0.88044018 0.0032308022 223 104
-0.34009814 -0.13559256 0.87879002 0.003265026 214 100
-0.33463782 -0.13509853 0.87747133 0.0034478991 231 108
-0.32989049 -0.13488339 0.87790489 0.0033389633 214 100
-0.32514387 -0.13466297 0.87824714 0.0033148227 213 100
-0.32061553 -0.13452837 0.8790918 0.0032946954 219 103
-0.31535774 -0.13408005 0.87782627 0.0033592882 212 99
-0.31079358 -0.13391854 0.87837744 0.0035271002 219 103
-0.30589408 -0.13360614 0.87787956 0.0034907118 230 108
-0.30195445 -0.13371018 0.88006175 0.003273688 219 103
-0.29597992 -0.13290338 0.87618798 0.0033356384 215 101
-0.29128543 -0.13265656 0.87594199 0.0036393488 216 101
-0.28662476 -0.13241829 0.87569517 0.0036054505 216 101
-0.2813102 -0.13186647 0.87331575 0.0039227405 220 103
-0.27410707 -0.13039984 0.86480832 0.0038338078 221 103
nan nan nan 0 275 129
nan nan nan 0 452 212
nan nan nan 0 406 191
-0.23282929 -0.11776475 0.78493351 0.0022496667 390 183
-0.22872244 -0.11754519 0.78434432 0.002112936 389 183
-0.22480999 -0.11741996 0.78434223 0.0023245388 416 195
-0.2219526 -0.11785079 0.78801781 0.0022328277 420 197
-0.2186137 -0.11803619 0.79001862 0.0020703468 404 190
-0.21609022 -0.11867575 0.79502743 0.0020671966 407 191
-0.2116797 -0.11828321 0.79308772 0.0020568725 410 192
-0.20977178 -0.11929997 0.80056578 0.0020453578 410 192
-0.20626913 -0.11943018 0.80206668 0.0021023676 395 185
-0.20272069 -0.11953817 0.80338675 0.002375165 393 184
-0.19816703 -0.11904637 0.8006416 0.0023249791 394 185
-0.19507886 -0.11943296 0.80377257 0.0022298621 390 183
-0.19129269 -0.11939894 0.80404449 0.002385034 406 191
-0.18752857 -0.1193776 0.80437267 0.0020985615 395 185
-0.18406232 -0.11954889 0.80597132 0.0022430448 401 188
-0.18027295 -0.11951305 0.80614716 0.0020842738 398 187
-0.17684135 -0.11971789 0.80792093 0.00228766 400 188
-0.17331779 -0.119868 0.8093015 0.0020709822 414 194
-0.1698581 -0.12006987 0.81100833 0.0020495288 413 194
-0.16629201 -0.12020394 0.81223524 0.0021173097 401 188
-0.16260594 -0.1202555 0.81288272 0.0024739902 402 189
-0.15893735 -0.12032271 0.8136149 0.0022563494 411 193
-0.1545807 -0.11985968 0.81074035 0.002207635 402 189
-0.15111618 -0.12008259 0.81248558 0.0022583068 416 195
-0.14781588 -0.12045065 0.81519538 0.002092086 410 192
-0.14410605 -0.12049551 0.81570101 0.0020714367 405 190
-0.14053233 -0.12065963 0.81699723 0.0023709105 400 188
-0.1373259 -0.12115683 0.82053381 0.0023511837 394 185
-0.13353442 -0.12115147 0.82065201 0.0020767786 398 187
-0.13005656 -0.12143862 0.82273746 0.0024039845 396 186
-0.12644637 -0.12161575 0.82406431 0.0021287417 398 187
-0.12280776 -0.12177566 0.82526213 0.0021283054 389 183
-0.11914547 -0.12192158 0.82635319 0.0024173404 390 183
-0.11564209 -0.12224511 0.82863688 0.0021446699 390 183
-0.11201285 -0.12245316 0.83012754 0.0021495274 386 181
-0.10812764 -0.12238619 0.82974392 0.0021413078 389 183
-0.10428751 -0.12236723 0.82967615 0.0022318782 386 181
-0.10075727 -0.12272426 0.83214962 0.0024300909 393 184
-0.097041368 -0.12287445 0.83321279 0.0024024535 404 190
-0.093049377 -0.12267305 0.83188432 0.0021726221 408 191
-0.089618757 -0.12322619 0.83566612 0.0020976593 404 190
-0.085882582 -0.12339003 0.83680207 0.0021484166 386 181
-0.0820278 -0.12339084 0.83682686 0.0021254413 394 185
-0.078202672 -0.12343853 0.83716482 0.0021206543 388 182
-0.074383877 -0.12350171 0.83760321 0.0022193668 392 184
-0.070584521 -0.12360583 0.83831549 0.0022351323 392 184
-0.06671574 -0.1235934 0.83823419 0.0023253374 395 185
-0.062894389 -0.12367267 0.83877194 0.0021048924 394 185
-0.059088472 -0.12379467 0.83959705 0.0021196483 396 186
-0.05522801 -0.12381151 0.83970678 0.0021025562 396 186
-0.051325019 -0.12372834 0.83913684 0.0024158743 393 184
-0.047528908 -0.12391027 0.84036368 0.0023434667 403 189
-0.043717068 -0.12407982 0.84150553 0.002094903 403 189
-0.039773386 -0.12387175 0.8400861 0.0021144578 394 185
-0.035887275 -0.12381746 0.83970934 0.0023881376 392 184
-0.032020885 -0.12382632 0.83976096 0.0022437733 391 183
-0.028197477 -0.12402664 0.84111148 0.0021597571 383 180
-0.024329552 -0.12406381 0.84135592 0.0021209316 390 183
-0.020518092 -0.12445756 0.84401941 0.0021164629 391 183
-0.016703827 -0.12501448 0.84779036 0.0022118201 403 189
-0.012820334 -0.12523513 0.84928185 0.002363231 397 186
-0.0089425324 -0.12572959 0.85263145 0.0021279051 386 181
-0.0050165323 -0.12579033 0.85304093 0.0021022374 399 187
-0.0010888985 -0.12610149 0.85514992 0.0021660875 405 190
0.0028548136 -0.12626378 0.85625088 0.0020896669 404 190
0.0068059075 -0.12637483 0.85700566 0.0021417753 411 193
0.010756327 -0.1263964 0.85715491 0.0020788524 409 192
0.014700538 -0.12635304 0.85686493 0.0020974288 404 190
0.018687883 -0.12662029 0.85868275 0.002082115 402 189
0.022688087 -0.12686606 0.86035573 0.0022624256 404 190
0.026666576 -0.12693536 0.86083311 0.0020614893 402 189
0.030636741 -0.12695222 0.86095542 0.0020463972 408 191
0.034616888 -0.12700182 0.86130035 0.0020738102 412 193
0.038619965 -0.12711671 0.86208832 0.0021649206 407 191
0.04264788 -0.12728429 0.86323363 0.0020651137 406 191
0.046690248 -0.12746274 0.86445224 0.0020764018 408 191
0.050665274 -0.12744378 0.86433136 0.0020626893 422 198
0.054585677 -0.12730014 0.86336404 0.0020340057 415 195
0.058526892 -0.12722129 0.86283463 0.0022454325 422 198
0.062485829 -0.12718853 0.862616 0.002086753 395 185
0.06647256 -0.1272129 0.86278272 0.0024403445 391 183
0.070405699 -0.12713771 0.86227131 0.0024599389 348 163
0.074188247 -0.12681314 0.86006588 0.0024855838 337 158
0.077905394 -0.12641539 0.85736006 0.0027631524 319 150
0.081145942 -0.12531997 0.84991872 0.0025534341 304 143
