# .PCD v0.7 - Point Cloud Data file format
VERSION 0.7
FIELDS x y z noise intensity gray
SIZE 4 4 4 4 2 1
TYPE F F F F U U
COUNT 1 1 1 1 1 1
WIDTH 909
HEIGHT 1
VIEWPOINT 0 0 0 1 0 0 0
POINTS 909
DATA ascii
0.024659837 -0.21406814 1.1329472 0.0069470671 94 71
0.02991966 -0.2143497 1.1344242 0.0071546771 89 67
0.035173248 -0.21450947 1.135254 0.0067626159 92 70
0.040380735 -0.21438313 1.1345664 0.0066097518 93 70
0.045479085 -0.21377274 1.1313136 0.0071646301 96 73
0.050738603 -0.21396759 1.1323186 0.0071632122 98 74
0.055963758 -0.21399468 1.132432 0.0063323169 94 71
0.061101541 -0.21371153 1.1308992 0.0062597645 97 73
0.066223353 -0.21342145 1.1293252 0.0058978926 105 79
0.071071513 -0.212356 1.1236432 0.007498492 96 73
0.076124839 -0.21200663 1.1217449 0.0061121271 96 73
0.08204329 -0.21395783 1.1320127 0.0061257146 95 72
0.087092936 -0.21354544 1.1297681 0.0069671148 98 74
0.092259318 -0.21344966 1.1291915 0.006362692 96 73
0.097702406 -0.21397011 1.1318666 0.0075571034 99 75
0.10327366 -0.21470426 1.1356633 0.0064803651 94 71
0.10817241 -0.2140369 1.1320376 0.0064110928 94 71
0.11316249 -0.21360333 1.1296393 0.0063424162 92 70
0.1184921 -0.21382064 1.1306726 0.0063142423 94 71
0.12358046 -0.21360263 1.1293927 0.0081764925 93 70
0.12853654 -0.21318288 1.1270347 0.0064246766 95 72
0.13397308 -0.21356164 1.1288853 0.006483125 91 69
0.13961181 -0.2142223 1.1322113 0.0061651464 96 73
0.14497523 -0.2144281 1.1331183 0.0086043878 92 70
0.14906752 -0.21280491 1.124346 0.0098786 78 59
0.15435126 -0.21293461 1.1248204 0.007469405 86 65
0.15965532 -0.21308303 1.1253757 0.0080155553 96 73
0.16525285 -0.21360138 1.1278661 0.0088463528 88 66
0.17040162 -0.21352573 1.1272005 0.0065572611 91 69
0.17547008 -0.21335693 1.1260232 0.0064449869 92 70
0.18067497 -0.21335891 1.1257262 0.0065977219 91 69
0.18588822 -0.21337043 1.1254574 0.006447569 91 69
0.19152036 -0.21384904 1.127628 0.0080948295 95 72
0.19731134 -0.21447495 1.130549 0.0079335244 89 67
0.20282139 -0.21477102 1.1317041 0.0072121629 95 72
0.20812318 -0.21483719 1.13162 0.0071798577 94 71
0.2130798 -0.21455257 1.1296607 0.0061615859 96 73
0.21800393 -0.2142497 1.1275771 0.0064407047 94 71
0.22335604 -0.21437173 1.1277 0.0074968259 90 68
0.22914094 -0.21489407 1.1298956 0.0064416029 93 70
0.23422082 -0.21474668 1.1285355 0.0076889386 95 72
0.2394142 -0.21470749 1.1277105 0.0063815988 93 70
0.24624145 -0.21610387 1.1343858 0.0064026397 94 71
0.25117391 -0.21581373 1.1321679 0.0085748211 88 66
0.25659174 -0.21594395 1.1321173 0.0064297663 91 69
0.26215622 -0.21618986 1.1326323 0.007682994 91 69
0.26757881 -0.21631137 1.132453 0.0061182035 92 70
0.27255774 -0.21607649 1.1303657 0.0073764925 91 69
0.27766454 -0.21594994 1.1288031 0.0079914005 93 70
0.28380644 -0.21661818 1.1313474 0.0059562982 101 76
0.28992009 -0.21724078 1.1336008 0.0073147053 97 73
0.29569408 -0.21759115 1.1343809 0.0073910654 100 76
0.3012782 -0.21779191 1.1343286 0.0069946595 94 71
0.30638552 -0.21764696 1.1324247 0.0068305153 98 74
0.31168026 -0.21763782 1.1311756 0.0062379595 97 73
0.31768385 -0.21811569 1.1324013 0.0062414473 99 75
0.32313764 -0.21820658 1.1315597 0.0074525634 95 72
0.32883003 -0.218453 1.131466 0.0080993017 99 75
0.33388177 -0.21827273 1.1291043 0.00625632 94 71
0.33881289 -0.21802054 1.126315 0.0065041105 92 70
0.34475037 -0.2184137 1.1267986 0.0073328349 101 76
0.35164621 -0.21939281 1.130234 0.0073264148 102 77
0.35823983 -0.22015686 1.1324869 0.0060877819 98 74
0.36397746 -0.22038005 1.1318871 0.0066843671 106 80
0.37006205 -0.22080375 1.1322483 0.0069494774 99 75
0.37623999 -0.22127023 1.1327573 0.00625923 101 76
0.38210222 -0.22154041 1.1321908 0.0067503783 114 86
0.38845435 -0.22208318 1.1329455 0.0055809664 112 85
0.39481762 -0.22261734 1.1335827 0.0058936318 103 78
0.4005973 -0.22281234 1.1324223 0.0069643077 106 80
0.4071447 -0.22342348 1.1333066 0.0065984367 103 78
0.41356719 -0.22395082 1.1336932 0.0075704572 107 81
0.42010617 -0.22452666 1.1342551 0.0066088662 106 80
0.42690676 -0.2252257 1.1353693 0.0071579744 106 80
0.43407911 -0.22610064 1.1372998 0.0054008481 111 84
0.44074997 -0.22669569 1.1377568 0.005589935 110 83
0.44593629 -0.22652186 1.134306 0.0058218059 100 76
0.45168123 -0.22663261 1.1322417 0.0078268005 94 71
0.45940351 -0.22772083 1.1350151 0.0061134137 99 75
0.46646386 -0.22845885 1.1359975 0.0059751994 107 81
0.47514179 -0.2299623 1.1407441 0.0060149804 105 79
0.48193824 -0.23053074 1.1408225 0.0057197148 104 79
0.48729447 -0.23040506 1.137467 0.0058860159 101 76
0.49320126 -0.23053961 1.1354144 0.0073830048 94 71
0.49936977 -0.23079209 1.1339706 0.0094721913 71 54
0.50607741 -0.23128533 1.1337478 0.015528915 50 38
0.50928617 -0.2301863 1.1257888 0.013949939 39 29
0.51035583 -0.2281549 1.1133823 0.012898727 40 30
0.51565975 -0.22803988 1.1104447 0.012855595 41 31
0.52707851 -0.23060261 1.1206323 0.010213548 52 39
0.53453517 -0.23139605 1.1223171 0.010548423 63 47
0.5474053 -0.23449187 1.1352786 0.0078791156 74 56
0.55508101 -0.23532161 1.1373971 0.0072549819 79 60
0.56036448 -0.23513052 1.1347528 0.010261683 77 58
0.56695592 -0.23548658 1.1349376 0.007643884 72 54
0.57407516 -0.23605253 1.1363291 0.010574747 65 49
0.57994562 -0.23609886 1.1354268 0.011214332 64 48
0.5864628 -0.23640497 1.1359903 0.011554517 58 44
0.59354687 -0.23693143 1.1378337 0.0098992176 59 44
0.59932655 -0.23693207 1.1373777 0.010929345 52 39
0.61344165 -0.24019644 1.1528151 0.012218187 47 35
-0.66742468 -0.22574584 1.1268045 0.021182677 33 25
-0.66437483 -0.22663037 1.1288908 0.016225748 30 22
-0.6631676 -0.22816411 1.1343389 0.016539233 27 20
-0.66082996 -0.22933215 1.1381037 0.014327591 35 26
-0.65845388 -0.23050717 1.1420518 0.013574981 36 27
-0.65280944 -0.23054868 1.1405513 0.019662431 33 25
-0.64845127 -0.23104921 1.1415032 0.014947979 39 29
-0.64094424 -0.23042671 1.1371003 0.012034628 47 35
-0.63423443 -0.23008214 1.134274 0.011851833 42 31
-0.62828875 -0.23001096 1.1330042 0.013588773 44 33
-0.62193918 -0.22978927 1.1312066 0.011576174 45 34
-0.61522955 -0.22942917 1.1289477 0.011617068 49 37
-0.61036962 -0.22975858 1.1303048 0.010343315 53 40
-0.60666239 -0.23053224 1.1340733 0.010622418 52 39
-0.60387838 -0.23167498 1.139888 0.012374313 55 41
-0.59853601 -0.23184876 1.141168 0.013758535 52 39
-0.59307736 -0.23198053 1.1424719 0.010092464 47 35
-0.58534551 -0.23121697 1.1395917 0.011980483 55 41
-0.57942486 -0.23116073 1.140416 0.0095109828 60 45
-0.56741798 -0.22865078 1.1293349 0.009414373 63 47
-0.56058985 -0.2281979 1.1285999 0.0095693702 70 53
-0.55642992 -0.22883298 1.1334392 0.007621258 75 57
-0.55199128 -0.22936547 1.1379591 0.0077231233 75 57
-0.54533422 -0.22897764 1.1380794 0.0077861431 80 60
-0.53904283 -0.22873673 1.1390747 0.0072565977 77 58
-0.52982837 -0.22723702 1.133917 0.0071205255 82 62
-0.52323246 -0.22684 1.1343583 0.0069249799 83 63
-0.5172196 -0.22668985 1.1361268 0.0070449454 85 64
-0.51036239 -0.22616224 1.1360773 0.0070452481 93 70
-0.50326276 -0.22551413 1.1354742 0.0062549855 95 72
-0.49649128 -0.22500008 1.1355815 0.0060874308 95 72
-0.48885632 -0.22407842 1.1336484 0.0072034099 99 75
-0.48170504 -0.2233597 1.1327422 0.0068892855 108 82
-0.4751029 -0.22288172 1.1330497 0.0058235424 104 79
-0.46879545 -0.22253232 1.1339968 0.006372767 102 77
-0.46277669 -0.22231317 1.135586 0.0067322222 102 77
-0.45691502 -0.22216511 1.1375107 0.0072844974 99 75
-0.45098522 -0.22197984 1.1392093 0.0068606208 81 61
-0.44196343 -0.22024907 1.1329149 0.0059058988 101 76
-0.43631586 -0.22017741 1.1350893 0.0054543293 108 82
-0.4279781 -0.218729 1.1300997 0.006709259 115 87
-0.42148682 -0.21819898 1.1297793 0.0061450852 110 83
-0.41495994 -0.21763645 1.1292223 0.0071593365 108 82
-0.40726081 -0.21643597 1.1252774 0.0056357416 106 80
-0.40123686 -0.21610542 1.1257783 0.0055049858 109 82
-0.3968125 -0.21663913 1.1307206 0.0060849395 109 82
-0.38930705 -0.21548222 1.1267697 0.0054319366 114 86
-0.38323516 -0.21509744 1.1267771 0.0054087201 116 88
-0.3776812 -0.21499658 1.1282023 0.0070307464 114 86
-0.37305301 -0.2154274 1.1323563 0.005368128 112 85
-0.36685339 -0.21495008 1.1316715 0.00557655 109 82
-0.35990208 -0.21401162 1.1284832 0.0054183151 114 86
-0.35498849 -0.21427479 1.1315621 0.0055140364 108 82
-0.34751549 -0.21297748 1.1263298 0.0066250148 114 86
-0.34098548 -0.2122267 1.1239113 0.0067087137 106 80
-0.33570126 -0.21223982 1.1254722 0.0063400799 109 82
-0.33088434 -0.21255359 1.1285707 0.006063662 112 85
-0.32612398 -0.21291447 1.1318655 0.0061947857 115 87
-0.32044327 -0.21267653 1.1319208 0.0061276802 112 85
-0.31347275 -0.21156007 1.1272367 0.0059683737 112 85
-0.30856344 -0.21182024 1.1298283 0.0057254112 108 82
-0.30347455 -0.2119641 1.131749 0.0054648137 114 86
-0.29792243 -0.21178375 1.1318868 0.0055469209 114 86
-0.29129738 -0.21082036 1.127784 0.0055033481 111 84
-0.28564626 -0.21053934 1.1272771 0.0065483511 110 83
-0.28004462 -0.2102849 1.1268625 0.0056152218 109 82
-0.27413037 -0.20978151 1.1250654 0.00538 113 86
-0.26898637 -0.20985945 1.12634 0.0060676909 113 86
-0.26393387 -0.21001326 1.12798 0.0064023123 109 82
-0.25845218 -0.2098249 1.1277406 0.0076958598 96 73
-0.25298044 -0.20963697 1.1274621 0.0058355769 104 79
-0.24761751 -0.20953317 1.1275965 0.0070303082 104 79
-0.24151844 -0.20878847 1.1242422 0.00651957 107 81
-0.23601185 -0.2085344 1.1234908 0.0056470898 109 82
-0.230873 -0.20860113 1.1244324 0.006266044 110 83
-0.22592448 -0.20884687 1.1263068 0.0072462624 101 76
-0.22050653 -0.20866002 1.1258165 0.0074112001 105 79
-0.21547559 -0.20883925 1.1272706 0.0074794414 99 75
-0.20991182 -0.20849809 1.125886 0.0075896247 94 71
-0.20469245 -0.20849036 1.1262728 0.0060253553 101 76
-0.19920264 -0.20819961 1.125103 0.0071824575 100 76
-0.19395308 -0.20815103 1.1252156 0.0070145042 100 76
-0.18850255 -0.20787817 1.1240904 0.0057720887 108 82
-0.18362135 -0.2082355 1.1263496 0.0066246707 102 77
-0.1786693 -0.20853101 1.1282527 0.0072839595 99 75
-0.17357184 -0.20866942 1.1292853 0.0083010737 99 75
-0.16832562 -0.20863208 1.1293461 0.0059454017 101 76
-0.16242838 -0.2077596 1.1248662 0.0056478744 108 82
-0.15758877 -0.20822695 1.1276214 0.007468998 106 80
-0.15226957 -0.20807095 1.1269841 0.0062942426 95 72
-0.14658901 -0.20739263 1.1235003 0.0077409823 78 59
-0.1413855 -0.20736426 1.1235216 0.0066189365 89 67
-0.13604946 -0.20713192 1.1224229 0.0073301345 99 75
-0.13176779 -0.20854995 1.1302547 0.0075114709 97 73
-0.12634002 -0.20819616 1.128472 0.0060157459 102 77
-0.12078296 -0.20758976 1.125307 0.0080016414 99 75
-0.11557373 -0.20755357 1.1252217 0.0058190301 104 79
-0.11057211 -0.20790438 1.1272241 0.0065475437 100 76
-0.10594549 -0.2090296 1.1334163 0.0061177779 101 76
-0.10009186 -0.20772514 1.1264248 0.0061260615 98 74
-0.094801962 -0.20751189 1.1253417 0.0060852589 99 75
-0.08959204 -0.20745909 1.1251211 0.0077362866 99 75
-0.084380992 -0.20739709 1.1248431 0.0072705471 102 77
-0.079329453 -0.20774464 1.1267804 0.007282455 95 72
-0.074290328 -0.2081757 1.1291646 0.0062184297 99 75
-0.068830118 -0.20740286 1.125013 0.0078257127 93 70
-0.063486293 -0.20688339 1.1222308 0.0065637259 97 73
-0.058519579 -0.20760962 1.1262014 0.0060883649 99 75
-0.053401317 -0.20788725 1.1277347 0.0059316885 108 82
-0.048157625 -0.2076838 1.1266543 0.0064580631 102 77
-0.043078553 -0.20822687 1.1296204 0.0077545242 95 72
-0.037878949 -0.20825663 1.1297988 0.0060279388 102 77
-0.032589685 -0.2077243 1.126925 0.0060686972 101 76
-0.02740513 -0.2077841 1.1272612 0.006211685 97 73
-0.022228843 -0.20794925 1.1281664 0.0062559405 97 73
-0.016970119 -0.2072086 1.1241554 0.006599775 94 71
-0.011827238 -0.20785309 1.1276572 0.0068847537 96 73
-0.0066301483 -0.20780839 1.1274179 0.0079196608 94 71
-0.0014349835 -0.20771883 1.1269333 0.0065078884 90 68
0.0037530526 -0.2074827 1.1256517 0.0064566699 92 70
0.0089319916 -0.20730942 1.1247096 0.007303677 100 76
0.014128816 -0.20752609 1.1258807 0.0063226689 104 79
0.019367095 -0.20807174 1.1288351 0.0059918873 100 76
0.024621971 -0.20852692 1.1312965 0.0074469233 102 77
0.029827742 -0.20847985 1.1310307 0.0080519142 94 71
0.03506203 -0.20861647 1.131759 0.0062690652 97 73
0.040254157 -0.2084993 1.131108 0.0062152022 98 74
0.04547821 -0.20855542 1.131394 0.0063737719 93 70
0.050644971 -0.20836428 1.1303356 0.0061000995 99 75
0.055784013 -0.20810539 1.1289062 0.007672058 94 71
0.060978606 -0.20808022 1.1287408 0.0074333609 100 76
0.065917149 -0.20725393 1.1242255 0.0081170257 98 74
0.07120163 -0.20755647 1.1258289 0.0072588413 93 70
0.076686122 -0.20836143 1.1301519 0.006490143 96 73
0.081901833 -0.20838012 1.1302044 0.0061720219 97 73
0.087023288 -0.20817107 1.1290156 0.0080203116 90 68
0.092322782 -0.20838746 1.1301274 0.0063915518 96 73
0.097561978 -0.20845196 1.1304079 0.0063471566 96 73
0.10270244 -0.20830962 1.1295588 0.0062462729 95 72
0.10792149 -0.20833275 1.1295981 0.006225063 96 73
0.11270629 -0.20755403 1.1252809 0.0064613181 94 71
0.11787911 -0.20752697 1.1250294 0.0070607476 91 69
0.12333673 -0.20798247 1.1273826 0.006535151 88 66
0.1285592 -0.2080206 1.1274617 0.0067792665 89 67
0.13405994 -0.20848852 1.1298575 0.0064301994 94 71
0.13939594 -0.20867486 1.1307136 0.0060692602 98 74
0.14393416 -0.20769654 1.1252453 0.0061236718 96 73
0.14897846 -0.20749117 1.123951 0.0075453878 79 60
0.15361764 -0.20675434 1.1197627 0.0065046614 88 66
0.15972042 -0.20797129 1.1261387 0.0065464866 92 70
0.16521545 -0.20834509 1.1279294 0.008626435 89 67
0.17044775 -0.20837481 1.1278386 0.0074162506 88 66
0.1750001 -0.20759623 1.1233537 0.0067633037 90 68
0.18027405 -0.20769383 1.1235901 0.0064170272 95 72
0.18574034 -0.20800135 1.1249397 0.0080977362 94 71
0.19107285 -0.20814636 1.1253868 0.0076243207 92 70
0.19670257 -0.20859891 1.1274718 0.0061786328 99 75
0.20246677 -0.20916699 1.1301538 0.0065013915 97 73
0.20770149 -0.20917325 1.1297729 0.0059673986 102 77
0.21299909 -0.209241 1.1296961 0.0063556805 94 71
0.21807064 -0.20908874 1.1284029 0.0062864306 97 73
0.22245911 -0.20830396 1.1236682 0.0069786925 93 70
0.22751351 -0.20816439 1.1223853 0.0074987719 91 69
0.23392138 -0.20924173 1.1276286 0.0062538581 98 74
0.23940547 -0.20946372 1.1282248 0.0064416858 94 71
0.24450874 -0.20935014 1.126978 0.0077423044 91 69
0.25000921 -0.20957427 1.1275126 0.00745347 95 72
0.25547138 -0.20975779 1.1277893 0.0071370718 91 69
0.26172504 -0.21057068 1.1314071 0.0061493036 95 72
0.26685897 -0.21046841 1.1300646 0.0072563542 92 70
0.27190861 -0.21030493 1.1283522 0.006304448 92 70
0.27747273 -0.21053798 1.128724 0.0071075889 95 72
0.28311715 -0.21082218 1.1293223 0.0072800145 99 75
0.28873754 -0.21107841 1.1297226 0.0060977223 98 74
0.29445675 -0.2113964 1.1304026 0.0060675172 100 76
0.29972938 -0.21138822 1.1292877 0.0061213681 95 72
0.30535066 -0.21162193 1.1294135 0.0062137488 96 73
0.31100246 -0.21186849 1.1295531 0.0080856625 92 70
0.31652743 -0.21202184 1.1291399 0.0064046211 94 71
0.32258105 -0.21251844 1.1304963 0.0061266548 97 73
0.32779592 -0.2124553 1.1288162 0.0079517327 97 73
0.33272991 -0.21221502 1.1261396 0.0067294724 90 68
0.33810925 -0.21226189 1.1249295 0.0062610493 98 74
0.34449136 -0.2129271 1.1269314 0.007230673 97 73
0.35076684 -0.21350716 1.1284128 0.007787229 103 78
0.35664776 -0.2138333 1.1284835 0.0057419324 107 81
0.3629148 -0.21437788 1.1296371 0.006899721 97 73
0.36921576 -0.2149263 1.1307385 0.0055706501 107 81
0.37498045 -0.21515137 1.1300678 0.0058823321 103 78
0.38096738 -0.21549575 1.1299539 0.0058273803 101 76
0.38731685 -0.21603276 1.1307775 0.0055286544 113 86
0.39386332 -0.21666335 1.1320151 0.0060981549 109 82
0.3992784 -0.2166629 1.1298856 0.0055145444 110 83
0.40401781 -0.21630074 1.1258097 0.0066048354 105 79
0.41185528 -0.21758486 1.130231 0.0060282522 108 82
0.41828898 -0.21810354 1.1305972 0.0065368107 110 83
0.42586625 -0.2191975 1.1338696 0.0067454488 110 83
0.43269283 -0.21988218 1.1349502 0.0055193733 107 81
0.43852663 -0.2200515 1.1333092 0.0056807389 105 79
0.4441902 -0.22013229 1.1311624 0.0063844696 102 77
0.45058382 -0.22056845 1.1307939 0.0080874395 97 73
0.45794657 -0.22146274 1.1327226 0.007372289 94 71
0.46612924 -0.22272746 1.1364923 0.0066617704 106 80
0.47096652 -0.22238268 1.1320181 0.0064404951 102 77
0.47967288 -0.22385155 1.1367528 0.0059568635 109 82
0.48572892 -0.22406395 1.1350871 0.0061536008 106 80
0.4908753 -0.22385669 1.1313084 0.0061945724 98 74
0.4966912 -0.22395596 1.1291066 0.0091458578 73 55
0.50345689 -0.22447652 1.1290618 0.015611524 48 36
0.5080483 -0.22402684 1.124192 0.013925399 39 29
0.51268578 -0.22360708 1.1195539 0.01196382 43 32
0.52037036 -0.224511 1.121626 0.012016513 50 38
0.53141296 -0.22682898 1.1308339 0.0083941538 71 54
0.53967965 -0.22792564 1.1340408 0.0073826094 78 59
0.5471229 -0.22865525 1.1355447 0.0084751891 79 60
0.55387264 -0.22908294 1.1356951 0.0075188591 78 59
0.56034452 -0.22938816 1.1354047 0.0078487573 73 55
0.56649005 -0.22955492 1.1346112 0.007596002 76 57
0.57247651 -0.22965457 1.1336821 0.0092959274 67 51
0.57792306 -0.22953776 1.1318932 0.010802397 66 50
0.5834403 -0.22945105 1.1304698 0.0098023163 65 49
0.59076709 -0.23007073 1.1327477 0.0117442 59 44
0.59804523 -0.23065974 1.135098 0.01001481 53 40
0.6033358 -0.23047821 1.1338853 0.014206917 53 40
-0.66947317 -0.22077845 1.1294682 0.018711166 28 21
-0.66683376 -0.22178319 1.1323144 0.016639579 33 25
-0.65982646 -0.22133994 1.1279176 0.016732166 33 25
-0.658705 -0.22288053 1.1337836 0.016779212 37 28
-0.65695989 -0.22423528 1.1388508 0.014435424 33 25
-0.65141875 -0.22430682 1.1375701 0.018610764 41 31
-0.64144999 -0.22284144 1.1286924 0.014563792 42 31
-0.63669908 -0.22317873 1.1291474 0.014273162 48 36
-0.63191974 -0.22351207 1.1297815 0.014243696 46 35
-0.62589741 -0.2234078 1.128412 0.014258346 49 37
-0.62053072 -0.22353788 1.1284416 0.01109651 44 33
-0.6142174 -0.22332615 1.1269673 0.01145303 51 38
-0.60993135 -0.22385447 1.1294525 0.010724954 51 38
-0.60642725 -0.22468254 1.133679 0.0099626547 56 42
-0.6033507 -0.22568643 1.1390257 0.010298095 54 41
-0.59819281 -0.22592367 1.1407374 0.0099871708 56 42
-0.58570266 -0.22336927 1.1285769 0.0099916998 57 43
-0.58246726 -0.22432874 1.1343906 0.01040065 60 45
-0.57329112 -0.2229965 1.1288326 0.0084154857 63 47
-0.5658049 -0.22230147 1.1266991 0.0089353006 68 51
-0.56013924 -0.22231483 1.1283519 0.011075504 67 51
-0.55551082 -0.22274435 1.1323091 0.0076328362 75 57
-0.55116731 -0.22329824 1.1370821 0.0075764214 80 60
-0.54372001 -0.22259307 1.1356027 0.0073649972 77 58
-0.53536898 -0.22149904 1.1322663 0.0073844176 85 64
-0.52865505 -0.22106618 1.1324205 0.0067791915 81 61
-0.52134591 -0.22037229 1.1313349 0.0065913079 89 67
-0.51503319 -0.22008902 1.1324385 0.0064859511 94 71
-0.50715065 -0.2191212 1.1300805 0.0062930104 92 70
-0.50113618 -0.21894789 1.1318643 0.006523984 97 73
-0.49543691 -0.2189099 1.1343886 0.0057495539 106 80
-0.48790058 -0.21805005 1.132671 0.0058872644 98 74
-0.48012355 -0.21706143 1.1302758 0.0060950066 104 79
-0.47281525 -0.21626402 1.1288562 0.0066540786 105 79
-0.46659973 -0.21595347 1.1299553 0.0068883658 112 85
-0.46096367 -0.21590687 1.132412 0.005619362 112 85
-0.45476094 -0.21559046 1.1334223 0.0060080281 97 73
-0.44542062 -0.21376055 1.1264139 0.0069088764 81 61
-0.43928206 -0.2134407 1.1272955 0.0060130213 105 79
-0.43281353 -0.21295047 1.1272207 0.0065179039 110 83
-0.42602965 -0.21229056 1.1261833 0.0054694605 110 83
-0.41971222 -0.211849 1.1262361 0.0055510621 110 83
-0.41441515 -0.21191767 1.1289393 0.0053414009 116 88
-0.40650553 -0.21063441 1.1243664 0.0054797889 109 82
-0.39931238 -0.20969284 1.1215322 0.0068492331 104 79
-0.39360449 -0.20951621 1.1227138 0.0063651083 112 85
-0.38851768 -0.20966986 1.1256008 0.0055578439 114 86
-0.38211346 -0.20910686 1.1245714 0.0070640477 112 85
-0.3762233 -0.20881318 1.1249174 0.005888802 117 89
-0.3706525 -0.20869081 1.1261176 0.005706171 113 86
-0.36471599 -0.20835598 1.1261026 0.0052810721 115 87
-0.35861397 -0.20791517 1.1254443 0.0057164207 114 86
-0.35285085 -0.20766054 1.1257247 0.0054061804 113 86
-0.34600303 -0.20674998 1.1223778 0.0069097774 110 83
-0.33918679 -0.20583022 1.1189058 0.0062967422 110 83
-0.33404353 -0.20591263 1.1208156 0.0067549413 112 85
-0.32955608 -0.20640849 1.1249208 0.005526063 112 85
-0.32479063 -0.20674357 1.1280974 0.0063953726 111 84
-0.31888852 -0.20635417 1.1272643 0.0067968774 111 84
-0.31299996 -0.20596065 1.1263484 0.0068606073 111 84
-0.30677921 -0.20533118 1.1240821 0.0054192245 111 84
-0.30228209 -0.2058536 1.1280689 0.0054147206 113 86
-0.29722971 -0.2060097 1.1300007 0.0055107437 111 84
-0.29107198 -0.20539145 1.1276332 0.0063942936 113 86
-0.2843076 -0.20431449 1.1226908 0.005596926 107 81
-0.27881402 -0.20412751 1.122586 0.0071750521 109 82
-0.27344513 -0.20402639 1.1229074 0.0057669305 109 82
-0.2682679 -0.2040671 1.1239651 0.007011415 111 84
-0.2630457 -0.20407455 1.1247975 0.0066357837 108 82
-0.25755844 -0.20387249 1.1244336 0.0054471856 114 86
-0.25157076 -0.20325775 1.1217512 0.0062507177 109 82
-0.24607141 -0.20301989 1.1211075 0.005445993 114 86
-0.24050273 -0.20271333 1.120046 0.0057151346 105 79
-0.23525266 -0.20266767 1.1203897 0.0056108087 109 82
-0.23036604 -0.20294015 1.1224588 0.0054660439 110 83
-0.22538756 -0.20314243 1.1241078 0.0067435275 107 81
-0.22011767 -0.20308544 1.1242911 0.0070723244 103 78
-0.21501026 -0.20317921 1.1252788 0.0072570369 101 76
-0.20974556 -0.20312528 1.1254195 0.0073861019 105 79
-0.20459266 -0.20317969 1.1261325 0.005770911 105 79
-0.1990909 -0.20288143 1.1248637 0.0061376221 103 78
-0.19350943 -0.2024837 1.1230168 0.0057662576 102 77
-0.18811144 -0.20226136 1.1221173 0.0063152448 105 79
-0.18319453 -0.20255837 1.1240754 0.0072487076 106 80
-0.17815325 -0.20273113 1.1253234 0.0058273282 103 78
-0.1728427 -0.20259871 1.1248558 0.0059022149 103 78
-0.16730535 -0.20218396 1.1228005 0.0059057116 106 80
-0.16206032 -0.20210725 1.1226028 0.0075158612 107 81
-0.15683486 -0.20205067 1.1224989 0.0060604028 98 74
-0.15184756 -0.20230755 1.1241194 0.0064692805 92 70
-0.14648215 -0.20206104 1.1229272 0.0082924236 79 60
-0.14060746 -0.20106819 1.1175714 0.0065041767 97 73
-0.13594212 -0.20179491 1.1217586 0.0059421677 100 76
-0.1312411 -0.20252408 1.1259475 0.0069562206 97 73
-0.12605943 -0.2025411 1.126165 0.0059129335 102 77
-0.12051173 -0.20194617 1.1229682 0.0059487387 106 80
-0.11533056 -0.20193963 1.1230321 0.0060689417 98 74
-0.11038285 -0.20236047 1.1254628 0.0077814055 96 73
-0.10528888 -0.20254143 1.1265504 0.0061964886 101 76
-0.099579282 -0.20149547 1.1208051 0.0061056037 99 75
-0.094623864 -0.20194463 1.123368 0.0074743815 101 76
-0.089183286 -0.20135045 1.1201198 0.0075099408 100 76
-0.084029555 -0.20137063 1.1202824 0.0065053813 96 73
-0.079010628 -0.20173763 1.1223688 0.0076690638 96 73
-0.073778346 -0.20157316 1.1214927 0.0069432557 96 73
-0.068565145 -0.20143996 1.1207857 0.0076641617 95 72
-0.063448735 -0.20159261 1.1216644 0.0058593061 107 81
-0.058371779 -0.20190878 1.1234491 0.0062507642 104 79
-0.053085398 -0.20149159 1.1211498 0.0076808352 102 77
-0.047767129 -0.2008504 1.1176004 0.0059659095 104 79
-0.042996168 -0.2026336 1.1275387 0.0058853766 101 76
-0.037809901 -0.20268072 1.1278141 0.0073494543 104 79
-0.032599285 -0.20259151 1.1273285 0.006127038 103 78
-0.027339222 -0.20210293 1.1246188 0.0062527764 96 73
-0.02215418 -0.20207018 1.1244434 0.0060844361 95 72
-0.017000083 -0.20238578 1.1262051 0.0067661111 94 71
-0.011798047 -0.20215724 1.1249372 0.006304577 91 69
-0.0066284584 -0.20256221 1.127193 0.0064345752 99 75
-0.0014306947 -0.20192125 1.1236273 0.006387535 93 70
0.0037415251 -0.20167492 1.1222563 0.0063427468 95 72
0.0089203939 -0.2018649 1.1233119 0.0073434873 94 71
0.014091761 -0.20180792 1.1229918 0.0059549287 100 76
0.019291641 -0.20208023 1.1245027 0.0061221756 101 76
0.024461573 -0.20198995 1.1239942 0.0061689168 95 72
0.02960955 -0.20178157 1.1228269 0.0069081555 92 70
0.034808122 -0.20192873 1.1236359 0.0082782209 90 68
0.040031157 -0.20216133 1.1249185 0.00605973 100 76
0.045347888 -0.2027595 1.1282325 0.0063716569 92 70
0.050549734 -0.20277378 1.1282948 0.0076960265 96 73
0.05562409 -0.20232172 1.1257591 0.0078842072 92 70
0.060708717 -0.20198092 1.1238395 0.0069099064 100 76
0.066022776 -0.20239705 1.1261276 0.0075364285 93 70
0.071187153 -0.20232709 1.1257068 0.0062893378 96 73
0.076280467 -0.20207839 1.1242867 0.0060974089 101 76
0.081499346 -0.20217279 1.1247705 0.0070789238 97 73
0.087014757 -0.20294753 1.1290332 0.0063272319 97 73
0.092112795 -0.20271634 1.1276934 0.007681665 95 72
0.0968358 -0.20172857 1.1221383 0.0062060491 98 74
0.10204148 -0.20179543 1.1224421 0.0062751276 96 73
0.10732771 -0.2020075 1.1235455 0.0061569591 96 73
0.11255104 -0.20208709 1.123903 0.0063826195 93 70
0.11769478 -0.20202307 1.1234524 0.0081836525 89 67
0.12290933 -0.20208086 1.1236688 0.0076511321 90 68
0.12831952 -0.20244262 1.1255639 0.0065641846 91 69
0.13374299 -0.2027964 1.1274023 0.006299532 92 70
0.13896781 -0.20283377 1.1274685 0.007348699 89 67
0.1440946 -0.20273051 1.1267396 0.0073385369 96 73
0.14885384 -0.20213531 1.1232624 0.0083511351 82 62
0.15380663 -0.20183417 1.1214048 0.0066321064 87 66
0.15938069 -0.20234136 1.1240216 0.0064294362 93 70
0.1652755 -0.20321092 1.1286325 0.0065497565 87 66
0.17021351 -0.20288689 1.1265955 0.0083603039 93 70
0.1748333 -0.20221405 1.1226032 0.0064283451 96 73
0.17981748 -0.20198926 1.1210792 0.0077810651 94 71
0.1852273 -0.20224179 1.1221827 0.0070877536 97 73
0.19062774 -0.20247059 1.1231315 0.0063397521 94 71
0.19581886 -0.20247085 1.1227884 0.0063458821 99 75
0.20148323 -0.20294778 1.1250629 0.0059102345 99 75
0.20648906 -0.20275407 1.1235931 0.0061692558 99 75
0.21262331 -0.2036507 1.1281372 0.0060291286 102 77
0.21752687 -0.20335381 1.1260399 0.0073363776 96 73
0.22157302 -0.20228805 1.1196584 0.0062784818 93 70
0.22739404 -0.20285437 1.122281 0.0075072278 94 71
0.23322189 -0.20340134 1.1247615 0.0075240899 96 73
0.23892644 -0.20381916 1.1264917 0.0066354242 91 69
0.24402578 -0.20371389 1.125295 0.0083027538 95 72
0.24904712 -0.20354927 1.1237354 0.0065410272 90 68
0.25506926 -0.20419258 1.1265972 0.0065544564 92 70
0.26022327 -0.20412903 1.1255178 0.0062798522 94 71
0.26567283 -0.20429526 1.1256649 0.0069766715 91 69
0.27120611 -0.20451821 1.1260815 0.0062363367 95 72
0.27742267 -0.20523815 1.1291876 0.0068415939 98 74
0.28302705 -0.20548686 1.1296519 0.0062300637 94 71
0.28815821 -0.20538919 1.1281657 0.0061172149 100 76
0.29258969 -0.20480525 1.1239644 0.0061836471 97 73
0.29754257 -0.20460045 1.1217988 0.0085429987 93 70
0.3042247 -0.20557123 1.1260246 0.0064097997 98 74
0.30946448 -0.20555094 1.124765 0.0077767405 98 74
0.3156921 -0.2061764 1.1269827 0.0059942771 100 76
0.32166991 -0.20662086 1.1281497 0.0059720622 96 73
0.32723787 -0.20679194 1.1277643 0.0067160106 99 75
0.33164719 -0.206237 1.123365 0.0060007391 101 76
0.33692747 -0.20623265 1.1219101 0.0059879003 102 77
0.34366941 -0.20710924 1.1251817 0.0067298748 100 76
0.34969729 -0.20753542 1.1259358 0.0057849544 104 79
0.35549051 -0.20781162 1.1258092 0.0057693766 104 79
0.36158442 -0.20825286 1.1265079 0.0064726933 105 79
0.36804768 -0.20889089 1.1281983 0.0056772269 108 82
0.37397096 -0.20920852 1.1280856 0.0068022865 105 79
0.37941101 -0.20925069 1.1264194 0.0072686789 105 79
0.38515896 -0.2094591 1.1255808 0.0065063578 113 86
0.39123473 -0.20983762 1.1255856 0.0070164669 110 83
0.3954109 -0.20920083 1.120082 0.0056834584 106 80
0.40176925 -0.20972016 1.1207058 0.0054041957 116 88
0.40933979 -0.21085021 1.1245129 0.0058570923 106 80
0.41727057 -0.21213394 1.1290519 0.0057157041 106 80
0.42421821 -0.21289119 1.1307071 0.0059814593 106 80
0.43123022 -0.21366115 1.1323553 0.0056373812 107 81
0.43632999 -0.2134762 1.1288822 0.0058073206 110 83
0.44263312 -0.21387731 1.1284564 0.0064499374 111 84
0.44906241 -0.21432881 1.1282417 0.0059468918 102 77
0.456146 -0.21507791 1.1295402 0.0073925424 91 69
0.46207854 -0.21527284 1.1278851 0.0057652467 101 76
0.46928489 -0.21604963 1.1292428 0.0066149468 105 79
0.4757241 -0.21645923 1.1286523 0.005399771 112 85
0.48302126 -0.21724525 1.1300054 0.0056531802 106 80
0.48959672 -0.21769246 1.1295881 0.0059504877 100 76
0.49531108 -0.21775106 1.1271688 0.0081593003 85 64
0.5008446 -0.2177297 1.1243697 0.0085383672 68 51
0.50595433 -0.21752661 1.1206844 0.012139509 57 43
0.51317883 -0.21822727 1.1217147 0.0097938729 58 44
0.5226891 -0.21987432 1.1276644 0.0094190314 75 57
0.52885491 -0.22009437 1.1263739 0.0066588284 86 65
0.53520685 -0.2203864 1.1255629 0.0080198357 87 66
0.54291236 -0.22122391 1.1276605 0.0092587322 85 64
0.5521493 -0.22266166 1.132947 0.008893054 80 60
0.55949533 -0.22331525 1.134392 0.0077846963 76 57
0.56593651 -0.22359808 1.134128 0.010634469 72 54
0.57147014 -0.22352029 1.1322281 0.0097569069 75 57
0.57582796 -0.22298872 1.1282393 0.0082758414 70 53
0.58263606 -0.22340712 1.1292722 0.00883538 64 48
0.5889461 -0.22362827 1.1295273 0.0090141688 63 47
0.59592289 -0.22409588 1.1312518 0.009946621 59 44
0.60305506 -0.22461241 1.1334513 0.01292496 57 43
-0.6761049 -0.21724916 1.1398882 0.016584801 34 25
-0.66206062 -0.21455039 1.123494 0.018723145 31 23
-0.65986991 -0.21567953 1.1273199 0.017018551 31 23
-0.65505081 -0.21596169 1.1268715 0.013264869 34 25
-0.65186089 -0.21679066 1.129441 0.013177759 39 29
-0.64966667 -0.21796831 1.1339949 0.015134518 41 31
-0.64387995 -0.21795084 1.1325141 0.0120743 44 33
-0.63488585 -0.21683769 1.1255455 0.012608835 48 36
-0.62992293 -0.2170936 1.1258938 0.015162762 42 31
-0.62528229 -0.21746624 1.1270572 0.011162787 52 39
-0.61911178 -0.21730885 1.1256914 0.011343265 49 37
-0.61275625 -0.21708296 1.1241956 0.010576474 49 37
-0.60785478 -0.21737278 1.1255982 0.0099442061 54 41
-0.60308617 -0.21771608 1.1275085 0.011165936 56 42
-0.59950531 -0.21849883 1.131928 0.0094778091 56 42
-0.59488201 -0.21891315 1.1346738 0.011472211 57 43
-0.58816278 -0.21855676 1.1336551 0.0088413153 63 47
-0.57887018 -0.21722767 1.1278086 0.011421051 65 49
-0.57239068 -0.21693818 1.1275688 0.0078912908 69 52
-0.56703562 -0.21707331 1.1297439 0.0079211295 72 54
-0.55988485 -0.21651684 1.1285138 0.0085482448 66 50
-0.55565083 -0.21708843 1.1333492 0.0075717955 74 56
-0.5504058 -0.21727279 1.1363404 0.0071301246 82 62
-0.54124814 -0.21590032 1.1313332 0.0077760331 86 65
-0.53316599 -0.21493225 1.1285595 0.0071326261 88 66
-0.52597749 -0.21430759 1.1276921 0.0078033162 89 67
-0.52057999 -0.21440704 1.1307323 0.0066364454 83 63
-0.51163936 -0.21303335 1.1260743 0.0061360942 97 73
-0.50450534 -0.21238981 1.1253195 0.0063432306 98 74
-0.50007588 -0.2128832 1.1306392 0.0068408549 97 73
-0.49339375 -0.21241795 1.1309047 0.0056022233 105 79
-0.48704252 -0.21208614 1.1318933 0.0054340158 110 83
-0.47902113 -0.21101087 1.1289053 0.0057016108 107 81
-0.47114819 -0.20997658 1.1261066 0.005553049 105 79
-0.46492332 -0.20966096 1.1271315 0.0065831752 115 87
-0.45839375 -0.20919868 1.1273352 0.0066452972 115 87
-0.4506979 -0.20818643 1.1245257 0.0068995985 90 68
-0.4431304 -0.20720932 1.1218429 0.0064563337 91 69
-0.43700457 -0.20689037 1.1226633 0.0053660646 112 85
-0.43126377 -0.20674799 1.1243871 0.0054406044 112 85
-0.42330611 -0.20552559 1.1201677 0.0055320053 112 85
-0.41877848 -0.20595849 1.124904 0.0053196605 116 88
-0.41223955 -0.20540059 1.1241677 0.0054089413 116 88
-0.40499851 -0.20447339 1.1213318 0.0057353294 114 86
-0.39822966 -0.20376281 1.1196033 0.0055695022 106 80
-0.39265835 -0.20365398 1.1211081 0.005540906 110 83
-0.38690826 -0.20344813 1.1220102 0.0055308822 113 86
-0.38140017 -0.20336552 1.123524 0.0060267677 110 83
-0.37578455 -0.20322244 1.1246358 0.0068260059 112 85
-0.37002555 -0.20299652 1.1252208 0.0053769113 113 86
-0.36389297 -0.20255609 1.1245455 0.0052317134 115 87
-0.35799021 -0.20223235 1.1244475 0.0052764844 120 91
-0.35149011 -0.2015563 1.1223187 0.0063898074 118 89
-0.34442228 -0.20052905 1.1181587 0.0070051914 111 84
-0.33882982 -0.20034213 1.1186137 0.0055197566 112 85
-0.33315942 -0.20010254 1.1187116 0.0063261092 106 80
-0.32762945 -0.19994095 1.1191843 0.0053435159 112 85
-0.32111782 -0.19916517 1.1161551 0.0062413951 120 91
-0.31696093 -0.1998484 1.1212457 0.0058098799 117 89
-0.31116161 -0.1995016 1.1205047 0.0054159253 116 88
-0.30571672 -0.19937411 1.1209391 0.0063415524 108 82
-0.30019408 -0.19919054 1.1210047 0.0060442463 113 86
-0.29609367 -0.19996092 1.1263912 0.0062558223 107 81
-0.28883117 -0.19858508 1.1196358 0.0055849762 110 83
-0.28339973 -0.19844069 1.119768 0.0067846421 110 83
-0.27763832 -0.19805548 1.1184927 0.0055837152 110 83
-0.27264953 -0.19821721 1.1202607 0.0066625504 109 82
-0.26727039 -0.19809596 1.1203861 0.0056480165 112 85
-0.26112956 -0.1973941 1.1171827 0.0057984567 112 85
-0.25587597 -0.19734806 1.1176473 0.0056629027 111 84
-0.25089857 -0.19751751 1.119294 0.0070251836 109 82
-0.24562316 -0.19745459 1.1195863 0.0060092732 106 80
-0.23953077 -0.19671799 1.1160203 0.0066216704 103 78
-0.23444769 -0.19679606 1.1170388 0.0060970965 105 79
-0.22976986 -0.19722551 1.1200198 0.005465691 112 85
-0.22480452 -0.19742234 1.1216489 0.0056583094 105 79
-0.21890253 -0.19678643 1.1185145 0.006237899 105 79
-0.21404348 -0.19708 1.1206326 0.0056936694 107 81
-0.20937242 -0.19756554 1.1238153 0.0058635571 97 73
-0.2039784 -0.19737625 1.1231326 0.0059167081 110 83
-0.19804449 -0.19664101 1.119315 0.0066077211 104 79
-0.1928446 -0.19661467 1.1195062 0.0056413477 114 86
-0.18775298 -0.1967003 1.1203114 0.0055137989 111 84
-0.18258631 -0.19670998 1.1206613 0.0056543993 109 82
-0.17754544 -0.1968597 1.1217875 0.005548188 112 85
-0.17233868 -0.19682892 1.1218648 0.0060077398 101 76
-0.16706401 -0.19671629 1.1214558 0.0057671238 102 77
-0.16183367 -0.19665031 1.1212939 0.0069282525 99 75
-0.15662828 -0.19661129 1.1212683 0.006115702 102 77
-0.15146516 -0.19662447 1.1215239 0.0065404354 92 70
-0.14623207 -0.19654457 1.1212326 0.0097358469 79 60
-0.14045949 -0.19570713 1.1166047 0.0085688522 90 68
-0.13497195 -0.19521818 1.1139504 0.0061149052 101 76
-0.13069701 -0.19651379 1.121467 0.0058956668 103 78
-0.12563181 -0.19667898 1.1225213 0.0073150047 100 76
-0.12022518 -0.19630088 1.1204636 0.007207375 98 74
-0.11513504 -0.19642879 1.1212837 0.0059388517 99 75
-0.11010811 -0.19668166 1.1228075 0.0060131252 100 76
-0.10472725 -0.19629604 1.1206776 0.0060336208 98 74
-0.099784277 -0.1967338 1.1232402 0.0060254214 100 76
-0.094283044 -0.19605856 1.1194407 0.0059903855 100 76
-0.089041486 -0.19587636 1.1184494 0.0076202289 101 76
-0.083770156 -0.19560225 1.1169269 0.0060025635 98 74
-0.078380786 -0.19499861 1.113517 0.0069898292 96 73
-0.073702537 -0.1962035 1.1204296 0.0060873809 99 75
-0.068539612 -0.19620244 1.1204511 0.0061247335 94 71
-0.063404702 -0.19628794 1.1209631 0.0057501858 105 79
-0.05823746 -0.19627963 1.1209357 0.0057709794 105 79
-0.053100187 -0.19638053 1.1215286 0.0072800228 105 79
-0.047927544 -0.19635829 1.1214159 0.0076467465 104 79
-0.0427127 -0.19613689 1.120163 0.0059453095 99 75
-0.037685852 -0.19683655 1.1241683 0.0060066143 101 76
-0.032428984 -0.19636633 1.1214907 0.0073139509 96 73
-0.027274428 -0.19645481 1.1220019 0.0066387113 99 75
-0.022120763 -0.19659258 1.1227937 0.0060798465 97 73
-0.016988905 -0.19706742 1.1255093 0.0059302552 100 76
-0.011801983 -0.19704016 1.125356 0.007873809 96 73
-0.0066047688 -0.1966636 1.123207 0.0063046622 98 74
-0.0014282917 -0.19641401 1.1217821 0.0062235463 98 74
0.0037394641 -0.19639623 1.1216805 0.007276149 94 71
0.0089206137 -0.1966944 1.1233822 0.0069011259 100 76
0.014111662 -0.19691174 1.1246216 0.005821208 104 79
0.019224852 -0.1962177 1.1206548 0.007308003 95 72
0.024364457 -0.19603005 1.1195787 0.0066531743 96 73
0.029513903 -0.19597329 1.1192495 0.0078030806 94 71
0.03461444 -0.195657 1.1174362 0.00624655 93 70
0.039901908 -0.19634239 1.1213423 0.0073751174 96 73
0.045121484 -0.19657488 1.1226594 0.0083290357 99 75
0.050387271 -0.19694015 1.1247329 0.0063455179 94 71
0.055566501 -0.19693057 1.1246628 0.0066338764 92 70
0.06067187 -0.19668317 1.1232316 0.0065605785 92 70
0.065828174 -0.1966268 1.1228881 0.0066661718 98 74
0.070943497 -0.19646515 1.1219397 0.0083646961 89 67
0.075932577 -0.19599959 1.1192515 0.0062212883 97 73
0.081085503 -0.19598931 1.1191585 0.0060824142 102 77
0.086662166 -0.19694318 1.1245655 0.0062158834 94 71
0.091662817 -0.19655427 1.1222992 0.0066202059 91 69
0.096544765 -0.19596595 1.118888 0.0060848924 100 76
0.10141222 -0.19540937 1.1156515 0.0062390631 99 75
0.10682218 -0.19590141 1.1183938 0.0070474581 90 68
0.11249941 -0.19681574 1.1235381 0.0069726692 89 67
0.1176074 -0.19669753 1.1227787 0.0062006041 92 70
0.12231009 -0.19594 1.1183604 0.006407293 91 69
0.12773766 -0.19635804 1.1206412 0.0065511465 91 69
0.13328685 -0.19692329 1.1237501 0.0079288213 96 73
0.13865013 -0.19718179 1.1250957 0.0063715219 100 76
0.14360061 -0.1968558 1.123093 0.0061773588 97 73
0.14834057 -0.19627394 1.119617 0.0077230711 78 59
0.15364796 -0.19645672 1.1204883 0.0073187551 79 60
0.15958759 -0.19740975 1.1257355 0.0081299888 95 72
0.16498098 -0.19764826 1.1268901 0.0090187406 89 67
0.1695793 -0.19694881 1.1226794 0.0065561808 93 70
0.1743836 -0.19652297 1.1200107 0.0071869162 94 71
0.17947744 -0.19643857 1.1192684 0.0078011369 92 70
0.18464132 -0.1964334 1.1189564 0.0068675322 90 68
0.18990178 -0.19652843 1.1191936 0.0076890416 94 71
0.19484757 -0.19630146 1.1175736 0.0081474409 91 69
0.20001931 -0.19630794 1.1172588 0.0063458551 94 71
0.20587419 -0.19696768 1.1206352 0.0084191412 97 73
0.21162786 -0.19750056 1.1232605 0.0064502051 93 70
0.2161727 -0.19690682 1.1194506 0.0065837023 96 73
0.2212626 -0.19682571 1.1185277 0.0078569362 99 75
0.22695637 -0.19727322 1.1205771 0.0063828155 95 72
0.23323742 -0.19819978 1.1253124 0.0067297365 103 78
0.2387041 -0.19840893 1.1259383 0.0072620981 91 69
0.24395922 -0.19843701 1.1255016 0.0064257788 93 70
0.2489865 -0.19828248 1.1239938 0.0062750271 96 73
0.25362906 -0.19783421 1.1207857 0.0073110024 96 73
0.25899887 -0.19795983 1.1207914 0.0068783606 85 64
0.26373363 -0.19760466 1.1180363 0.010146546 74 56
0.26904115 -0.19768409 1.1177002 0.0073718829 88 66
0.27386606 -0.19741261 1.1153382 0.0062130117 96 73
0.28266016 -0.19995913 1.1288437 0.0064647943 91 69
0.28652269 -0.19898765 1.1224359 0.006348188 96 73
0.29159942 -0.19887915 1.1208541 0.0062049739 98 74
0.29657838 -0.198709 1.1188781 0.0078770434 89 67
0.3015227 -0.19852188 1.1167586 0.0070840782 95 72
0.30869859 -0.19978541 1.1227425 0.0065274532 97 73
0.31426957 -0.19998533 1.1226881 0.0069896993 94 71
0.31987497 -0.20020021 1.122661 0.0061812312 97 73
0.32405904 -0.19953297 1.1176348 0.0075963251 100 76
0.33063781 -0.20033799 1.1207973 0.005877458 100 76
0.33580989 -0.20027879 1.1190616 0.0061627156 96 73
0.34100506 -0.20023498 1.1173536 0.0066281566 99 75
0.34786564 -0.20115554 1.1209595 0.0080630723 103 78
0.35378468 -0.20151223 1.121352 0.0077979402 104 79
0.35985848 -0.2019452 1.1220998 0.0065948931 102 77
0.3658973 -0.20234621 1.122599 0.0057845456 107 81
0.37300283 -0.20331722 1.1261842 0.006203847 101 76
0.37896395 -0.20364575 1.1261339 0.0058478066 103 78
0.38397154 -0.20345989 1.1231723 0.0056996262 108 82
0.3890284 -0.20330486 1.1203185 0.006916143 107 81
0.39495409 -0.20360193 1.1198891 0.0062853466 104 79
0.40107441 -0.20399007 1.1198889 0.0071561402 106 80
0.4081068 -0.20482568 1.1222686 0.0064960937 107 81
0.41571626 -0.20592538 1.1260114 0.0061961277 111 84
0.42315713 -0.20691435 1.1290637 0.005687336 105 79
0.42849565 -0.20686324 1.1263719 0.00559298 112 85
0.43459657 -0.20717686 1.1256069 0.006033354 115 87
0.44053802 -0.20740762 1.1243337 0.0058303061 110 83
0.44696632 -0.20785916 1.1242018 0.0056800535 108 82
0.45417348 -0.20865759 1.1258892 0.0062482245 96 73
0.46065295 -0.20910665 1.1256405 0.0064656031 98 74
0.46694851 -0.20946257 1.1248528 0.0059363907 111 84
0.47397107 -0.21013252 1.1257199 0.0056112921 107 81
0.47917587 -0.20999044 1.1222214 0.0063033067 102 77
0.48885188 -0.21178865 1.1290733 0.0056910114 103 78
0.4950648 -0.21206291 1.127789 0.0062338542 103 78
0.50056475 -0.21202905 1.124892 0.0063692522 88 66
0.50632387 -0.21210457 1.1226183 0.0084871231 81 61
0.51241827 -0.2123173 1.1211269 0.0067574359 84 63
0.51917166 -0.21279559 1.1211052 0.0064671189 91 69
0.52671826 -0.21358526 1.122802 0.0063510877 94 71
0.53398681 -0.21424676 1.1239192 0.0065130754 88 66
0.54195112 -0.21517061 1.1265239 0.0068916925 86 65
0.55010504 -0.21614991 1.1295449 0.0092851864 82 62
0.55804324 -0.21702527 1.1321673 0.0076680006 77 58
0.5657562 -0.21779615 1.1344085 0.0076941424 74 56
0.57013023 -0.21727909 1.1301304 0.0084101688 66 50
0.57464671 -0.21682613 1.1263955 0.0084562404 71 54
0.58161414 -0.21729769 1.1276762 0.011948217 62 47
0.58864105 -0.21778211 1.1292398 0.010824385 63 47
0.59469658 -0.21790129 1.1291338 0.0088500986 64 48
0.60171169 -0.21836637 1.1310495 0.011305445 57 43
-0.65609813 -0.20527335 1.1054443 0.01674084 32 24
-0.65946317 -0.20808548 1.1184064 0.017957423 28 21
-0.6584174 -0.20954223 1.1242008 0.022039391 32 24
-0.65395319 -0.20992692 1.1243949 0.01447146 37 28
-0.64808822 -0.20986472 1.1223698 0.013965155 36 27
-0.64503074 -0.21071859 1.1254237 0.012329333 43 32
-0.64488828 -0.2125484 1.1338663 0.014263246 44 33
-0.63469458 -0.21106857 1.1248528 0.013409936 50 38
-0.63012654 -0.2114497 1.1259716 0.012046217 45 34
-0.62383705 -0.21125481 1.1242385 0.01427498 49 37
-0.61753654 -0.2110526 1.1226889 0.013352236 52 39
-0.61174816 -0.21102326 1.1222858 0.010210642 54 41
-0.60625201 -0.21109512 1.1226505 0.010257707 48 36
-0.60164654 -0.21148147 1.1249202 0.012014099 60 45
-0.59781277 -0.21214904 1.1289209 0.0092640836 57 43
-0.59344715 -0.21263894 1.1322119 0.010871622 62 47
-0.58624476 -0.21211208 1.1303184 0.0089695211 65 49
-0.57832235 -0.21131173 1.1271851 0.0099711139 65 49
-0.5724318 -0.21124521 1.1281774 0.0080546886 72 54
-0.56383264 -0.21016772 1.1239685 0.0089098429 71 54
-0.55808175 -0.21014084 1.125564 0.0087924041 71 54
-0.55378234 -0.21066552 1.130299 0.007407472 79 60
-0.5462845 -0.20997177 1.1286607 0.0069540665 83 63
-0.53818125 -0.2090283 1.1258128 0.0086893858 86 65
-0.53034705 -0.20817043 1.1235387 0.0068316958 86 65
-0.52387458 -0.20783442 1.1241819 0.0084829787 83 63
-0.51820642 -0.20781362 1.1266228 0.0082387803 92 70
-0.51075363 -0.20706885 1.1252089 0.0069858925 101 76
-0.50344115 -0.20636515 1.1240619 0.0058102477 105 79
-0.49528274 -0.20529503 1.1209425 0.0058502946 104 79
-0.49130112 -0.20595153 1.1272764 0.0067913383 109 82
-0.48340204 -0.20496207 1.1246142 0.0052978913 117 89
-0.47625828 -0.20427367 1.1235858 0.0054560192 114 86
-0.47095531 -0.20436791 1.1268474 0.0052204197 118 89
-0.46307468 -0.20333257 1.1238507 0.0052588773 117 89
-0.45560887 -0.2024567 1.1216838 0.0066430094 104 79
-0.44844905 -0.20169713 1.1201059 0.0066328458 86 65
-0.44215956 -0.20131515 1.120569 0.0059784018 102 77
-0.43542826 -0.20071998 1.1197865 0.0053346339 113 86
-0.42799914 -0.1997841 1.1170329 0.0059431843 116 88
-0.42180121 -0.1994063 1.1173284 0.0055591483 111 84
-0.415225 -0.19883761 1.1164849 0.0052507799 119 90
-0.41005725 -0.1989373 1.1193278 0.0057178396 121 92
-0.40344894 -0.19833148 1.1181329 0.0052791624 118 89
-0.3974489 -0.19801237 1.1184801 0.0058075213 116 88
-0.39179587 -0.19785984 1.1196978 0.0060758283 110 83
-0.38710082 -0.19819355 1.1236035 0.0054491642 108 82
-0.37963575 -0.19709848 1.1193354 0.0062439684 107 81
-0.37497601 -0.19744945 1.1232063 0.0053989706 115 87
-0.3693724 -0.19730633 1.124203 0.0064889272 114 86
-0.36291066 -0.19669397 1.1224539 0.0054371119 119 90
-0.35650784 -0.19609579 1.1207108 0.0052950433 119 90
-0.349962 -0.1953997 1.1183343 0.0062422808 112 85
-0.34403783 -0.19503473 1.1177819 0.0053234282 118 89
-0.33792433 -0.19454938 1.1164719 0.005591474 117 89
-0.33303943 -0.19476719 1.1191355 0.0055587199 110 83
-0.32686159 -0.19422376 1.1173639 0.0053703869 115 87
-0.32089093 -0.19378768 1.116146 0.0063967062 119 90
-0.3150785 -0.19343425 1.1153432 0.0054115285 114 86
-0.31014463 -0.19361743 1.1175791 0.0068526892 106 80
-0.30450684 -0.19335984 1.1172171 0.0055687698 112 85
-0.29921639 -0.19331774 1.1180466 0.0062804385 110 83
-0.29362744 -0.19307779 1.1176805 0.0055639758 111 84
-0.288376 -0.19305512 1.118522 0.0055793854 109 82
-0.28223178 -0.19242296 1.1157815 0.0058628735 111 84
-0.27652359 -0.19206989 1.1146091 0.0056475475 107 81
-0.27121601 -0.19198693 1.1149579 0.0056405058 106 80
-0.26616821 -0.19208817 1.116334 0.0055710142 106 80
-0.26068276 -0.19187136 1.1158192 0.006663233 110 83
-0.25504074 -0.19152816 1.1145275 0.0057541956 107 81
-0.25058672 -0.19208138 1.1184139 0.0054542492 112 85
-0.24503063 -0.1917953 1.1173775 0.005831711 106 80
-0.23932463 -0.19137706 1.1155324 0.0056026289 109 82
-0.23333864 -0.19071147 1.1122079 0.0074359328 108 82
-0.2287662 -0.19119725 1.1155645 0.0057312055 105 79
-0.2239994 -0.19153924 1.1180521 0.0070985002 108 82
-0.21869794 -0.19142945 1.1178726 0.0056538898 110 83
-0.21312271 -0.1910689 1.1161981 0.005778132 107 81
-0.20754385 -0.19068709 1.1143694 0.0059952936 105 79
-0.20219344 -0.19050109 1.113657 0.0067368145 105 79
-0.1971152 -0.19056851 1.1144 0.0059490437 100 76
-0.19221288 -0.19081417 1.1161615 0.0058580795 104 79
-0.18706679 -0.19082473 1.1165247 0.0063752281 108 82
-0.18198019 -0.19089827 1.117234 0.0060348138 113 86
-0.17683908 -0.19091727 1.1176031 0.006015819 105 79
-0.17170419 -0.1909443 1.1179991 0.0073838476 103 78
-0.16674402 -0.19117334 1.119559 0.0059760693 102 77
-0.16166992 -0.19128226 1.1203977 0.0059565064 102 77
-0.15636548 -0.19111678 1.119612 0.0065025897 101 76
-0.15156811 -0.19158095 1.1224991 0.0084238369 91 69
-0.1462992 -0.19146089 1.1219482 0.0088541079 72 54
-0.13967863 -0.18949822 1.1105838 0.0065713297 90 68
-0.13440996 -0.18929009 1.1094875 0.0078212041 97 73
-0.12983917 -0.19008717 1.114271 0.006818566 100 76
-0.12491658 -0.19041367 1.1162853 0.0062980121 103 78
-0.1197725 -0.1904161 1.116389 0.0059756553 101 76
-0.11477902 -0.19066891 1.117951 0.0057420568 101 76
-0.10955658 -0.19054726 1.1173081 0.0062100007 97 73
-0.10471769 -0.19111359 1.1206914 0.0062182103 96 73
-0.099467598 -0.19094935 1.1197828 0.0061914674 98 74
-0.094328538 -0.19099189 1.1200799 0.0077186786 95 72
-0.089103602 -0.19085546 1.1193208 0.0059852586 101 76
-0.083796553 -0.19051555 1.1173625 0.0061320318 105 79
-0.07867793 -0.19058757 1.1178148 0.0058647408 104 79
-0.073615372 -0.19081502 1.1191745 0.0059555052 99 75
-0.068396568 -0.19064121 1.1181763 0.0070569045 101 76
-0.063183077 -0.19045511 1.1171025 0.0058106766 105 79
-0.058092602 -0.19063967 1.1181998 0.0066053756 103 78
-0.052900773 -0.19049524 1.1173645 0.0068793837 102 77
-0.047922861 -0.19117297 1.1213496 0.005957426 103 78
-0.042751007 -0.19114736 1.1212069 0.0064970083 99 75
-0.037371635 -0.19005933 1.1148309 0.006052291 95 72
-0.032263443 -0.19022347 1.1157981 0.0060427831 98 74
-0.027131455 -0.19028291 1.1161503 0.0066006081 102 77
-0.02202893 -0.19062513 1.1181602 0.0067292904 102 77
-0.016898269 -0.19085844 1.1195306 0.0060067801 99 75
-0.011748211 -0.19098143 1.1202532 0.0072250539 104 79
-0.0065948954 -0.1912027 1.1215518 0.0069977213 103 78
-0.0014276814 -0.1911642 1.1213262 0.0062478399 98 74
0.0037308906 -0.19079016 1.1191322 0.0068299263 103 78
0.0088990256 -0.19105543 1.1206878 0.0074370857 100 76
0.01403105 -0.19063528 1.1182222 0.0075785546 97 73
0.019122656 -0.19003914 1.114724 0.0068955277 93 70
0.024303949 -0.19039801 1.1168269 0.006469694 95 72
0.029409615 -0.19014254 1.1153253 0.0065973848 92 70
0.03462838 -0.19058554 1.1179199 0.0062355418 96 73
0.039811965 -0.19074526 1.1188517 0.006258741 99 75
0.044951916 -0.19068325 1.1184813 0.0062882095 96 73
0.050126415 -0.19076549 1.1189551 0.0077721719 95 72
0.055458616 -0.19137658 1.122529 0.0061613498 100 76
0.060502227 -0.19097251 1.1201457 0.0065427963 93 70
0.065530024 -0.19058599 1.1178626 0.0066367323 87 66
0.070555523 -0.19024956 1.1158701 0.0063703409 94 71
0.075563043 -0.18991363 1.1138767 0.0074102725 93 70
0.080904737 -0.19040693 1.1167426 0.006119153 95 72
0.086135983 -0.19059686 1.1178242 0.0083836354 99 75
