# .PCD v0.7 - Point Cloud Data file format
VERSION 0.7
FIELDS x y z noise intensity gray
SIZE 4 4 4 4 2 1
TYPE F F F F U U
COUNT 1 1 1 1 1 1
WIDTH 846
HEIGHT 1
VIEWPOINT 0 0 0 1 0 0 0
POINTS 846
DATA ascii
0.29247022 -0.0028341203 0.56021935 0.0027956867 249 56
0.29532447 -0.0028344519 0.55923438 0.0029898486 246 55
-0.34145749 -1.4757185e-05 0.56994605 0.0046870979 124 27
-0.33442745 -1.4576601e-05 0.56237835 0.0055871322 129 29
-0.33063668 -1.4535315e-05 0.56030905 0.0045946818 132 29
-0.32807648 -1.4547879e-05 0.56043595 0.0050855847 142 32
-0.32615879 -1.4589403e-05 0.5618006 0.0041362219 149 33
-0.32349601 -1.459804e-05 0.56202477 0.0041373326 151 34
-0.32091197 -1.4610409e-05 0.56252182 0.0040932 161 36
-0.31718296 -1.4570411e-05 0.56113291 0.0036453346 176 39
-0.31413481 -1.4561244e-05 0.56106174 0.003588533 181 40
-0.31260312 -1.4622847e-05 0.56384909 0.0038315041 193 43
-0.31048384 -1.4657848e-05 0.56574243 0.003270678 203 45
-0.30712703 -1.4634533e-05 0.56551075 0.0033052133 216 48
-0.30214465 -1.4532592e-05 0.5623551 0.0033629371 215 48
-0.29776001 -1.4457738e-05 0.56035131 0.0030413759 220 49
-0.29608577 -1.4514315e-05 0.56354696 0.0030613397 223 50
-0.2928316 -1.4493785e-05 0.56384933 0.0032879254 253 57
-0.28836155 -1.4412089e-05 0.56185269 0.0030884389 263 59
-0.28481281 -1.4375279e-05 0.56167442 0.0026994043 276 62
-0.28156632 -1.4353142e-05 0.56213218 0.0027640203 280 63
-0.27854672 -1.434224e-05 0.5630843 0.0025458208 287 64
-0.27593249 -1.4352204e-05 0.5649026 0.0024323754 304 68
-0.27233818 -1.431087e-05 0.56473523 0.0024139811 311 70
-0.26955292 -1.4311634e-05 0.56625217 0.0023883509 311 70
-0.26439846 -1.4185302e-05 0.56274503 0.0023772246 310 69
-0.2610597 -1.4154739e-05 0.56302994 0.0023119352 326 73
-0.2576288 -1.4118472e-05 0.56308252 0.0025739721 326 73
-0.25428447 -1.408621e-05 0.56328243 0.0022732711 337 76
-0.250687 -1.4039069e-05 0.56286764 0.0022399651 344 77
-0.24707758 -1.3990207e-05 0.56235737 0.0023808158 360 81
-0.24347414 -1.3940591e-05 0.56178534 0.0021270888 373 84
-0.23932222 -1.385809e-05 0.55984986 0.0021160869 375 84
-0.23077667 -1.351637e-05 0.54737234 0.0019842174 418 94
nan nan nan 0 533 120
-0.17184253 -1.0300702e-05 0.41910031 0.0011510389 990 223
-0.17026134 -1.0327022e-05 0.42111182 0.0011505542 987 222
-0.17460175 -1.0717456e-05 0.43798086 0.0013277715 823 185
nan nan nan 0 678 153
-0.19076373 -1.1997655e-05 0.49232268 0.001574749 595 134
-0.19060265 -1.2136853e-05 0.49900848 0.001611125 586 132
-0.1896541 -1.2228788e-05 0.50373536 0.0015808606 604 136
-0.18891536 -1.2336771e-05 0.50910395 0.0015628804 603 136
-0.1881437 -1.2445371e-05 0.51447952 0.0016292027 613 138
-0.18713973 -1.2541253e-05 0.51930881 0.001547898 606 136
-0.18596831 -1.2628308e-05 0.5237506 0.0015483575 618 139
-0.18617457 -1.2812521e-05 0.53220493 0.0016829575 616 139
-0.18402085 -1.2837131e-05 0.53400826 0.001550807 606 136
-0.18430425 -1.3034785e-05 0.54298919 0.0015583038 597 134
-0.18226397 -1.307134e-05 0.54523873 0.0015683938 596 134
-0.18043077 -1.3123999e-05 0.54813153 0.0016454685 585 132
-0.17952861 -1.3246874e-05 0.55393326 0.001592145 574 129
-0.17761329 -1.3297496e-05 0.55668992 0.0016794309 586 132
-0.1760034 -1.3372833e-05 0.56045526 0.0015923248 606 136
-0.17370774 -1.3397548e-05 0.56207269 0.0015900549 652 147
-0.17029588 -1.3335614e-05 0.56002295 0.0013655182 755 170
-0.16750638 -1.3321247e-05 0.55993813 0.0012735866 830 187
-0.16482319 -1.3315014e-05 0.56016582 0.0013783331 832 187
-0.16242637 -1.3332089e-05 0.56134671 0.0013052137 825 186
-0.16003451 -1.335013e-05 0.56254238 0.0013115824 803 181
-0.15738161 -1.3346633e-05 0.56280476 0.0014163336 786 177
-0.15457457 -1.3329731e-05 0.56247574 0.001367263 793 178
-0.15211155 -1.334242e-05 0.56337065 0.0013149059 799 180
-0.14916985 -1.3312831e-05 0.56245619 0.0013202641 785 177
-0.14621386 -1.3280897e-05 0.56141818 0.0012795418 823 185
-0.13980994 -1.2928956e-05 0.54682207 0.0012028978 927 209
-0.13527215 -1.2739796e-05 0.53907835 0.0012124585 1022 230
-0.13291399 -1.2752665e-05 0.53986001 0.0012232817 965 217
-0.13058141 -1.2768528e-05 0.54074979 0.0012251479 891 201
-0.1274475 -1.2705123e-05 0.53826356 0.0012533208 901 203
-0.12474297 -1.2682855e-05 0.53750104 0.0012549511 850 191
-0.12198237 -1.2653867e-05 0.53643632 0.0013221077 850 191
-0.11924008 -1.2625615e-05 0.53538603 0.0012870106 821 185
-0.11636531 -1.2581844e-05 0.53366131 0.0013042219 806 181
-0.1127011 -1.244898e-05 0.52814132 0.0013408256 819 184
-0.10882461 -1.228628e-05 0.52133924 0.0012699637 833 187
-0.10591229 -1.2227545e-05 0.51893371 0.0012722961 841 189
-0.10311052 -1.2179152e-05 0.51695424 0.0013787034 809 182
-0.099343985 -1.2011819e-05 0.50991327 0.0013343054 850 191
-0.096569225 -1.1959201e-05 0.50773007 0.001297023 854 192
-0.09400969 -1.1931284e-05 0.50658494 0.0012999903 803 181
-0.091437437 -1.1900292e-05 0.50529945 0.0013435577 843 190
-0.088355772 -1.1799651e-05 0.50104719 0.0013764256 823 185
-0.085907266 -1.1780432e-05 0.50024372 0.001339956 825 186
-0.083289742 -1.1736338e-05 0.49837616 0.0012619924 846 190
-0.080722637 -1.169705e-05 0.49670538 0.0012931885 842 190
-0.078166805 -1.1657151e-05 0.49500179 0.0012909581 849 191
-0.075608119 -1.1614417e-05 0.49317181 0.0012727281 857 193
-0.073206738 -1.1593947e-05 0.49228165 0.0012503674 863 194
-0.070913255 -1.1589801e-05 0.49207941 0.0012388255 870 196
-0.068640888 -1.1588946e-05 0.49201238 0.0011945503 921 207
-0.06649182 -1.1609564e-05 0.49285272 0.0012567985 964 217
-0.064542867 -1.1667815e-05 0.49528661 0.0012118738 977 220
-0.062524281 -1.1717287e-05 0.49734434 0.0012362176 980 221
-0.06032734 -1.1735829e-05 0.49808612 0.0011796501 946 213
-0.058892276 -1.1909912e-05 0.50542617 0.001330616 773 174
-0.056689415 -1.1936669e-05 0.50651127 0.0013335524 767 173
-0.054256666 -1.1915238e-05 0.50555009 0.0013217735 787 177
-0.051725492 -1.1869301e-05 0.50354809 0.0013976514 716 161
-0.049322631 -1.1849872e-05 0.50267047 0.0014350264 693 156
-0.046284847 -1.166846e-05 0.49492207 0.0013777665 768 173
-0.04361685 -1.1566289e-05 0.49053609 0.0012262646 890 200
-0.041334476 -1.1560788e-05 0.4902508 0.0012589566 870 196
-0.039026599 -1.1547107e-05 0.48961946 0.0012282002 884 199
-0.036744192 -1.1539742e-05 0.48925704 0.001230991 950 214
-0.03448623 -1.1539593e-05 0.48920202 0.0011514884 1000 225
-0.032171965 -1.1519263e-05 0.48829323 0.0011883202 979 220
-0.030061953 -1.1574515e-05 0.49059001 0.0011717634 962 217
-0.027815334 -1.1581887e-05 0.49085942 0.0012069227 922 208
-0.026061673 -1.1814026e-05 0.50065631 0.0013075689 803 181
-0.02431839 -1.2096509e-05 0.51258767 0.0014019558 745 168
-0.022590304 -1.244827e-05 0.52745581 0.0014173617 704 158
-0.020259498 -1.2512779e-05 0.53015453 0.001551055 675 152
-0.017747615 -1.2467813e-05 0.52821827 0.0013072449 820 185
-0.015270437 -1.2436781e-05 0.52687627 0.001262182 926 208
-0.012822783 -1.242259e-05 0.52625155 0.0011337467 1010 227
-0.01035885 -1.2382301e-05 0.52452523 0.0010785176 1101 248
-0.0079283966 -1.2369658e-05 0.523974 0.001121818 1115 251
-0.005511649 -1.2376678e-05 0.52425987 0.0010939848 1066 240
-0.003092055 -1.23833e-05 0.52453297 0.0011058266 1048 236
-0.0006687119 -1.2368511e-05 0.52390337 0.0012054665 996 224
0.0017496392 -1.2359335e-05 0.52351552 0.0011320271 1007 227
0.0041635423 -1.2347616e-05 0.52302426 0.0011360799 1007 227
0.0065828445 -1.2354634e-05 0.52333069 0.0011832487 930 209
0.0090541849 -1.242932e-05 0.52650779 0.0012498662 857 193
0.011584532 -1.2536238e-05 0.5310545 0.0014001731 752 169
0.014069607 -1.2565362e-05 0.53230983 0.0014366467 735 165
0.016531851 -1.2568469e-05 0.53246701 0.0014639198 730 164
0.018810276 -1.2449113e-05 0.52743942 0.0014001096 783 176
0.020995624 -1.2302584e-05 0.52126354 0.0012947406 805 181
0.023099931 -1.2143587e-05 0.51456189 0.0012601129 854 192
0.02532557 -1.2072081e-05 0.51156992 0.0012198503 905 204
0.027631247 -1.2047672e-05 0.51057637 0.0012131551 907 204
0.030038379 -1.2067861e-05 0.51147544 0.0012178946 939 211
0.032492887 -1.2102752e-05 0.51300043 0.0011836637 939 211
0.0352103 -1.2224176e-05 0.51819605 0.0011756448 952 214
0.037662867 -1.2244057e-05 0.51908958 0.001138723 1013 228
0.039891582 -1.2193139e-05 0.51698303 0.001086337 1090 245
0.042163033 -1.2160292e-05 0.51564366 0.0011109152 1157 255
0.044469364 -1.2140476e-05 0.51485759 0.0010754307 1174 255
0.046777606 -1.2123162e-05 0.5141781 0.0010965094 1102 248
0.049052913 -1.20994e-05 0.51322502 0.0011881111 1000 225
0.051275682 -1.2065459e-05 0.51184005 0.0011539662 989 223
0.053619657 -1.2061772e-05 0.5117377 0.0011951195 978 220
0.055951733 -1.2055832e-05 0.51153892 0.0012120011 970 218
0.059645701 -1.233195e-05 0.5233078 0.0012569274 931 210
0.062272251 -1.2374486e-05 0.52516419 0.0012302803 923 208
0.06478937 -1.2392905e-05 0.52599508 0.0011440197 992 223
0.06910076 -1.2740826e-05 0.54080981 0.0012249284 883 199
0.075024955 -1.3351537e-05 0.56677932 0.0013554625 753 169
0.076918364 -1.3227964e-05 0.56157583 0.0012353898 877 197
0.079634495 -1.3249319e-05 0.5625205 0.0012377114 885 199
0.082741067 -1.3332238e-05 0.56607395 0.0012463547 859 193
0.085182115 -1.330613e-05 0.56499279 0.0012721376 884 199
0.087593384 -1.3277057e-05 0.56377965 0.0012154354 931 210
0.089481406 -1.3172631e-05 0.55935973 0.0011211623 1023 230
0.091800474 -1.3135729e-05 0.55779988 0.001070159 1104 249
0.09412194 -1.3101169e-05 0.55633163 0.0010500145 1150 255
0.096622147 -1.3092665e-05 0.55596125 0.0010897315 1181 255
0.099098176 -1.3081406e-05 0.55546504 0.0010315562 1184 255
0.10163485 -1.3078518e-05 0.5553146 0.0010284348 1199 255
0.10413214 -1.3070829e-05 0.55495012 0.001087621 1190 255
0.10667434 -1.306901e-05 0.55482405 0.0010808411 1167 255
0.10951672 -1.3103192e-05 0.55621457 0.0010901628 1154 255
0.11207557 -1.3102663e-05 0.55611926 0.0010599694 1126 254
0.11455491 -1.309307e-05 0.55562651 0.0010567241 1142 255
0.11701538 -1.3081787e-05 0.55504864 0.001084553 1087 245
0.11909483 -1.3029302e-05 0.55270892 0.0011298272 1008 227
0.12130145 -1.2992639e-05 0.55102646 0.0011209222 1026 231
0.12260029 -1.2862244e-05 0.54535502 0.0010850489 1094 246
0.12400116 -1.274758e-05 0.54033732 0.0010927052 1148 255
0.12630793 -1.2728732e-05 0.5393663 0.001031017 1202 255
0.12889013 -1.2737832e-05 0.53956228 0.001090935 1166 255
0.13157353 -1.2756397e-05 0.54014087 0.0011704995 969 218
0.13597329 -1.2937582e-05 0.54758292 0.0013035035 798 180
0.13954206 -1.3034521e-05 0.55143458 0.0014842104 708 159
0.1422689 -1.3050749e-05 0.55184889 0.0014908157 658 148
0.14447846 -1.3019789e-05 0.55024678 0.0016001565 628 141
0.14608672 -1.2936654e-05 0.54642034 0.0015241012 625 141
0.14701518 -1.2797175e-05 0.54019684 0.001535956 621 140
0.14849529 -1.2709582e-05 0.53614652 0.0015468971 610 137
0.14901905 -1.2544372e-05 0.52880549 0.0016902905 614 138
0.14908051 -1.2346228e-05 0.52006298 0.0015044892 639 144
0.14907368 -1.2148833e-05 0.51134038 0.0015665093 630 142
0.15078844 -1.2095737e-05 0.5086748 0.0016321857 636 143
0.15167905 -1.1979194e-05 0.50332165 0.00152423 626 141
0.15267821 -1.1874637e-05 0.49845466 0.0016490937 644 145
0.15460499 -1.184428e-05 0.49668127 0.0015273797 631 142
0.15380989 -1.1609376e-05 0.4863148 0.001668342 638 143
0.15177269 -1.128892e-05 0.47236282 0.0014246389 702 158
0.14943565 -1.0955674e-05 0.45787969 0.0013796012 743 167
0.14593422 -1.0547692e-05 0.44028354 0.0012903397 865 195
0.14296392 -1.0188942e-05 0.42475644 0.0010933968 1094 246
0.14227971 -1.0000743e-05 0.41634318 0.0011276584 1029 232
0.14673088 -1.0173717e-05 0.42294016 0.0020690688 443 99
nan nan nan 0 130 29
0.19453134 -1.3131762e-05 0.5442462 0.0033756131 197 44
0.200946 -1.338798e-05 0.55396146 0.0027402076 258 58
0.20487514 -1.3474139e-05 0.55657959 0.002702802 304 68
0.20819649 -1.3518644e-05 0.55743015 0.0024829756 353 79
0.21086486 -1.3520164e-05 0.55646688 0.0021234406 369 83
0.2144416 -1.3579169e-05 0.55782688 0.0021112056 368 83
0.2177552 -1.3620271e-05 0.55840558 0.0020680397 389 87
0.22061285 -1.3632204e-05 0.55774623 0.0020198985 394 88
0.2246621 -1.3716604e-05 0.56000626 0.0021033294 394 88
0.22802846 -1.3757809e-05 0.5604552 0.0022318342 382 86
0.23101868 -1.3775629e-05 0.55991066 0.002027855 399 90
0.23393713 -1.3788803e-05 0.55914056 0.0020661203 400 90
0.23694633 -1.3806965e-05 0.55853772 0.0022410203 378 85
0.24020857 -1.3839298e-05 0.55847341 0.0021282295 367 82
0.24410333 -1.3906945e-05 0.55979764 0.0020820589 379 85
0.24712104 -1.3923684e-05 0.55904078 0.0020697571 383 86
0.24999201 -1.393188e-05 0.55791926 0.0021674794 360 81
0.25299478 -1.3947168e-05 0.55706513 0.0021740021 356 80
0.25616983 -1.3971523e-05 0.55656028 0.0022148716 345 77
0.25898537 -1.3975963e-05 0.55525696 0.0025462303 333 75
0.26194203 -1.3987847e-05 0.55425245 0.0026246547 329 74
0.26539335 -1.4025627e-05 0.55428165 0.0022700075 342 77
0.27005562 -1.4125977e-05 0.55679077 0.0026709614 311 70
0.27351412 -1.4161963e-05 0.55677974 0.0026913274 295 66
0.27668229 -1.4182348e-05 0.55619061 0.0026371877 288 64
0.28111643 -1.4266574e-05 0.55814618 0.0028650451 269 60
0.28313851 -1.4227938e-05 0.55535221 0.0026908761 266 60
0.28631383 -1.424744e-05 0.55490124 0.0027482556 263 59
0.29261404 -1.4420565e-05 0.56050014 0.0027979538 257 57
0.29272282 -1.4288174e-05 0.55431265 0.0028185325 246 55
-0.33502612 0.0028180906 0.55921376 0.0045584822 134 30
-0.33264887 0.002821954 0.55938977 0.0049388376 140 31
-0.33040905 0.0028270588 0.5599252 0.0047820653 139 31
-0.32862395 0.0028361767 0.56137252 0.0044528628 144 32
-0.32558072 0.002834501 0.56080568 0.0040800497 151 34
-0.32285148 0.0028355531 0.56090516 0.0045638406 148 33
-0.31977627 0.0028335587 0.56053072 0.0046583898 157 35
-0.31631595 0.0028280851 0.55959809 0.0038400234 168 37
-0.31354061 0.0028286921 0.55999893 0.0035270178 184 41
-0.31137207 0.0028348349 0.56162643 0.0038123257 197 44
-0.30980128 0.0028465828 0.56449592 0.0030665202 221 49
-0.30596912 0.0028375785 0.56337547 0.0030807052 219 49
-0.30041128 0.0028122498 0.55912507 0.0030629756 227 51
-0.29795611 0.0028157604 0.56071585 0.0033170106 229 51
-0.29536411 0.0028180336 0.56216836 0.0034948022 233 52
-0.29262626 0.0028189451 0.56344849 0.0031134663 251 56
-0.28709397 0.002792692 0.55937696 0.0026192856 278 62
-0.28422832 0.0027921167 0.56051552 0.0027789709 278 62
-0.2814253 0.0027921507 0.56184393 0.0028629901 289 65
-0.27776271 0.0027835714 0.5614925 0.0024592646 300 67
-0.27470142 0.0027809048 0.56237513 0.0026612936 308 69
-0.27154419 0.0027772018 0.56308138 0.0023693675 315 71
-0.26699919 0.0027590818 0.56087989 0.0025625341 320 72
-0.26379803 0.0027546138 0.56145936 0.0025813768 318 71
-0.26028264 0.0027467343 0.56134617 0.0022966883 338 76
-0.2568824 0.0027399147 0.56144327 0.0023318054 326 73
-0.25363302 0.0027345738 0.56183153 0.0024189672 354 79
-0.25032869 0.0027285162 0.56205511 0.0023963577 359 81
-0.24646132 0.0027161199 0.56094676 0.0021541149 365 82
-0.24226673 0.0026998001 0.55899161 0.0023332573 370 83
-0.23813494 0.0026838174 0.55706489 0.0021289091 372 83
-0.23065896 0.0026293474 0.5470857 0.0022000361 412 92
nan nan nan 0 576 129
-0.17156708 0.0020016106 0.41842303 0.0012111218 956 215
-0.17000887 0.0020069664 0.42048192 0.0012297496 971 219
nan nan nan 0 798 180
-0.18701753 0.0022614216 0.4758178 0.0015981436 650 146
-0.19070506 0.0023343838 0.49216536 0.001569126 600 135
-0.19080934 0.0023647551 0.49954373 0.0017349819 585 132
-0.18908052 0.0023728886 0.50220603 0.0015605687 603 136
-0.18880638 0.0023997189 0.50880462 0.0016084329 593 133
-0.18780154 0.0024178356 0.51353824 0.0016225262 606 136
-0.18747987 0.0024453381 0.5202471 0.0015508735 612 138
-0.18636245 0.0024630546 0.52485526 0.0015693066 599 135
-0.18448924 0.0024711245 0.52738178 0.0015383686 618 139
-0.18319432 0.0024872671 0.53160465 0.0015436824 612 138
-0.18417647 0.0025351995 0.54260767 0.0015813074 595 134
-0.18192571 0.0025393513 0.54422188 0.0015929312 593 133
-0.18022346 0.0025513873 0.54749697 0.0015778923 582 131
-0.17914052 0.0025726638 0.55273122 0.0016754162 583 131
-0.17797647 0.0025933823 0.5578239 0.0015958232 585 132
-0.17583475 0.0026002582 0.55991387 0.0015462139 614 138
-0.17377792 0.0026086164 0.5622955 0.0014763817 657 148
-0.16989671 0.0025894248 0.55870616 0.0013519409 751 169
-0.16722296 0.0025883254 0.55898684 0.0012986021 800 180
-0.16425766 0.0025826073 0.55824012 0.0013670299 797 179
-0.16194597 0.0025871475 0.55968273 0.0013158644 784 176
-0.15971285 0.0025931115 0.56140834 0.0013842843 771 173
-0.1570286 0.0025918267 0.56153917 0.001321382 792 178
-0.15451109 0.002593298 0.56224161 0.0013513269 758 171
-0.15168609 0.0025895697 0.56179196 0.0013048019 794 179
-0.14887924 0.0025860269 0.56135774 0.0014126503 807 182
-0.14411139 0.0025476902 0.5533427 0.0013268839 882 199
-0.13868442 0.0024961028 0.54241753 0.0011981479 1002 226
-0.13570876 0.0024875479 0.54081607 0.0011168718 1041 234
-0.13287601 0.00248134 0.53970355 0.0011554359 985 222
-0.13033588 0.0024804638 0.53973109 0.0012303742 942 212
-0.12745775 0.0024729955 0.53830504 0.0012483388 906 204
-0.12468788 0.002467372 0.53726208 0.0012727563 871 196
-0.12186787 0.0024605081 0.53593117 0.0012954631 836 188
-0.11923593 0.0024572362 0.53536594 0.0013082745 809 182
-0.11631072 0.0024476536 0.53340966 0.0013079437 795 179
-0.11173782 0.0024022334 0.52362603 0.0013390292 826 186
-0.10848929 0.0023839087 0.51973182 0.0013651637 859 193
-0.10601215 0.0023820889 0.51942205 0.001383619 833 187
-0.10187335 0.002341985 0.51075077 0.0012666679 853 192
-0.099474303 0.0023409256 0.51058149 0.0012414785 869 196
-0.096845351 0.0023342732 0.50918132 0.0013162681 836 188
-0.094112389 0.0023247208 0.50713801 0.0013551674 828 186
-0.090669632 0.0022967029 0.50105608 0.0013223517 838 189
-0.087992422 0.0022871196 0.49898648 0.0012717778 838 189
-0.08555337 0.0022833778 0.49818283 0.001254024 856 193
-0.083032593 0.0022771889 0.49683744 0.0012833923 840 189
-0.080541156 0.0022714769 0.49558872 0.0012937672 847 191
-0.077840693 0.0022593644 0.49293691 0.0012769517 847 191
-0.075396292 0.002254179 0.49179041 0.0012910475 814 183
-0.073031254 0.0022511189 0.49110189 0.0012874521 849 191
-0.070569552 0.002244788 0.48969483 0.0012729502 908 204
-0.068427831 0.002248554 0.49048576 0.001233872 961 216
-0.066304617 0.002253206 0.49146569 0.0012678482 928 209
-0.064384684 0.0022653393 0.49407348 0.0012308073 978 220
-0.062449649 0.0022778118 0.49675149 0.0011937846 998 225
-0.060360122 0.0022853836 0.49835762 0.0012153201 929 209
-0.058983013 0.0023215958 0.5062058 0.0014448476 745 168
-0.056448948 0.0023133776 0.50436378 0.0013610207 815 183
-0.053983241 0.0023073743 0.50300342 0.0014071221 794 179
-0.051035997 0.0022793263 0.49683705 0.0013450857 800 180
-0.04862877 0.0022738934 0.49560019 0.0015011816 742 167
-0.046119183 0.0022629022 0.49315193 0.0013638827 749 169
-0.043517772 0.0022460311 0.48942301 0.0012824784 833 187
-0.041172821 0.0022412743 0.48833486 0.001213296 905 204
-0.038970184 0.0022441628 0.48891312 0.0011684834 966 217
-0.036742084 0.0022458495 0.48923051 0.0011627212 971 219
-0.034347687 0.0022369267 0.48723832 0.0011291115 1015 229
-0.032040037 0.0022327988 0.48629248 0.001127108 1022 230
-0.029757615 0.0022299401 0.48562509 0.001126996 1026 231
-0.027822306 0.0022547459 0.49098411 0.0012074246 961 216
-0.025428535 0.0022435018 0.4884952 0.0011962369 918 207
-0.023579942 0.0022828502 0.49702439 0.0012473305 864 194
-0.02190464 0.0023492675 0.51144814 0.0013502705 775 174
-0.019943548 0.0023973805 0.52188861 0.0013963904 722 162
-0.017755583 0.0024276976 0.5284574 0.0014215899 697 157
-0.015312796 0.0024272832 0.52833974 0.0012725565 837 188
-0.012821976 0.0024176547 0.52622044 0.0012023227 911 205
-0.010357847 0.0024097324 0.52447647 0.0011642857 1052 237
-0.0079344101 0.0024093303 0.52437347 0.0010944095 1073 242
-0.0055120727 0.0024090563 0.52430224 0.0011685932 1030 232
-0.0030895048 0.0024081722 0.52410239 0.0011296747 1019 229
-0.00066862808 0.0024069797 0.52383971 0.0012190591 990 223
0.0017501196 0.0024061559 0.52366138 0.0011739045 954 215
0.0041654101 0.002404293 0.52326095 0.0012016705 927 209
0.0065841037 0.0024050409 0.52343297 0.0012208337 885 199
0.0090824449 0.0024266674 0.52815318 0.0013516734 784 176
0.011603767 0.0024439772 0.5319382 0.0013772864 738 166
0.014040693 0.0024405688 0.53121793 0.0013796237 731 164
0.016343586 0.0024183418 0.52640516 0.0013762078 783 176
0.018584587 0.0023938979 0.5211131 0.0012866902 826 186
0.020807976 0.0023730493 0.51660663 0.0013420968 832 187
0.022953309 0.0023485026 0.51129764 0.0013242116 887 200
0.025081543 0.0023269479 0.50664252 0.0011722925 959 216
0.027481413 0.0023321214 0.50780946 0.0012183129 939 211
0.029871186 0.0023356925 0.50863034 0.0012404482 920 207
0.032636266 0.0023659507 0.51526576 0.0011948808 930 209
0.035257112 0.0023823529 0.51888669 0.00118509 939 211
0.037604507 0.0023793662 0.51828676 0.0011808685 1042 235
0.039835811 0.0023698313 0.51626188 0.0011119326 1138 255
0.042158332 0.0023664916 0.51558757 0.0010368861 1178 255
0.044476938 0.0023633011 0.51494664 0.0010837385 1164 255
0.046770576 0.0023591747 0.51410228 0.0011444917 1088 245
0.049036417 0.002354112 0.51305383 0.0012088191 1009 227
0.051230889 0.002346247 0.51139414 0.0011851724 995 224
0.053536002 0.0023439187 0.51094055 0.0011514217 984 222
0.05593992 0.0023459296 0.51143199 0.0011559079 977 220
0.059709281 0.0024027238 0.52386659 0.0012043612 909 205
0.062277906 0.0024086628 0.52521288 0.0011711969 954 215
0.064852476 0.0024143786 0.52650839 0.0011520179 984 222
0.069239169 0.0024847121 0.5418939 0.0012609652 881 198
0.074407309 0.0025772143 0.56211406 0.0013352321 778 175
0.076101013 0.0025471991 0.55560917 0.0012091765 910 205
0.078992493 0.0025579236 0.55798602 0.0012685588 907 204
0.08194156 0.0025697779 0.56060451 0.0012525861 878 198
0.084998459 0.0025841864 0.56377506 0.0012657125 839 189
0.087538496 0.0025824923 0.56342661 0.0012542888 858 193
0.090208158 0.0025846099 0.56390291 0.0012021215 916 206
0.092079937 0.0025643879 0.55949795 0.001190078 953 215
0.094378337 0.0025568248 0.55784696 0.0011474228 1029 232
0.0966627 0.0025492932 0.55619442 0.0010869174 1118 252
0.099092454 0.002545885 0.55543262 0.0010710272 1173 255
0.10150375 0.0025421868 0.55459797 0.0010198978 1213 255
0.10394347 0.0025393642 0.55394405 0.0010227512 1204 255
0.10638631 0.0025367516 0.5533253 0.0010623598 1221 255
0.1090788 0.0025400745 0.55398971 0.0010271085 1198 255
0.11200836 0.0025486401 0.55578482 0.0010668533 1166 255
0.11452983 0.0025477447 0.5555039 0.0010500685 1147 255
0.11694031 0.0025444729 0.55469143 0.0010553738 1137 255
0.11949173 0.0025443425 0.55454975 0.0011203692 1023 230
0.12120315 0.0025267059 0.55057842 0.0011354835 1032 232
0.12224198 0.0024960602 0.54375958 0.0011075039 1084 244
0.12375523 0.002476139 0.53926408 0.0010415673 1163 255
0.12604019 0.0024721399 0.53822118 0.0010070703 1250 255
0.12846163 0.0024709203 0.53776652 0.00098502182 1279 255
0.13121484 0.0024760077 0.53866637 0.0010708651 1105 249
0.13502815 0.0025005366 0.54377449 0.0012487557 849 191
0.13941152 0.0025345334 0.55091625 0.0014662971 744 167
0.14224339 0.0025396096 0.55174738 0.0014630022 664 149
0.14412315 0.0025278081 0.54889101 0.0015616127 630 142
0.14595981 0.0025156711 0.54594284 0.0015209864 623 140
0.14690034 0.0024887668 0.53977203 0.0015859482 628 141
0.14732991 0.0024542513 0.53193605 0.0015370813 616 139
0.14928469 0.0024458615 0.52974498 0.0015391377 614 138
0.14960994 0.0024114777 0.52190667 0.001626133 614 138
0.14949188 0.0023711589 0.51277161 0.0015085437 632 142
0.15138941 0.0023635742 0.51069868 0.0015673066 637 143
0.15211968 0.0023382818 0.50478023 0.0015768819 640 144
0.15306471 0.0023170095 0.49971282 0.0014965853 639 144
0.15403984 0.0022968238 0.4948619 0.0015277014 622 140
0.15382129 0.0022596985 0.48634696 0.0015958408 648 146
0.15371974 0.0022253473 0.47841859 0.0015966753 665 150
0.15170151 0.0021646325 0.46481845 0.0014788267 724 163
0.14884858 0.0020938928 0.44907224 0.0012927679 816 184
0.14314277 0.001985553 0.42528397 0.0011088025 1061 239
0.14214107 0.0019445465 0.41593355 0.0011105668 1090 245
0.1460363 0.0019707356 0.4209339 0.0015226826 617 139
nan nan nan 0 169 38
0.19240288 0.0025278681 0.53828579 0.0040845568 161 36
0.19978958 0.0025907052 0.5507676 0.0030635593 222 50
0.20461465 0.0026191354 0.55586582 0.0026138588 279 62
0.20780164 0.0026261418 0.55636662 0.002288782 370 83
0.21096659 0.0026326971 0.55672896 0.0020985734 381 85
0.21402536 0.0026377819 0.55673754 0.002025015 401 90
0.21698335 0.0026415151 0.55641943 0.0022497873 400 90
0.2202979 0.002649446 0.55694288 0.0021074747 388 87
0.22312173 0.0026513564 0.55615956 0.0023196624 388 87
0.22610171 0.0026550554 0.55571234 0.0021191218 390 88
0.22936676 0.0026619765 0.55589956 0.0021727751 406 91
0.23311223 0.0026742492 0.55716139 0.0020244597 403 90
0.23611958 0.0026778714 0.55658126 0.0023101047 371 83
0.23923372 0.002682609 0.55619925 0.0023257823 368 83
0.24277994 0.0026920324 0.55675495 0.0023631416 375 84
0.24678846 0.0027063175 0.55828065 0.0023234433 378 85
0.24991857 0.0027107629 0.55774748 0.0022550954 373 84
0.25320503 0.0027167909 0.55752015 0.0022028189 360 81
0.25613868 0.0027189448 0.55648476 0.0022496653 341 76
0.25885499 0.0027187704 0.55496973 0.0023923714 344 77
0.26184383 0.0027214319 0.55403703 0.0024248336 348 78
0.26506886 0.0027264685 0.55359662 0.0022776988 333 75
0.2687366 0.0027359084 0.55406398 0.002642283 320 72
0.27226093 0.0027437122 0.55422169 0.0024399909 304 68
0.27582377 0.0027517434 0.55445808 0.0026217676 284 64
0.27890629 0.002754871 0.55375165 0.0025979951 279 62
0.28249213 0.0027628595 0.55407834 0.0026940939 269 60
0.28582489 0.0027682416 0.55394793 0.0027034597 261 58
0.28943408 0.0027761715 0.55440378 0.0029609234 267 60
0.29410514 0.0027940373 0.55692554 0.0032315953 250 56
-0.33429968 0.0056384094 0.55800945 0.0043218415 137 30
-0.33184946 0.0056448085 0.55805224 0.0043853186 143 32
-0.33034185 0.00566749 0.55981654 0.0041857348 141 31
-0.32717851 0.0056619113 0.55890709 0.0045467201 160 36
-0.32464683 0.0056672632 0.55919939 0.0037678853 169 38
-0.32176718 0.0056665801 0.55902201 0.0038953943 164 37
-0.31902316 0.0056682946 0.55920947 0.00375284 169 38
-0.31589034 0.0056630708 0.55884236 0.0041467175 168 37
-0.3131977 0.0056657144 0.5593819 0.0042266478 185 41
-0.31124809 0.0056819716 0.5613963 0.0038876941 193 43
-0.30841199 0.0056821951 0.56195611 0.0031699927 209 47
-0.30403906 0.0056538456 0.55981147 0.0034412686 222 50
-0.30054671 0.0056414898 0.55936527 0.0034496109 228 51
-0.29773182 0.0056417384 0.56028026 0.0030004976 224 50
-0.29500532 0.0056436826 0.56147051 0.0029863587 228 51
-0.28983691 0.0055984957 0.5580613 0.0030929004 260 58
-0.28744692 0.0056066173 0.56004685 0.0026871343 262 59
-0.28439176 0.0056017986 0.56081879 0.0026353633 274 61
-0.28066239 0.0055834698 0.56030077 0.0027912373 288 64
-0.27757007 0.005577574 0.56108201 0.0024556126 300 67
-0.27370247 0.0055558202 0.5603081 0.0026505417 304 68
-0.270201 0.0055411276 0.56027359 0.0028106729 303 68
-0.26675829 0.0055273487 0.56035089 0.0023966876 314 70
-0.26304898 0.0055076964 0.55984169 0.0024821719 316 71
-0.25994465 0.0055004298 0.56059361 0.0023247264 321 72
-0.2563462 0.0054824399 0.5602476 0.0022667339 343 77
-0.25297576 0.0054689888 0.56035173 0.0024986337 353 79
-0.24938299 0.0054503838 0.55990815 0.0022185347 342 77
-0.24487868 0.0054112235 0.55732107 0.0023763296 359 81
-0.24123447 0.0053904057 0.55658644 0.0023064378 370 83
-0.23714605 0.0053590769 0.55472845 0.0021497789 363 81
nan nan nan 0 414 93
nan nan nan 0 627 141
-0.17073956 0.0039941473 0.41638824 0.0011758194 1028 231
-0.16985805 0.0040206746 0.42009243 0.0011739746 986 222
nan nan nan 0 820 185
-0.18733037 0.0045420476 0.47659591 0.0015033997 644 145
-0.19120353 0.0046929969 0.49343368 0.0016453018 610 137
-0.19104533 0.0047475258 0.50014371 0.0016700637 582 131
-0.18922934 0.004761714 0.50258368 0.0016531068 594 134
-0.18902037 0.0048172208 0.50936401 0.0015763231 597 134
-0.18695985 0.004826366 0.5112198 0.001566835 599 135
-0.18637386 0.0048743151 0.51716161 0.0015585007 600 135
-0.18643004 0.0049405559 0.5250293 0.0015482629 611 137
-0.184389 0.0049522538 0.52707934 0.0015514294 616 139
-0.18288866 0.0049789916 0.53070217 0.0015478767 614 138
-0.18339443 0.0050618397 0.54028833 0.0015382948 611 137
-0.18119004 0.0050711604 0.54200649 0.001565334 602 135
-0.17950734 0.0050955554 0.5453071 0.0016995245 595 134
-0.17902392 0.005155188 0.55235726 0.0017089287 588 132
-0.17777734 0.0051942705 0.55718595 0.001581326 585 132
-0.17565159 0.0052084457 0.55931747 0.0015763273 610 137
-0.17234862 0.0051876139 0.55765802 0.0014673277 656 148
-0.16879186 0.0051583895 0.55506074 0.0013249504 786 177
-0.16642813 0.0051652817 0.55631828 0.0012784072 829 187
-0.16391729 0.0051677534 0.55707216 0.0013094251 803 181
-0.1612481 0.0051652328 0.55726022 0.0012797343 830 187
-0.15847452 0.0051592314 0.55704522 0.0012901273 812 183
-0.15624714 0.0051711081 0.55873483 0.0013368141 796 179
-0.15364595 0.0051708044 0.55908418 0.0014233069 793 178
-0.15098803 0.0051685488 0.55919772 0.0012852448 809 182
-0.14690374 0.0051165354 0.55390066 0.0012939118 823 185
-0.1417546 0.0050249258 0.54428554 0.0011583804 980 221
-0.13852753 0.0049993685 0.54179651 0.0011324568 1076 242
-0.13598324 0.0049979654 0.54190302 0.0011949542 1038 234
-0.13309148 0.0049834978 0.54057235 0.0011998782 1006 227
-0.13009097 0.0049643265 0.53871095 0.0011735288 957 215
-0.1273375 0.0049540191 0.53779155 0.0011925326 924 208
-0.12449761 0.0049398718 0.53643698 0.0012523523 914 206
-0.12189175 0.0049346257 0.53603148 0.0012747186 833 187
-0.119055 0.0049196212 0.53454912 0.0013817552 811 183
-0.11575988 0.0048846398 0.5308795 0.0013496269 792 178
-0.11158416 0.0048101866 0.52290249 0.0013600772 816 184
-0.10856514 0.0047834083 0.52009207 0.0012721325 838 189
-0.105644 0.00475983 0.51761556 0.0012968417 817 184
-0.10221728 0.0047118566 0.51247269 0.0012569288 855 192
-0.099114105 0.0046768817 0.50873065 0.001284393 877 197
-0.0966065 0.0046689962 0.5079239 0.0012471194 861 194
-0.093837306 0.0046477616 0.50565434 0.001245094 866 195
-0.090947799 0.0046193353 0.50259233 0.0012563909 847 191
-0.087981932 0.004585444 0.49892637 0.0012532944 859 193
-0.085601538 0.0045810663 0.49846303 0.001290408 815 183
-0.083105944 0.0045701121 0.49727628 0.0013256447 779 175
-0.080449678 0.0045494516 0.49502602 0.0013390416 836 188
-0.077993996 0.0045392597 0.49390829 0.0012748014 831 187
-0.075184561 0.0045072474 0.49041012 0.0013366888 848 191
-0.072542973 0.0044836253 0.48781949 0.0012390685 878 198
-0.070371129 0.0044884542 0.4883194 0.0012242625 897 202
-0.068268113 0.0044981376 0.48934257 0.001211059 937 211
-0.066228606 0.0045128101 0.49090418 0.0011945674 949 214
-0.064295389 0.0045360187 0.49339041 0.0011669552 964 217
-0.062475849 0.0045692432 0.49696231 0.0011649379 961 216
-0.061219782 0.0046477746 0.505458 0.0012675786 828 186
-0.05956753 0.0047012516 0.51122516 0.0014279276 692 156
-0.056249104 0.0046222191 0.5025813 0.0013143159 815 183
-0.053299796 0.0045680301 0.49663857 0.0012798107 829 187
-0.050318584 0.0045061191 0.48985648 0.0012437959 877 197
-0.048098147 0.0045097186 0.49019608 0.0013155564 848 191
-0.045691255 0.0044953302 0.48857999 0.0012857624 824 185
-0.043349609 0.0044861995 0.4875358 0.0012807715 842 190
-0.041113041 0.0044875401 0.48763004 0.0012230718 904 204
-0.038790081 0.0044790599 0.48665789 0.0011646996 964 217
-0.03649025 0.0044723717 0.48588172 0.0011212878 1049 236
-0.034251425 0.0044727763 0.48587742 0.0010681723 1115 251
-0.032007869 0.0044725752 0.485809 0.001086529 1094 246
-0.029704485 0.0044633546 0.48476297 0.0011028 1109 250
-0.027401565 0.0044527068 0.4835642 0.0010885423 1093 246
-0.025365686 0.004487413 0.48729306 0.0011730905 987 222
-0.023127103 0.0044895234 0.48748457 0.0011759463 962 217
-0.021201232 0.0045593381 0.49502996 0.001248665 868 195
-0.019199885 0.0046278303 0.50243378 0.0013105298 797 179
-0.017396601 0.0047694505 0.51777887 0.0013949212 724 163
-0.015319348 0.0048691211 0.5285719 0.0014390654 712 160
-0.012893728 0.0048748595 0.52917135 0.0013193502 787 177
-0.010368872 0.00483699 0.52504098 0.001202636 915 206
-0.0079406695 0.0048348517 0.52479339 0.001165109 955 215
-0.0055297813 0.004846009 0.52599287 0.0011714259 960 216
-0.0030935032 0.0048349672 0.52478701 0.0011859946 932 210
-0.00066949136 0.0048325579 0.52452219 0.0012242511 913 206
0.0017541654 0.0048358287 0.5248782 0.0012396281 880 198
0.0041855113 0.0048442031 0.5257923 0.0012763186 821 185
0.0066381958 0.004862057 0.52773941 0.0013098922 789 178
0.0091053648 0.0048780818 0.52949226 0.0013696096 741 167
0.011514586 0.0048628491 0.52785623 0.0013873699 751 169
0.01389483 0.0048428392 0.52570546 0.001407732 759 171
0.016143212 0.0047896588 0.51995742 0.0012851013 820 185
0.018367892 0.0047441265 0.51504284 0.0012610699 852 192
0.020671131 0.0047269985 0.51321483 0.0012515582 863 194
0.022795422 0.0046766801 0.50778621 0.0011805156 942 212
0.025100309 0.0046693427 0.50702703 0.0011596062 966 217
0.027435567 0.0046684244 0.50696766 0.001249026 932 210
0.030066453 0.004714001 0.51196045 0.0011805121 946 213
0.032817237 0.0047703637 0.51812816 0.00119764 923 208
0.035239063 0.0047745002 0.51862597 0.0011733167 959 216
0.037570201 0.0047666049 0.51781887 0.0011006397 1059 238
0.039847184 0.0047531947 0.51641381 0.0010643187 1141 255
0.042151678 0.0047443942 0.51551086 0.0010281124 1201 255
0.044509765 0.0047422433 0.51533109 0.0010608933 1118 252
0.046746209 0.0047280067 0.51383853 0.0011169937 1035 233
0.048968736 0.0047138049 0.51234955 0.0011499039 984 222
0.051219452 0.0047034989 0.5112837 0.0012207702 969 218
0.053515434 0.004698074 0.51074779 0.0012194312 996 224
0.056047387 0.0047129486 0.51241779 0.0012400087 963 217
0.059737127 0.00482004 0.52411407 0.0012394789 902 203
0.062738515 0.0048654219 0.52910024 0.0012102753 932 210
0.065046303 0.0048556319 0.52808464 0.0011973873 989 223
0.069348745 0.0049900752 0.54275393 0.0012855105 855 192
0.073883757 0.0051313085 0.55816114 0.001348714 809 182
0.076152645 0.0051109502 0.55598807 0.0011926739 935 210
0.078610495 0.0051041865 0.55528939 0.0012066707 959 216
0.081222489 0.0051075425 0.55568641 0.0011850487 939 211
0.083829515 0.0051103891 0.55602276 0.0012729452 904 204
0.086391635 0.0051104124 0.55604577 0.0012219622 908 204
0.089334615 0.0051323138 0.55844277 0.0012390196 907 204
0.092530876 0.0051671332 0.56223804 0.001218133 895 201
0.094606549 0.0051391833 0.5591957 0.0012029432 912 205
0.096764877 0.0051170872 0.55678183 0.0011751098 963 217
0.099060655 0.0051032132 0.55525357 0.0011082536 1096 247
0.10140228 0.0050923401 0.55404228 0.0010465897 1149 255
0.10363768 0.0050767972 0.55231291 0.0010665397 1189 255
0.10616791 0.0050760945 0.55218738 0.0010697506 1180 255
0.10873603 0.0050771954 0.55224639 0.0010328509 1180 255
0.11137418 0.0050814408 0.55263537 0.0010455585 1151 255
0.11401726 0.0050857165 0.55301464 0.0011125548 1140 255
0.11676144 0.0050942153 0.55383956 0.0010864338 1144 255
0.11924784 0.0050913445 0.55341393 0.0010937757 1061 239
0.12124719 0.0050682356 0.55077434 0.0011922893 1019 229
0.12185629 0.0049891542 0.54203945 0.0010928861 1085 244
0.12397262 0.0049737222 0.54020643 0.0010399909 1160 255
0.12599395 0.0049551628 0.53801841 0.0010122127 1226 255
0.12793477 0.0049342159 0.5355553 0.0010181508 1267 255
0.13056524 0.0049401582 0.5359934 0.0010513925 1159 255
0.13444661 0.0049923277 0.54142594 0.0013261443 871 196
0.13965979 0.00509114 0.55189025 0.0013460183 764 172
0.14196418 0.0050822729 0.5506568 0.0015114789 683 154
0.14378084 0.0050565647 0.54757929 0.001494361 641 144
0.14559889 0.0050317966 0.54458445 0.0017086541 612 138
0.14691474 0.0049908105 0.53981614 0.0015322794 616 139
0.14783417 0.0049379561 0.53374755 0.0015392834 615 138
0.14970097 0.0049179657 0.53121275 0.0015534449 619 139
0.1491946 0.0048219231 0.52044803 0.0015294716 631 142
0.15074931 0.0047944933 0.51707447 0.0015423215 618 139
0.15179026 0.004751842 0.51204038 0.0015336875 614 138
0.15342438 0.0047287913 0.50909883 0.0015378112 616 139
0.15397754 0.0046736305 0.50268173 0.0015883798 630 142
0.15407613 0.0046065343 0.49496704 0.0015073469 635 143
0.15415342 0.0045407917 0.48738542 0.0015319639 651 146
0.15553415 0.0045147971 0.48405343 0.0015163372 655 147
0.15167697 0.0043396857 0.46473119 0.0013916917 729 164
0.1490963 0.0042055314 0.44980752 0.0012919791 818 184
0.14576983 0.0040543759 0.43307698 0.0011841555 950 214
0.14210741 0.0038981612 0.4158231 0.0011019004 1113 251
0.14410847 0.0038994325 0.41536489 0.0012984405 811 183
nan nan nan 0 260 58
0.19114313 0.0050355378 0.5347445 0.0047448119 128 28
0.19663763 0.0051127682 0.54206091 0.0036527263 213 48
0.20333092 0.0052187792 0.55235982 0.0026542845 273 61
0.20707272 0.0052473056 0.55439603 0.0022554165 363 81
0.21053018 0.0052680015 0.55555767 0.0020656404 383 86
0.21354881 0.0052773398 0.55547792 0.0021681094 398 89
0.21697035 0.0052962848 0.55636555 0.0020379103 394 88
0.21984008 0.0053014643 0.55576444 0.0020201032 396 89
0.22297254 0.0053127808 0.55576622 0.0021109581 382 86
0.22580689 0.0053168102 0.55496585 0.0020071634 403 90
0.2286434 0.0053207972 0.55412412 0.0020496761 404 91
0.23169656 0.0053296755 0.55375522 0.0020410507 395 89
0.23488963 0.0053415312 0.55365908 0.0023010909 374 84
0.2379858 0.0053509432 0.55327487 0.0021033613 377 85
0.24036171 0.0053441306 0.55118608 0.0021453158 367 82
0.24545807 0.0053972867 0.55524743 0.0022420271 378 85
0.24992587 0.0054356134 0.55774009 0.0022029369 369 83
0.25328806 0.0054493276 0.55767924 0.0021619687 360 81
0.2557613 0.0054438268 0.55564135 0.0022914845 344 77
0.25853696 0.0054448121 0.55426461 0.0022368457 343 77
0.26158047 0.0054513579 0.55345684 0.002290603 339 76
0.26489547 0.0054633683 0.55321193 0.0023604778 342 77
0.26837206 0.0054784324 0.55329055 0.002412617 328 74
0.27171275 0.0054904441 0.55308455 0.0024383266 307 69
0.27513176 0.0055037821 0.55304652 0.0028454892 284 64
0.27808264 0.0055075837 0.55209684 0.0025734538 283 63
0.28170654 0.0055245091 0.55251926 0.0030412194 268 60
0.28559729 0.0055462867 0.55348986 0.0027123699 261 58
0.28894943 0.0055572852 0.5534597 0.0031232953 248 55
0.29071206 0.0055377954 0.55048621 0.002826923 247 55
-0.33276522 0.0084259817 0.5554617 0.005199146 132 29
-0.33193338 0.0084765879 0.55820477 0.0044710231 139 31
-0.32921049 0.0084793549 0.55790824 0.0049799527 142 32
-0.32656363 0.0084841466 0.55786318 0.0044884137 155 34
-0.32341921 0.0084759826 0.55708861 0.0038939766 168 37
-0.32102495 0.0084875068 0.5577336 0.0038173273 167 37
-0.31791893 0.008480249 0.55727208 0.0036243394 178 40
-0.3142342 0.0084572881 0.55590773 0.0044432851 175 39
-0.31261399 0.0084899785 0.55833155 0.0033791007 195 44
-0.31073445 0.0085161589 0.56045914 0.0032817223 200 45
-0.30779389 0.0085134758 0.56081599 0.0033711232 211 47
-0.30382395 0.0084820064 0.55939877 0.0030939213 223 50
-0.30049121 0.0084678987 0.55924243 0.0034299865 228 51
-0.29719967 0.0084546963 0.55925661 0.002855995 242 54
-0.2933934 0.0084264586 0.55837768 0.0029632302 247 55
-0.28988442 0.0084062936 0.55812538 0.0027301225 253 57
-0.28662333 0.0083929924 0.55841261 0.0026804809 271 61
-0.28367761 0.0083887568 0.5593788 0.002498515 289 65
-0.28057685 0.008379804 0.56009656 0.0024635587 301 67
-0.27670112 0.0083472924 0.55929053 0.0024141148 309 69
-0.2728062 0.0083135348 0.55843705 0.0024170065 308 69
-0.26917976 0.0082873497 0.5581187 0.0026485033 325 73
-0.2661874 0.0082803443 0.55911332 0.0023469739 320 72
-0.2625857 0.0082540391 0.55881685 0.0025271308 320 72
-0.25939289 0.0082401633 0.55936426 0.0023405885 330 74
-0.25650066 0.0082356436 0.56054533 0.0022494826 342 77
-0.25245535 0.0081935991 0.55915922 0.002175661 353 79
-0.24792378 0.0081346799 0.5565924 0.0022466888 343 77
-0.24411562 0.0080984533 0.55554521 0.0024072519 350 78
-0.24054708 0.0080694547 0.5549615 0.0021799183 354 79
-0.23564 0.0079943873 0.55116725 0.0024274488 370 83
nan nan nan 0 436 98
nan nan nan 0 749 169
-0.16980374 0.0059634717 0.41407853 0.0011278342 1046 236
-0.17006104 0.0060433764 0.4205671 0.0011610753 984 222
nan nan nan 0 783 176
-0.18721305 0.0068146205 0.47626761 0.0014775825 659 148
-0.19097655 0.0070371423 0.49281782 0.0015624538 601 135
-0.19118492 0.0071325777 0.50047928 0.0017181486 597 134
-0.18915467 0.0071458519 0.50235629 0.0015590502 603 136
-0.18743148 0.0071712118 0.50505382 0.0015702411 605 136
-0.18757294 0.0072694933 0.51286799 0.0015626345 607 136
-0.18608718 0.0073064617 0.51633847 0.0015459638 608 137
-0.18591075 0.0073965038 0.52353966 0.001537949 614 138
-0.18416859 0.0074258386 0.52642286 0.0015339552 622 140
-0.18316124 0.0074860076 0.53146726 0.0015448314 608 137
-0.18247728 0.0075612408 0.53756094 0.0015479517 615 138
-0.18083006 0.0075981123 0.54090488 0.0015543303 610 137
-0.17921121 0.0076372414 0.54438359 0.0016420885 612 138
-0.17891881 0.0077348431 0.55200946 0.0015646123 598 134
-0.17718671 0.0077721542 0.55531204 0.0015735892 586 132
-0.17497143 0.0077890637 0.55712962 0.0015307548 614 138
-0.17238204 0.0077895788 0.55774498 0.0015014673 656 148
-0.16866653 0.0077384422 0.55462837 0.0013222689 782 176
-0.16615842 0.0077419728 0.55539721 0.0013315978 816 184
-0.16307046 0.0077181701 0.55417567 0.0013038408 818 184
-0.16073926 0.0077299965 0.55548382 0.0013229293 810 182
-0.15820658 0.0077323611 0.5560863 0.0012944632 802 180
-0.15566503 0.0077343644 0.55663693 0.0014083383 804 181
-0.15314835 0.0077376915 0.55725807 0.0013205913 803 181
-0.1503405 0.0077261673 0.55678481 0.0012857416 819 184
-0.14643431 0.0076568122 0.55211681 0.0012394964 874 197
-0.14179824 0.0075461497 0.54444021 0.0011137151 1041 234
-0.13853504 0.0075058639 0.54181367 0.0010822582 1090 245
-0.1357055 0.0074880254 0.54078484 0.0010881494 1071 241
-0.13287848 0.0074696578 0.53969657 0.0011235182 1027 231
-0.12982613 0.0074376771 0.53760421 0.001171792 1034 233
-0.12700106 0.0074177245 0.53636152 0.0011795943 951 214
-0.12465174 0.0074253185 0.53709263 0.0012444423 891 201
-0.12185578 0.0074060746 0.53586543 0.0012769654 828 186
-0.11870188 0.0073638279 0.53295648 0.001295104 807 182
-0.11611685 0.007355832 0.5325101 0.0013112446 803 181
-0.11146034 0.0072134282 0.5223164 0.0012917476 815 183
-0.10869093 0.0071895611 0.52068949 0.0012979577 812 183
-0.10499968 0.0071022604 0.51445407 0.0013367065 829 187
-0.10214812 0.0070690368 0.51212209 0.001274503 841 189
-0.098732978 0.0069943154 0.50677109 0.0012377261 878 198
-0.096335083 0.0069897822 0.50649405 0.001307303 857 193
-0.093324296 0.0069394489 0.50288761 0.0012558814 858 193
-0.090544276 0.0069041522 0.50036073 0.0012241359 897 202
-0.088150121 0.0068972008 0.49987894 0.0012261997 888 200
-0.085714594 0.0068865512 0.49912074 0.0012772379 842 190
-0.082510069 0.0068118293 0.49371064 0.001266522 853 192
-0.080329925 0.0068198396 0.49428967 0.0012612671 858 193
-0.077861711 0.0068031466 0.49307144 0.0012869333 843 190
-0.074721992 0.0067250137 0.48739418 0.0012517853 854 192
-0.072408319 0.0067186872 0.48691583 0.0012280181 887 200
-0.070257142 0.0067275171 0.48753065 0.0012024901 925 208
-0.068177499 0.0067440053 0.48869565 0.0011681434 955 215
-0.066175438 0.0067695566 0.49051315 0.0011923959 964 217
-0.064163253 0.0067958436 0.4923799 0.0011844501 942 212
-0.062623456 0.0068759252 0.49814042 0.0012927395 873 197
-0.062032569 0.0070702545 0.5121733 0.0014904139 629 141
-0.060926031 0.0072188633 0.52288932 0.0016162827 575 129
-0.056231286 0.0069370521 0.50242734 0.0013313176 783 176
-0.053066205 0.006827842 0.4944675 0.0012749512 852 192
-0.050243061 0.0067547979 0.48912698 0.0013072197 876 197
-0.047948044 0.0067492272 0.48867226 0.0012771849 876 197
-0.045664761 0.0067448402 0.48830304 0.0012433695 878 198
-0.043318599 0.0067302291 0.4871937 0.0012725048 875 197
-0.041020863 0.0067219543 0.48654366 0.0012227542 891 201
-0.038777325 0.0067221173 0.48650518 0.0012410284 995 224
-0.036480155 0.0067124306 0.48575476 0.0010926781 1086 245
-0.034274112 0.0067193424 0.48620701 0.0011377764 1112 250
-0.032023244 0.0067178183 0.48605043 0.0010830221 1132 255
-0.029725643 0.0067055221 0.48511633 0.0010847965 1104 249
-0.027527086 0.0067153862 0.48578763 0.0011081233 1050 236
-0.025281351 0.0067144698 0.48568147 0.0011299741 1022 230
-0.023093626 0.0067302799 0.48678765 0.0011914385 991 223
-0.020904584 0.0067490735 0.48811239 0.0012028986 920 207
-0.018849546 0.0068209018 0.49327517 0.0012892399 835 188
-0.016985839 0.0069912206 0.50556284 0.0013582876 756 170
-0.015211117 0.0072582746 0.52484751 0.0014238766 701 158
-0.01296356 0.0073581715 0.53204751 0.0014867813 652 147
-0.01048078 0.0073400536 0.53071791 0.0013728915 737 166
-0.0079894951 0.0073031024 0.52803051 0.0013184807 785 177
-0.0055454704 0.0072958632 0.52749562 0.0013549662 809 182
-0.0031085962 0.0072940593 0.52735782 0.0013099657 788 177
-0.00067350146 0.007298484 0.52767444 0.0013364246 756 170
0.0017647329 0.0073036742 0.5280506 0.0014418785 749 169
0.0042109853 0.0073167738 0.52900285 0.0013869375 715 161
0.0066631609 0.0073267664 0.52973461 0.0014007299 701 158
0.0090931095 0.007313516 0.52878988 0.0014313306 712 160
0.011465671 0.0072694905 0.5256241 0.0013650196 746 168
0.013794053 0.0072177313 0.52190262 0.0013916909 788 177
0.015844421 0.007057535 0.51034331 0.0012449144 868 195
0.018144667 0.0070357118 0.508793 0.0012358193 871 196
0.020434581 0.0070153442 0.50735122 0.001258777 899 202
0.022746967 0.0070060878 0.50671607 0.0011769907 956 215
0.02507484 0.0070028827 0.50652152 0.0011633085 964 217
0.02750678 0.0070268093 0.5082925 0.0011801731 946 213
0.030074561 0.0070789494 0.51210719 0.0011636567 967 218
0.032857645 0.0071704751 0.51877469 0.0012776383 915 206
0.035188738 0.0071576317 0.51789373 0.0011773329 996 224
0.03747008 0.0071369451 0.51644707 0.0010770077 1114 251
0.039723374 0.0071137096 0.51481724 0.0010458651 1162 255
0.042132348 0.0071194018 0.51528192 0.0010448477 1168 255
0.044432856 0.0071071377 0.51444787 0.0010816762 1085 244
0.046640843 0.0070820679 0.51268721 0.0011181962 1031 232
0.048880842 0.007064044 0.51143652 0.0012036476 976 220
0.051092453 0.0070437663 0.51002216 0.0011952935 975 220
0.053355541 0.0070320573 0.50922757 0.0011753299 1011 228
0.056007795 0.0070704636 0.5120613 0.0011742156 958 216
0.059819143 0.0072461702 0.52483886 0.0012102163 900 203
0.062847316 0.0073170336 0.53002268 0.0012033975 916 206
0.065849252 0.0073796534 0.53460795 0.001178171 941 212
0.069845498 0.007545168 0.54664594 0.0013012867 809 182
0.07381843 0.0076967264 0.55767137 0.0012544391 858 193
0.076210022 0.0076787551 0.55641031 0.0011719603 964 217
0.078242064 0.007626906 0.55268961 0.0011622298 995 224
0.08064431 0.0076132733 0.55173314 0.0011451506 990 223
0.08316005 0.0076108621 0.55158418 0.0011506232 985 222
0.085477993 0.0075910287 0.55016655 0.001159932 980 221
0.087876268 0.0075792647 0.54932714 0.0011543487 982 221
0.090443261 0.0075823045 0.54955345 0.0011550449 985 222
0.093593307 0.0076327282 0.55320632 0.0011833232 940 212
0.096430168 0.007655615 0.55485499 0.0011823451 954 215
0.099102356 0.0076645827 0.55548573 0.0011732364 951 214
0.1015547 0.0076565244 0.55487293 0.0011567199 976 220
0.10379989 0.0076336288 0.55317473 0.0011248065 1075 242
0.10612493 0.0076175602 0.55196053 0.0011178307 1114 251
0.10872512 0.0076215323 0.5521872 0.0010693831 1112 250
0.1112502 0.0076201786 0.55201566 0.0010923555 1119 252
0.1137818 0.0076193227 0.55186749 0.0010702143 1136 255
0.11657334 0.0076355296 0.5529415 0.0010583352 1126 254
0.11903829 0.0076301084 0.55243492 0.0010872215 1087 245
0.12115272 0.0076029175 0.55033803 0.0011308462 1017 229
0.12193061 0.0074946908 0.54236239 0.0011015898 1056 238
0.12393691 0.0074648042 0.54004252 0.0010818869 1146 255
0.12532343 0.0073995022 0.53514624 0.0010305285 1226 255
0.12769137 0.0073935529 0.53452694 0.0010062734 1253 255
0.130253 0.0073988293 0.53470135 0.0010266225 1206 255
