# .PCD v0.7 - Point Cloud Data file format
VERSION 0.7
FIELDS x y z noise intensity gray
SIZE 4 4 4 4 2 1
TYPE F F F F U U
COUNT 1 1 1 1 1 1
WIDTH 894
HEIGHT 1
VIEWPOINT 0 0 0 1 0 0 0
POINTS 894
DATA ascii
0.13426784 0.16513738 0.47642887 0.0017298075 506 105
0.13724449 0.16592397 0.47790447 0.0018787531 491 100
0.14008477 0.16652206 0.47881824 0.001737809 504 104
0.1419909 0.16600831 0.47652361 0.0016976572 520 109
0.14430039 0.16597517 0.47560185 0.0017653124 494 101
0.14692438 0.16629903 0.47569412 0.0017650485 485 99
0.14975558 0.16684359 0.47640768 0.0018103804 512 106
0.15263063 0.16741943 0.47720131 0.0018038906 498 102
0.15524578 0.16769703 0.47713944 0.0017539114 501 103
0.15760814 0.16769728 0.4762888 0.0017489259 490 100
0.15999235 0.16772045 0.47550759 0.0017606855 491 100
0.16288261 0.16826573 0.47621134 0.0018635256 513 107
0.16527517 0.16828859 0.47544467 0.0018124277 475 96
0.16753584 0.16817842 0.47431701 0.001795034 480 97
0.17026354 0.16853358 0.47451875 0.0019296602 461 92
0.17360784 0.16948092 0.47640377 0.0020508161 428 82
0.17675853 0.17021613 0.47771072 0.0020397399 430 82
0.17936727 0.17041677 0.47754338 0.0020446472 436 84
0.18193433 0.17057297 0.47728416 0.0019291637 425 81
0.18430153 0.17054023 0.4765338 0.002001723 400 74
0.18651868 0.17037126 0.47544551 0.0020176216 422 80
0.1888562 0.17031512 0.47471851 0.0020056188 401 74
0.19178957 0.17079099 0.47552207 0.0020890906 396 73
0.19446674 0.17102976 0.47571594 0.0023308042 360 62
0.19678231 0.17094855 0.47507489 0.002231651 362 63
0.19894947 0.17074198 0.47414392 0.0022428818 346 58
0.20187995 0.17118756 0.47508398 0.0022751407 336 55
0.20456225 0.17141467 0.47547916 0.0023296755 322 51
0.20727202 0.17165925 0.47598597 0.0025156334 296 43
0.20923027 0.17128295 0.47483656 0.0025183866 306 46
0.21094531 0.17071837 0.47323141 0.0024703885 295 43
0.213258 0.1706448 0.47305351 0.0025123593 292 42
0.21631838 0.1711645 0.47458658 0.0026984534 281 39
0.21932013 0.17162681 0.47602743 0.0029259056 265 34
0.22204256 0.17186287 0.47690728 0.0031131143 251 30
0.22444145 0.17184611 0.47715101 0.0028247063 245 28
0.22543912 0.17076831 0.47451067 0.0029750469 227 23
0.22740082 0.17043577 0.47400084 0.0029995753 232 25
0.22947329 0.17019235 0.47379845 0.0033658803 221 21
0.23144884 0.16988283 0.4734703 0.0032609568 217 20
0.23314993 0.16938023 0.47265935 0.0031977347 211 18
0.23493901 0.16895111 0.47210646 0.0035839297 208 18
0.23977531 0.17069994 0.47769964 0.0035298138 195 14
0.24065451 0.16962494 0.47544611 0.0034843455 199 15
0.24155013 0.16858248 0.47332585 0.0039313533 184 11
0.24244872 0.16756241 0.47130746 0.0035276373 183 10
0.24432288 0.16722973 0.47126311 0.003868361 167 6
0.24730006 0.16765118 0.47339013 0.0039839027 155 2
-0.27290869 0.16611966 0.47616762 0.0060050082 112 0
-0.27577734 0.16929717 0.48513454 0.0050956449 120 0
-0.27352634 0.16935945 0.48476052 0.0056802155 121 0
-0.2711437 0.16934051 0.48387215 0.0046422137 132 0
-0.27010319 0.17016686 0.4852154 0.0047747004 123 0
-0.26820987 0.17046577 0.4849436 0.0051171491 119 0
-0.26698712 0.17119996 0.48585147 0.0047249938 134 0
-0.26499328 0.17144845 0.48535714 0.0045778481 128 0
-0.26393634 0.17231315 0.48660475 0.0050213309 131 0
-0.26113656 0.17204541 0.48466957 0.004389592 135 0
-0.25919551 0.17234372 0.48435688 0.0044997828 138 0
-0.25724497 0.17264122 0.48407158 0.004460135 133 0
-0.25574172 0.17324732 0.48468313 0.0043074321 141 0
-0.25374576 0.17352803 0.48441887 0.0044795834 150 1
-0.25152215 0.1736569 0.48377055 0.0040729665 153 2
-0.24905038 0.17361529 0.48269084 0.004274514 142 0
-0.24631451 0.17338693 0.48113918 0.0046676164 145 0
-0.24443083 0.17375989 0.4813028 0.0040140967 158 3
-0.24314898 0.17457236 0.48272747 0.0040202625 157 3
-0.24182348 0.17536958 0.48415351 0.0042458982 156 2
-0.23961107 0.17553326 0.48387948 0.0036580199 176 8
-0.2373317 0.17565079 0.48353168 0.0042383713 160 4
-0.23485507 0.17562321 0.48284057 0.0041581974 162 4
-0.23220441 0.17546356 0.48184496 0.0037321663 171 7
-0.2297581 0.17545657 0.48132852 0.0036820415 174 8
-0.227734 0.17577533 0.48176575 0.0039145844 177 9
-0.22626722 0.17653582 0.48347345 0.0036125409 174 8
-0.22500315 0.17747286 0.48572516 0.0038355887 184 11
-0.22125292 0.17644794 0.48267204 0.0033781193 193 13
-0.21915731 0.1767344 0.48327258 0.0034081964 195 14
-0.21701671 0.17699069 0.48385629 0.0030704401 221 21
-0.2143129 0.17678821 0.48325211 0.003147267 218 21
-0.2115425 0.1765255 0.48254946 0.0029264984 237 26
-0.20921056 0.1766268 0.48290798 0.0028946686 240 27
-0.20730069 0.17709106 0.48432437 0.002810261 249 30
-0.20435973 0.17667504 0.48339766 0.0026807461 263 34
-0.20209798 0.17684329 0.48413196 0.0026416869 268 35
-0.20005107 0.17720595 0.48546052 0.0026076038 281 39
-0.19736145 0.17700124 0.48529404 0.0028068542 296 43
-0.19430166 0.1764552 0.48424634 0.0025106531 290 42
-0.19177169 0.1763825 0.48454961 0.0024920632 293 42
-0.18891034 0.17599918 0.48404834 0.0024736635 296 43
-0.18630789 0.17585023 0.48423684 0.002347392 322 51
-0.18338768 0.17539337 0.48361862 0.00243289 305 46
-0.18074191 0.17519021 0.48373669 0.002544668 312 48
-0.17815648 0.17504083 0.48403749 0.0022707535 342 57
-0.17536084 0.17467792 0.48377708 0.0022720241 335 55
-0.17239907 0.17413698 0.48304731 0.0022290344 352 60
-0.1697221 0.17387246 0.4831042 0.0022089181 351 59
-0.16697076 0.17352299 0.48294199 0.0024658064 336 55
-0.16427997 0.17322713 0.48294199 0.0024115774 346 58
-0.16204391 0.17340912 0.48428592 0.0021343739 378 67
-0.1590665 0.17279124 0.48340318 0.0023121526 358 61
-0.1560041 0.17206073 0.48220465 0.0021289156 380 68
-0.15366076 0.17211287 0.48319903 0.0021529039 377 67
-0.15105927 0.17187294 0.48337266 0.0020754549 380 68
-0.14844856 0.17161466 0.48349014 0.0021116668 381 68
-0.14555182 0.17101189 0.48262823 0.0021311827 372 66
-0.14215788 0.16979523 0.48001826 0.0021001827 384 69
-0.14005491 0.17010552 0.48171234 0.002137383 387 70
-0.13642728 0.16854288 0.47808668 0.0022329276 387 70
-0.13223428 0.16621505 0.47226068 0.0019585039 423 80
-0.12732276 0.16288522 0.46354929 0.0018048077 479 97
-0.12387493 0.16134132 0.45988479 0.0018457726 489 100
-0.12117573 0.16073357 0.45886496 0.0018539071 492 101
-0.11873794 0.16045623 0.45876986 0.0017295335 504 104
-0.11631294 0.16018592 0.45867726 0.0017922989 519 108
-0.11405341 0.1601374 0.45920253 0.0017367848 546 116
-0.11170013 0.15995264 0.45932019 0.0017313793 502 103
-0.10934337 0.15975538 0.45938382 0.001864488 453 89
-0.10750321 0.16032033 0.46162394 0.0018663785 446 87
-0.10530424 0.16036274 0.46234491 0.0020148221 400 74
-0.10309788 0.16039547 0.46302137 0.0021883778 411 77
-0.10110278 0.16076565 0.46465617 0.0019714357 417 79
-0.098739728 0.16055419 0.46459341 0.0022252148 403 75
-0.096659876 0.16080409 0.46584889 0.0020914325 386 70
-0.095249496 0.16220593 0.47042999 0.0023676408 337 55
-0.093914285 0.16380677 0.47558078 0.0026613472 303 45
-0.092435025 0.16522962 0.48020709 0.0026043868 298 44
-0.090350822 0.16561608 0.48180965 0.0021839133 362 63
-0.08806818 0.16564944 0.48236981 0.0021867852 394 72
-0.085646637 0.16541633 0.48213688 0.0022511678 386 70
-0.083238363 0.1651967 0.48192587 0.0021085464 375 66
-0.081056789 0.16542731 0.48301241 0.0021208799 374 66
-0.078838594 0.16559444 0.48389897 0.0022449689 378 67
-0.076547906 0.16561477 0.48434156 0.0020937223 385 69
-0.074000701 0.16506419 0.48309812 0.0021649452 377 67
-0.071487017 0.16455556 0.48196059 0.0021171218 375 66
-0.069210067 0.16457625 0.48235771 0.0021513421 366 64
-0.06678471 0.1642334 0.48167464 0.0021542779 367 64
-0.064433269 0.16405451 0.48145759 0.0021330663 371 65
-0.062230326 0.1642545 0.48233885 0.0022619159 374 66
-0.059986297 0.1643571 0.48292133 0.0021317021 367 64
-0.057795744 0.1646201 0.4839628 0.0021311177 368 64
-0.055441484 0.16441932 0.483628 0.0023299092 370 65
-0.053217284 0.16460356 0.4844133 0.0023405703 355 61
-0.050859082 0.16437122 0.4839603 0.0022190274 349 59
-0.048543543 0.16426146 0.48385569 0.0021028088 383 69
-0.046025358 0.1634213 0.48158672 0.0021106496 381 68
-0.043765023 0.16345705 0.48188645 0.0020737199 386 70
-0.041524015 0.1635728 0.48241097 0.0020448391 392 71
-0.0391948 0.16333441 0.48187992 0.0021900188 383 69
-0.036905043 0.16324125 0.4817661 0.002182208 366 64
-0.034601897 0.16307276 0.4814193 0.0020472899 392 71
-0.032330092 0.16303879 0.48145887 0.0021870709 365 63
-0.030090058 0.16317193 0.48198178 0.0022851794 371 65
-0.027828535 0.16320077 0.48218656 0.0020751953 389 70
-0.0255119 0.16288282 0.48135674 0.002070016 390 71
-0.023211591 0.16261739 0.48067191 0.0020905728 378 67
-0.020965301 0.16271396 0.48104742 0.0020772754 389 70
-0.018734286 0.16296679 0.48187533 0.002185496 385 69
-0.016441029 0.16267321 0.48107836 0.0021033338 386 70
-0.014208642 0.16298436 0.48206031 0.0021293764 371 65
-0.011925406 0.16271959 0.48132971 0.0023275346 365 63
-0.0096579585 0.16259682 0.48100975 0.0020965191 395 72
-0.0074179354 0.1630017 0.48224175 0.0020619833 393 72
-0.0051597143 0.1631868 0.4828144 0.0021533568 383 69
-0.0028897128 0.16299739 0.48227018 0.0020936381 396 73
-0.00062589295 0.16304791 0.48242664 0.0023002154 380 68
0.0016296909 0.16213943 0.47973663 0.0020046954 413 77
0.0038930888 0.16261148 0.48112234 0.0020952544 380 68
0.0061531849 0.16264962 0.48121506 0.002067141 387 70
0.0084173894 0.16274673 0.48147327 0.0022007744 397 73
0.010686979 0.16288477 0.48184338 0.0021657231 400 74
0.012961872 0.16304129 0.48225892 0.0019253528 432 83
0.015183276 0.16257852 0.48083353 0.0019931893 408 76
0.017429562 0.16246752 0.48043945 0.0020248683 424 81
0.019666012 0.16230078 0.47987139 0.0019547732 416 78
0.021947425 0.16250123 0.48037943 0.0019020402 437 85
0.024199175 0.16246518 0.48017862 0.001914334 451 89
0.026452659 0.16244592 0.4800179 0.0018981895 437 85
0.028746309 0.16265695 0.48052773 0.0019327279 427 82
0.031016534 0.16271436 0.48057356 0.0020612662 426 81
0.033455025 0.16358671 0.48301539 0.0021190625 405 75
0.035592459 0.16296966 0.48104897 0.0019632136 420 80
0.037742566 0.16248095 0.47945189 0.001957227 423 80
0.040088616 0.16284333 0.48035571 0.0019761005 407 76
0.042422336 0.16311958 0.48099399 0.0019465374 423 80
0.044782396 0.16346397 0.48182127 0.0020120114 404 75
0.047019523 0.16334808 0.48128036 0.0020688616 388 70
0.049202342 0.16306283 0.48022944 0.0019734169 411 77
0.051455002 0.16302399 0.4798927 0.0020299889 399 73
0.053862192 0.16345735 0.48093358 0.0019328129 428 82
0.056110073 0.1633918 0.48049361 0.0019743107 429 82
0.058301829 0.16317423 0.47959456 0.0018634563 448 88
0.060494538 0.1629755 0.47873873 0.0019482876 419 79
0.062769406 0.16300449 0.47853911 0.0019742125 412 77
0.065057494 0.16306455 0.47841722 0.0019681973 416 78
0.067275837 0.16295171 0.47777453 0.0019163316 430 82
0.069777504 0.16351008 0.47908512 0.0019438886 431 83
0.071934544 0.16325116 0.47798622 0.0019950401 431 83
0.074333675 0.16354068 0.47847858 0.0018958447 443 86
0.076637462 0.16360946 0.47830954 0.0018765962 456 90
0.078787707 0.16335596 0.4771837 0.00187241 447 87
0.081471942 0.1641928 0.47922614 0.0019387641 429 82
0.083749615 0.16418703 0.47879156 0.0019853464 449 88
0.086057484 0.16423923 0.4785099 0.0019995337 456 90
0.088633865 0.16478789 0.47965705 0.0020091634 442 86
0.090884961 0.16471939 0.47898978 0.0020609391 431 83
0.093210869 0.16478655 0.47870049 0.0019717412 440 85
0.09554635 0.16486697 0.47843221 0.0020990451 423 80
0.098001935 0.16514602 0.47872224 0.0019053381 434 84
0.1003535 0.16524105 0.47846025 0.0018559322 457 90
0.10298784 0.16578704 0.47948453 0.0018966487 452 89
0.10525791 0.16573554 0.47876155 0.0018600584 446 87
0.10759246 0.16578564 0.47831449 0.0018599363 456 90
0.1099936 0.16593409 0.47813278 0.0018214023 471 94
0.11256661 0.1663304 0.47864571 0.0019239424 464 92
0.11511812 0.16667962 0.47900286 0.0019607353 440 85
0.11745313 0.1667078 0.47841862 0.0020122607 453 89
0.11983755 0.16680367 0.47801104 0.0018927481 452 89
0.12219682 0.16686153 0.47747734 0.0017724206 485 99
0.12494594 0.16743971 0.47841358 0.0017587927 490 100
0.12732057 0.16750407 0.47786319 0.0017836808 481 97
0.12959209 0.16743287 0.47691134 0.0018318268 462 92
0.1319536 0.16747841 0.47627783 0.0018477613 460 91
0.13458085 0.16785383 0.4765673 0.0018532349 484 98
0.13752306 0.1686026 0.47789964 0.0018219438 471 94
0.1399916 0.16875529 0.47752738 0.0019277905 487 99
0.14241579 0.16885038 0.47698176 0.0018601266 477 96
0.14477092 0.16886185 0.47619173 0.0018693431 505 104
0.14738646 0.16917183 0.47623634 0.0018393782 493 101
0.15008998 0.16957149 0.47652641 0.0017889779 508 105
0.15284188 0.17001264 0.47692776 0.0017847179 477 96
0.15535104 0.17017442 0.47654384 0.0019890601 480 97
0.15778041 0.17024527 0.47590825 0.0019253218 480 97
0.16053039 0.17065488 0.47622457 0.0018440839 464 92
0.16333629 0.17111112 0.47667724 0.0018353431 463 92
0.16657946 0.1720058 0.47835872 0.0019491219 464 92
0.16760485 0.17061752 0.47371069 0.0017767901 487 99
0.17027371 0.17091769 0.47377676 0.001838571 459 91
0.17392975 0.17218685 0.47654676 0.0019119382 429 82
0.17674051 0.17259613 0.47695854 0.0021044184 436 84
0.17950614 0.17295097 0.47724962 0.001993607 406 75
0.1819908 0.17302932 0.47681281 0.0021269296 420 80
0.18419991 0.17284705 0.47569859 0.001958478 424 81
0.18655251 0.17280237 0.47500801 0.0020218925 438 85
0.18927668 0.17309864 0.47530136 0.0020935426 377 67
0.1919747 0.17336386 0.4755587 0.0020371492 399 73
0.19455129 0.17351422 0.47555366 0.0021130668 372 66
0.19672032 0.17330186 0.47461101 0.0022041358 353 60
0.19912654 0.17330107 0.474307 0.002291003 335 55
0.20152737 0.17329565 0.47405103 0.0023469066 319 50
0.20447724 0.1737569 0.47513342 0.0025317201 291 42
0.20720719 0.1740227 0.47574431 0.002815576 284 40
0.20938432 0.17382346 0.47514832 0.0025724305 281 39
0.21100815 0.17317463 0.4733884 0.0025089441 290 42
0.21368369 0.17339386 0.47406662 0.0026728231 269 35
0.21619308 0.17347491 0.47443196 0.0030395689 257 32
0.21872327 0.17357063 0.47490233 0.002907966 260 33
0.22211379 0.17433956 0.47728005 0.0029206055 235 25
0.22439194 0.17422822 0.4773123 0.0030111442 226 23
0.22565216 0.1733373 0.4752689 0.0030918219 215 20
0.22677429 0.17236026 0.47304559 0.0032051627 226 23
0.22924118 0.17241503 0.47371083 0.0031792626 212 19
0.23130162 0.17216614 0.47359887 0.0031468482 211 18
0.23346695 0.17199962 0.47376817 0.0032580919 198 15
0.23565963 0.1718564 0.47405508 0.0033298868 197 14
0.23745167 0.17142683 0.4736025 0.0033868789 198 15
0.24077354 0.17209929 0.47624692 0.0039940812 184 11
0.24197342 0.17125666 0.47474724 0.0036329974 182 10
0.24259004 0.17002165 0.47219715 0.0035375291 183 10
0.24395205 0.16932786 0.4711858 0.0038005854 167 6
0.2519834 0.1732323 0.48303229 0.0047114333 146 0
-0.27899975 0.17218617 0.48661649 0.0051770569 112 0
-0.27388141 0.17046863 0.48194301 0.0055545755 122 0
-0.27273175 0.171213 0.48373556 0.004850687 124 0
-0.27132547 0.17180774 0.48474705 0.0057171034 114 0
-0.26990438 0.17240345 0.48551804 0.0048666801 124 0
-0.26934114 0.1735625 0.48771822 0.0047469363 129 0
-0.26648167 0.17324927 0.4856942 0.0050230506 128 0
-0.26517051 0.17394611 0.48646209 0.005278884 133 0
-0.26233345 0.17364557 0.48443002 0.0044708266 139 0
-0.26033771 0.17390148 0.48396158 0.0044360887 135 0
-0.25941408 0.17488489 0.48553213 0.0044914237 137 0
-0.25880897 0.17610338 0.48777074 0.0043357532 143 0
-0.25641751 0.17611787 0.4867014 0.0048438194 139 0
-0.25402683 0.17613317 0.48567227 0.0044384054 140 0
-0.25145549 0.17602229 0.48433605 0.0045443289 141 0
-0.2487898 0.17584258 0.48285455 0.0042990432 149 0
-0.24639732 0.17585436 0.48194391 0.0048237001 151 1
-0.24450547 0.17622718 0.48206651 0.0044135274 155 2
-0.24298391 0.17687702 0.48298925 0.0040791878 152 1
-0.24113683 0.17730054 0.48333833 0.0039107273 158 3
-0.23942111 0.17783032 0.48402375 0.0043938467 158 3
-0.23775248 0.17840628 0.48488319 0.0038609656 160 4
-0.23566252 0.17867479 0.48495826 0.0041198428 166 5
-0.23304611 0.17854558 0.48400962 0.0037790758 170 7
-0.23102057 0.17887112 0.48435086 0.0035569191 182 10
-0.23027588 0.18020602 0.48747975 0.0038259898 183 10
-0.2274913 0.17995617 0.48637986 0.0036553913 183 10
-0.22300962 0.17834365 0.48166287 0.0033526812 196 14
-0.22036558 0.17818132 0.48092866 0.0033213443 199 15
-0.21896344 0.17903072 0.48298785 0.0032662735 205 17
-0.21710314 0.17952052 0.48413983 0.003257961 201 16
-0.21420269 0.17915161 0.48304066 0.0031961591 207 17
-0.21153267 0.17896912 0.48250958 0.0031895917 218 21
-0.20923603 0.1791019 0.48289344 0.0030859173 238 26
-0.20691569 0.17921735 0.48329523 0.0028299489 245 28
-0.2039685 0.17878608 0.4822861 0.0027102272 265 34
-0.20187168 0.17909883 0.48334655 0.0027228892 261 33
-0.19965865 0.17931485 0.4842079 0.0025994154 275 37
-0.19691533 0.1790541 0.483841 0.0026248079 280 39
-0.19422899 0.17883924 0.48365456 0.0025685711 280 39
-0.191717 0.17878143 0.48394683 0.0029013439 271 36
-0.18951768 0.17901748 0.48508686 0.0024800773 297 44
-0.18633612 0.17831977 0.48374397 0.0023242186 323 51
-0.1837755 0.17820562 0.48402691 0.0024214075 306 46
-0.18111004 0.17798539 0.48406246 0.002380996 313 48
-0.17848268 0.17779708 0.48422128 0.0024541777 305 46
-0.17568201 0.1774285 0.48392135 0.0024192459 310 47
-0.17289507 0.17706369 0.48365906 0.0024813856 331 54
-0.17036466 0.17695494 0.4841207 0.0023544068 315 49
-0.16777961 0.17678545 0.48443767 0.0024669308 332 54
-0.16525376 0.17667432 0.48493236 0.0022665393 343 57
-0.1614023 0.17512158 0.48147786 0.0021898118 356 61
-0.15860981 0.17468828 0.48110393 0.0022599213 339 56
-0.15647468 0.17497684 0.48272592 0.0024063017 352 60
-0.15390746 0.17478366 0.48302492 0.0023053538 359 62
-0.15129793 0.17453553 0.48317266 0.0024757567 346 58
-0.14841467 0.17395867 0.48240656 0.0021727236 358 61
-0.14572665 0.17359546 0.48222625 0.0021562539 376 67
-0.14304662 0.17322993 0.48203135 0.0021285948 373 66
-0.14048304 0.17299548 0.48219186 0.002353305 370 65
-0.13795765 0.17280081 0.48245299 0.0021327774 368 64
-0.13458396 0.17151825 0.47966006 0.002109882 379 68
-0.12907948 0.16742627 0.46897507 0.002079373 403 75
-0.12454111 0.16446206 0.46140501 0.0019065754 445 87
-0.12192536 0.1639743 0.46075457 0.0018257441 485 99
-0.1191059 0.1631891 0.45924911 0.001851197 491 100
-0.11674533 0.16301462 0.4594439 0.0018951282 483 98
-0.11428776 0.16269526 0.45921323 0.001854221 498 102
-0.11180279 0.16232345 0.4588162 0.001773464 488 99
-0.10920583 0.16177061 0.45788822 0.0017656486 487 99
-0.10780448 0.16300265 0.46199855 0.0020250026 440 85
-0.10571134 0.16321872 0.46321839 0.0021854269 407 76
-0.10359742 0.16341132 0.46435654 0.0019877537 413 77
-0.10154472 0.16371113 0.46578437 0.0019430279 420 80
-0.099688597 0.16434857 0.46815923 0.0022770797 377 67
-0.09794499 0.16520526 0.47114664 0.0022461538 334 54
-0.096690178 0.16694643 0.47664803 0.0025597736 283 40
-0.095216714 0.1683853 0.4812794 0.0027150805 303 45
-0.092760786 0.16811503 0.48101231 0.0021159227 377 67
-0.090643488 0.16846035 0.48248994 0.002119211 365 63
-0.088322982 0.1684362 0.48289362 0.0021204557 374 66
-0.085836969 0.16808666 0.48234686 0.0023101873 374 66
-0.083318852 0.16765323 0.48154107 0.0022390741 379 68
-0.081055842 0.1677231 0.48216391 0.0021219559 377 67
-0.078999236 0.16823663 0.48404789 0.0021485733 362 63
-0.076624259 0.16808261 0.48399654 0.0021853936 378 67
-0.074027754 0.16741808 0.48245808 0.0022277092 375 66
-0.071613215 0.16713576 0.48200411 0.0021076191 376 67
-0.069403395 0.16732828 0.4829047 0.002152103 371 65
-0.067084029 0.16726089 0.48304108 0.0021789887 363 63
-0.06465055 0.16689414 0.48229799 0.0022018107 354 60
-0.062358253 0.16687831 0.48255455 0.002145261 366 64
-0.060352646 0.16765767 0.48509827 0.0022389812 356 61
-0.057796396 0.16690853 0.48320636 0.0021422454 369 65
-0.055569805 0.16708891 0.48399147 0.0023781846 338 56
-0.053130805 0.16661865 0.48287868 0.0022340592 360 62
-0.051017534 0.16717353 0.48472446 0.0023955887 332 54
-0.048509277 0.16642547 0.48277995 0.002074044 391 71
-0.046046071 0.16576578 0.48107791 0.0020876504 384 69
-0.043835741 0.16599524 0.48194399 0.0021844206 392 71
-0.041560855 0.16599195 0.48212317 0.0020849868 386 70
-0.039327588 0.16616417 0.48280096 0.0021297149 377 67
-0.036983743 0.16586161 0.482088 0.0022221361 351 59
-0.034626443 0.16545512 0.48106146 0.0021986763 354 60
-0.032313034 0.16521612 0.48051056 0.002438877 354 60
-0.030073164 0.16534548 0.48102036 0.0024134372 365 63
-0.027809961 0.16535714 0.48117754 0.002128443 375 66
-0.025540924 0.16533312 0.48122066 0.0021204103 376 67
-0.023240957 0.1650847 0.48060042 0.0020762729 387 70
-0.020991374 0.16517919 0.48096845 0.0020730961 379 68
-0.018730298 0.16519518 0.48109806 0.0021428049 372 66
-0.016502747 0.16555187 0.4822104 0.0021392209 367 64
-0.014244377 0.16566378 0.4826003 0.0022701784 393 72
-0.011978342 0.16571207 0.4827953 0.0022857124 376 67
-0.0096922601 0.16544077 0.48204964 0.0022735684 365 63
-0.0074180183 0.16526763 0.48158047 0.0021146329 378 67
-0.0051597813 0.16545558 0.48215413 0.0022121847 378 67
-0.0028972472 0.16569231 0.48286057 0.0020524221 389 70
-0.00062609307 0.16536549 0.48191547 0.0021873701 372 66
0.0016366391 0.16509242 0.48111755 0.0021165858 371 65
0.0038947517 0.16494057 0.4806636 0.0020403634 394 72
0.0061679217 0.16530377 0.48170125 0.0021659052 392 71
0.0084739197 0.16611543 0.48403624 0.0020425881 397 73
0.010705106 0.16542733 0.48199159 0.0020642346 390 71
0.012950899 0.16516596 0.4811812 0.0019920156 407 76
0.015226279 0.16530357 0.48152357 0.0019635269 426 81
0.017476318 0.16516605 0.48105499 0.0020692497 411 77
0.019733269 0.16511787 0.48083699 0.0019706639 413 77
0.021965796 0.16489628 0.48010433 0.0019331126 435 84
0.024292145 0.16535462 0.48134139 0.0019153653 437 85
0.026558295 0.16535997 0.48124948 0.0020324863 402 74
0.028759498 0.16499189 0.48006099 0.0019658681 419 79
0.031088062 0.16535486 0.48098925 0.0021013718 410 77
0.033422355 0.16569692 0.48184559 0.0020882795 403 75
0.035711918 0.16578788 0.48196083 0.0020446342 395 72
0.037894145 0.16539943 0.48067188 0.0020281281 399 73
0.040178508 0.16547541 0.48072201 0.0019975519 409 76
0.042514727 0.1657455 0.48132446 0.0021416764 413 77
0.04470389 0.16544394 0.48025557 0.0020506578 398 73
0.046875726 0.16511044 0.47908318 0.0019142214 434 84
0.049202099 0.16532694 0.47949499 0.0021569447 413 77
0.051510368 0.1654662 0.47967035 0.0020423492 433 83
0.053774867 0.16545908 0.47940883 0.0021891927 414 78
0.05605074 0.1654861 0.47923383 0.0019494281 428 82
0.058227029 0.16522844 0.47822195 0.0019036197 434 84
0.060620654 0.16558369 0.47897097 0.0020056725 407 76
0.063046321 0.16599768 0.47987533 0.0021609082 392 71
0.065387033 0.16616695 0.48005751 0.0020011142 407 76
0.067578986 0.16595954 0.47913778 0.0020179518 402 74
0.070092052 0.16652852 0.4804447 0.0019872116 411 77
0.072449878 0.16670443 0.48060164 0.0019385027 427 82
0.074583709 0.16636996 0.47927278 0.0019735331 426 81
0.076646365 0.16590124 0.47754425 0.0018879533 450 88
0.079331592 0.1667683 0.47964433 0.0018843501 444 87
0.081419125 0.16636547 0.47807571 0.0019303791 436 84
0.083813004 0.16659357 0.47830465 0.0019209131 433 83
0.08627224 0.16693601 0.47884464 0.0019064865 441 86
0.088661835 0.16712949 0.47893953 0.0019401507 429 82
0.091032952 0.16727926 0.47889176 0.0021299783 427 82
0.093316548 0.16726482 0.47835687 0.0019283363 422 80
0.095644385 0.16732846 0.4780283 0.0020404225 417 79
0.09795779 0.16736448 0.4776035 0.0020465849 438 85
0.10044175 0.16768356 0.47796825 0.0019284643 475 96
0.10295961 0.16804372 0.47843057 0.0018143462 471 94
0.10548676 0.16840294 0.47887051 0.0018465656 460 91
0.10766706 0.1682049 0.47770801 0.0018472337 457 90
0.11030132 0.16870953 0.47852275 0.0018464316 462 92
0.11280952 0.1690046 0.47872302 0.0018961992 455 90
0.11501504 0.16884345 0.47761357 0.0021158985 432 83
0.11767115 0.16933709 0.47833827 0.0018885215 450 88
0.11998254 0.16932516 0.4776167 0.0018223556 472 95
0.12243624 0.16951069 0.47743547 0.0018299677 465 93
0.12519744 0.17010713 0.47839293 0.0019226072 477 96
0.12768871 0.17032169 0.4782584 0.0018137969 469 94
0.12977986 0.17000449 0.47661716 0.0018485448 455 90
0.13237402 0.17034571 0.47680894 0.0019506337 454 89
0.13514163 0.17089444 0.4775658 0.0020646967 448 88
0.13764258 0.17109305 0.47733015 0.0018752031 446 87
0.14015295 0.17129646 0.477097 0.0018401431 469 94
0.14257906 0.17139196 0.4765546 0.0018775561 484 98
0.14518914 0.17170191 0.47660077 0.0017920905 479 97
0.14765854 0.17183824 0.47615954 0.0018966678 472 95
0.1504536 0.17234334 0.47673577 0.0018043451 471 94
0.15316142 0.17273442 0.47699359 0.0018497334 454 89
0.15557143 0.1727829 0.47630706 0.0018744511 484 98
0.15820327 0.17307255 0.47629067 0.0018171903 469 94
0.16092724 0.17345297 0.47653088 0.0018573562 447 87
0.16386832 0.17405294 0.47738302 0.0018720989 457 90
0.1667062 0.17452763 0.47790337 0.0019022159 437 85
0.16847393 0.17388439 0.4753837 0.0019888708 451 89
0.17138797 0.17442571 0.47612697 0.0019449187 419 79
0.17405306 0.17470226 0.47617179 0.0019338923 425 81
0.17686427 0.17511599 0.47661948 0.001993811 409 76
0.17957453 0.17542005 0.47680131 0.0020156826 403 75
0.1819517 0.17539498 0.4761267 0.0020381298 396 73
0.18434504 0.17538592 0.47553846 0.00196793 416 78
0.18665107 0.17529516 0.47477481 0.0021102822 411 77
0.18946546 0.17567801 0.47534251 0.0021464508 366 64
0.19178498 0.17559816 0.47470957 0.0021971734 357 61
0.19396459 0.17539379 0.47379535 0.00223793 350 59
0.19692104 0.1758883 0.47482562 0.002267956 335 55
0.19913107 0.17571218 0.47410411 0.0025779745 313 48
0.20144789 0.17563339 0.47370625 0.0026407316 305 46
0.20412746 0.17586899 0.47421822 0.0027993971 292 42
0.2066813 0.17599206 0.47448945 0.0026122495 283 40
0.20951518 0.17634799 0.47545218 0.0025867431 280 39
0.21200033 0.17640561 0.47567472 0.0026834721 273 37
0.21403064 0.17608774 0.47494853 0.0029218406 259 33
0.21595503 0.17569077 0.47407201 0.0026693328 266 35
0.21844937 0.1757611 0.4745191 0.0028065434 251 30
0.22185372 0.17655414 0.47698098 0.0029761565 227 23
0.22337262 0.17584577 0.47544831 0.0034370827 220 21
0.22414719 0.17457283 0.47244447 0.0032212597 215 20
0.22676793 0.17474942 0.4734194 0.003161564 211 18
0.22821818 0.17402977 0.47202179 0.0035241041 211 18
0.23234077 0.17534171 0.47619227 0.0035092065 201 16
0.23368058 0.17454822 0.47470099 0.0033428671 198 15
0.23487788 0.17366546 0.47301283 0.0033855636 195 14
0.23698424 0.17346577 0.47323161 0.003470483 189 12
0.2394788 0.17355141 0.4742775 0.00393824 177 9
0.24134015 0.17318097 0.47412321 0.0039839242 169 6
0.24228691 0.17216782 0.47224814 0.0040240614 173 7
0.24405132 0.17174968 0.47204167 0.0040452676 152 1
0.2432263 0.16953459 0.46692365 0.004229208 144 0
-0.27595156 0.17263807 0.4808808 0.0052258936 113 0
-0.27362859 0.17264445 0.48145205 0.005064771 123 0
-0.27153242 0.17279533 0.48185372 0.0048965546 118 0
-0.27049714 0.17362973 0.48372552 0.0052834242 110 0
-0.27001327 0.17483583 0.48631969 0.0050118635 121 0
-0.26794156 0.17502598 0.48588157 0.0049231732 138 0
-0.26641834 0.17558096 0.48633182 0.0045434674 131 0
-0.26432177 0.17576474 0.48568577 0.0048863147 123 0
-0.26260728 0.17620815 0.485728 0.0053248117 128 0
-0.26025984 0.17623112 0.48460746 0.0046382379 126 0
-0.25962296 0.17742351 0.48671004 0.0045739445 132 0
-0.25806814 0.17800494 0.48715016 0.0046113697 134 0
-0.25598851 0.17823192 0.48664671 0.0049162996 134 0
-0.25395662 0.17849675 0.48627919 0.004377007 142 0
-0.25161967 0.17855023 0.48537222 0.0043941862 136 0
-0.24966265 0.17887694 0.48524654 0.0050216578 136 0
-0.24738689 0.17897944 0.48455292 0.0052339877 137 0
-0.24553607 0.17939441 0.48474675 0.0042727492 146 0
-0.24315125 0.17942363 0.48394179 0.0039597801 153 2
-0.2412243 0.1797947 0.48410457 0.0049259653 143 0
-0.23927912 0.18015961 0.48429674 0.0045496519 148 0
-0.23791197 0.1809717 0.48573682 0.0040010521 154 2
-0.23620729 0.18154125 0.48657322 0.0039244969 165 5
-0.23409185 0.18180373 0.48663786 0.004282637 167 6
-0.23261385 0.18257211 0.48810926 0.0035715722 184 11
-0.22986701 0.1823504 0.48698953 0.0036248588 171 7
-0.22678843 0.18185787 0.48520735 0.0039430601 177 9
-0.22338705 0.18109284 0.48276109 0.003563649 189 12
-0.220626 0.18083577 0.48173207 0.003225662 209 18
-0.21876195 0.18131633 0.48272976 0.0034573807 206 17
-0.21675585 0.18168876 0.4835009 0.0035476817 204 16
-0.21421503 0.18161638 0.48315144 0.0035494361 197 14
-0.21179955 0.18164977 0.48314723 0.0032616477 208 18
-0.21015289 0.18235111 0.48498324 0.0029741819 240 27
-0.20738056 0.18208072 0.48429868 0.0029342747 234 25
-0.20459856 0.18179524 0.48363698 0.0028073983 252 30
-0.2019988 0.18166675 0.48345509 0.0027427962 260 33
-0.19971931 0.18182664 0.48410186 0.0026863748 265 34
-0.19703786 0.18162 0.48383245 0.0026450527 274 37
-0.19414186 0.18120793 0.48307255 0.0028147944 269 35
-0.19176182 0.18127303 0.48363954 0.0026973744 275 37
-0.1888261 0.18080772 0.4828434 0.0027201497 280 39
-0.18611127 0.18054456 0.4826355 0.0024573691 310 47
-0.18370414 0.18057682 0.48326358 0.0024755313 299 44
-0.18131052 0.18062341 0.48397431 0.002496127 294 43
-0.17846215 0.18021208 0.48349711 0.0026617993 309 47
-0.17587608 0.1800579 0.48374462 0.002625928 309 47
-0.17324768 0.17985545 0.48389411 0.0024597682 309 47
-0.17064473 0.17967403 0.48412812 0.0023568375 334 54
-0.16815472 0.179608 0.48469749 0.0022779142 335 55
-0.165108 0.1789367 0.48365241 0.0022872628 341 56
-0.16186504 0.1780296 0.4819814 0.0022220619 343 57
-0.15937662 0.17793754 0.48252723 0.0023501897 325 52
-0.15697786 0.17794433 0.48335221 0.0022792285 335 55
-0.15437955 0.17772157 0.48356098 0.0023013854 330 53
-0.15132953 0.17696355 0.48231426 0.0022377355 347 58
-0.14847524 0.17641376 0.48163155 0.0022190427 347 58
-0.14561631 0.17584041 0.48087931 0.0023322094 348 59
-0.14342619 0.17606908 0.48231667 0.0022204421 347 58
-0.14099425 0.17600359 0.48294431 0.0023511357 348 59
-0.13820787 0.17548583 0.48232198 0.0023889057 363 63
-0.13530557 0.1748002 0.48122481 0.0021940295 366 64
-0.13202247 0.17358954 0.47866407 0.0023502021 358 61
-0.12604812 0.16873245 0.46601087 0.0020868364 385 69
-0.12267531 0.16724306 0.4626193 0.0020233768 440 85
-0.12015489 0.16688162 0.46232718 0.0019645209 451 89
-0.11728705 0.16601464 0.46061593 0.0020184291 442 86
-0.11492064 0.16583739 0.46079999 0.0020614453 429 82
-0.11189824 0.16468765 0.45826179 0.0019354109 425 81
-0.10989283 0.16501839 0.45982483 0.0019899188 415 78
-0.10803856 0.16559449 0.46205938 0.0021253955 424 81
-0.10609982 0.16606277 0.46398121 0.0022056014 398 73
-0.10391937 0.16616477 0.4648656 0.0020434801 394 72
-0.10224374 0.1670963 0.46805784 0.0024310728 346 58
-0.10042029 0.1678229 0.47066525 0.0023303963 327 52
-0.099311382 0.16980478 0.47678548 0.002761909 297 44
-0.097655125 0.17092244 0.48047236 0.0024399562 310 47
-0.09532281 0.17088231 0.48089117 0.0021860683 363 63
-0.09331613 0.17143841 0.4829725 0.0021407951 370 65
-0.09103442 0.17150469 0.48365891 0.0021741008 361 62
-0.088589519 0.17125897 0.48344836 0.0021387425 373 66
-0.08606869 0.17084934 0.48275673 0.0021746715 368 64
-0.083601117 0.17052576 0.48229 0.0022953048 370 65
-0.081210069 0.17034435 0.4822081 0.0021706333 378 67
-0.079067521 0.17068879 0.48359925 0.0021265068 374 66
-0.07666789 0.17048231 0.48341435 0.0021253549 374 66
-0.074063212 0.16979292 0.48184282 0.0021300639 366 64
-0.071740121 0.16972566 0.48201996 0.0021471765 366 64
-0.069510952 0.16988349 0.48282173 0.0021592509 363 63
-0.06721203 0.16987579 0.48313895 0.0021188208 376 67
-0.064953499 0.16997327 0.4837411 0.0022122981 353 60
-0.062733181 0.17018156 0.48464525 0.0023622166 348 59
-0.060240626 0.16963907 0.48339695 0.0024159949 354 60
-0.057885945 0.16945727 0.48316169 0.0023450495 337 55
-0.055563807 0.16935968 0.48315296 0.0024323147 332 54
-0.053329781 0.1695338 0.48390648 0.0022617802 343 57
-0.050767306 0.16863257 0.48157671 0.0022148946 354 60
-0.048695073 0.16935161 0.48386148 0.0023428239 357 61
-0.046185717 0.1685463 0.48177865 0.002170179 380 68
-0.043836657 0.16827281 0.4812026 0.0023274678 372 66
-0.041638203 0.16857913 0.4822728 0.0021552579 368 64
-0.039339751 0.16849265 0.48220798 0.0022089782 352 60
-0.037039895 0.1683891 0.48208278 0.0023978823 341 56
-0.034683 0.16799574 0.48111632 0.0023846845 342 57
-0.032347817 0.1676598 0.48030254 0.0022355889 346 58
-0.030081712 0.16765828 0.4804357 0.0021743921 362 63
-0.027820254 0.16768451 0.48063773 0.0022754113 359 62
-0.025554324 0.16768602 0.48075852 0.0022132816 355 61
-0.023296883 0.16774899 0.48104519 0.0021289031 374 66
-0.021066586 0.168042 0.48198155 0.0022683833 367 64
-0.018850559 0.16853349 0.48347732 0.0020781839 388 70
-0.016492508 0.16771573 0.48120722 0.0020963436 387 70
-0.014261873 0.16813958 0.48248923 0.0022575436 369 65
-0.011998281 0.16826189 0.48289627 0.0021127083 376 67
-0.009692939 0.16771896 0.4813844 0.0021071341 373 66
-0.0074201934 0.16758086 0.48102432 0.0021219738 383 69
-0.0051670135 0.16795732 0.48213175 0.0022088536 354 60
-0.0028974586 0.16797449 0.48219815 0.0021199454 379 68
-0.00062698137 0.16786875 0.48190212 0.0023680734 376 67
0.0016381147 0.167505 0.48085576 0.0020529698 395 72
0.0039041562 0.16760391 0.48112789 0.0022757261 370 65
0.0061922651 0.1682297 0.48290282 0.0020881766 391 71
0.0084700817 0.16831486 0.48311612 0.0020239833 395 72
0.010712273 0.16780588 0.48161438 0.0020085513 402 74
0.012969949 0.16767494 0.48118815 0.0020469704 390 71
0.015239664 0.16771547 0.48124403 0.0021306924 393 72
0.017483333 0.16749597 0.480544 0.002152499 398 73
0.019729864 0.16735104 0.48004821 0.0019648666 421 80
0.022059955 0.16787182 0.48145172 0.0019780032 413 77
0.024345996 0.16799149 0.48169437 0.0019915923 410 77
0.026594095 0.16785127 0.48118153 0.0020410873 393 72
0.028873304 0.16791406 0.48124024 0.0019231578 431 83
0.031125771 0.16782348 0.48084882 0.0021615063 412 77
0.033434436 0.16802761 0.48129115 0.0020373787 402 74
0.035722584 0.16810927 0.48137134 0.002036063 392 71
0.03798534 0.1680688 0.48109075 0.0020294611 401 74
0.040265307 0.16810472 0.4810178 0.0020170249 394 72
0.042502046 0.16796601 0.48043364 0.0021976805 393 72
0.044648878 0.16750407 0.47891411 0.0021645669 401 74
0.046898413 0.16745341 0.47855932 0.0021675385 400 74
0.049179807 0.16751592 0.47851586 0.0019711365 412 77
0.051761802 0.16855176 0.48123914 0.0019392821 426 81
0.054042835 0.16856159 0.4810189 0.0020899929 403 75
0.055996902 0.16759205 0.47799259 0.0021032237 417 79
0.058251821 0.1675633 0.47763819 0.0019428703 426 81
0.060823929 0.16841495 0.47977874 0.0020631438 388 70
0.063189127 0.16865292 0.48015574 0.0020978099 369 65
0.065471925 0.16866207 0.47986704 0.0021094379 376 67
0.067890778 0.16900928 0.48052546 0.0020779327 384 69
0.070092574 0.16881116 0.47961876 0.0021440815 400 74
0.072534017 0.16918448 0.48032066 0.0021155358 406 75
0.07489232 0.16934697 0.48040816 0.0019501947 420 80
0.077163361 0.16930841 0.47990984 0.0019233592 433 83
0.079130046 0.16862343 0.47756574 0.0018779391 445 87
0.081527598 0.16886932 0.47784337 0.0019482803 430 82
0.083960637 0.16917329 0.47826827 0.0019395495 428 82
0.086485073 0.16964044 0.47913635 0.0020428791 413 77
0.08888717 0.16984965 0.47925806 0.0019564249 425 81
0.091329321 0.17012297 0.47954273 0.0019576934 419 79
0.093373433 0.16965964 0.47773489 0.0019651353 414 78
0.096262917 0.17071772 0.48019254 0.0019136132 431 83
0.098194741 0.17006768 0.47782752 0.0020084823 459 91
0.10042556 0.16995333 0.47695312 0.0018772912 442 86
0.10316245 0.17068143 0.47842401 0.0018759789 448 88
0.1055508 0.17081362 0.47820455 0.0020191614 442 86
0.1079616 0.1709757 0.47805098 0.0018580423 455 90
0.11044933 0.17125027 0.47819349 0.0019649744 460 91
0.11278421 0.17128144 0.47763869 0.0020136742 443 86
0.11533305 0.17162979 0.47795045 0.0019616401 431 83
0.11776013 0.17178673 0.47771141 0.0019010016 445 87
0.12018559 0.17193532 0.47743237 0.0019397439 461 92
0.12283592 0.17239383 0.47799635 0.0020214601 445 87
0.12556897 0.17294924 0.47881055 0.001947852 457 90
0.12801053 0.17309019 0.47846076 0.0019785562 454 89
0.13084325 0.17374553 0.4795168 0.0018759603 442 86
0.1332763 0.17385638 0.47905517 0.0019330388 429 82
0.13567568 0.17392021 0.47845286 0.0019033187 445 87
0.13827224 0.17423032 0.47851762 0.0019189806 438 85
0.14081995 0.17446956 0.47837782 0.0019340998 427 82
0.14331946 0.17464218 0.47804803 0.0019599549 442 86
0.14565356 0.17461088 0.47715598 0.0017931088 477 96
0.1480369 0.17463867 0.47642401 0.001904411 453 89
0.15102033 0.17536244 0.47758847 0.0018728446 459 91
0.15355286 0.17554834 0.4772875 0.0019342136 450 88
0.15620658 0.17586499 0.47734636 0.001796848 477 96
0.1587057 0.17600074 0.47692168 0.0020198287 440 85
0.16135901 0.17630097 0.4769536 0.0019063301 440 85
0.16413242 0.17672174 0.47732455 0.0019366365 423 80
0.1666339 0.17684186 0.4769007 0.0019891297 417 79
0.16910833 0.17693026 0.47641373 0.0019639162 416 78
0.17185973 0.17730197 0.47671455 0.0019544843 420 80
0.17450635 0.17755684 0.47672948 0.0019774202 413 77
0.17735478 0.17800732 0.47730112 0.0020455699 404 75
0.17952554 0.1777747 0.47607821 0.0021208627 384 69
0.18158133 0.1774359 0.47461414 0.0023070686 375 66
0.18471722 0.17814757 0.47600347 0.0021900127 373 66
0.18718274 0.17820276 0.47568434 0.0022097086 365 63
0.18920533 0.17784022 0.4743014 0.0022751596 364 63
0.19147998 0.17772068 0.47362095 0.0022531354 348 59
0.194585 0.17836529 0.47503158 0.0023319896 325 52
0.19711298 0.17847167 0.47506499 0.0023596056 322 51
0.19937851 0.17834069 0.47452596 0.0027506347 285 40
0.20159373 0.1781684 0.47393793 0.0025783442 280 39
0.2040755 0.17823295 0.47404158 0.002746982 286 40
0.2064469 0.17820075 0.47394997 0.0026135296 277 38
0.20872644 0.1780909 0.47371456 0.0025785598 281 39
0.21211249 0.1789169 0.47603142 0.0026784001 282 39
0.21386643 0.17836308 0.47473991 0.0029698217 254 31
0.2159211 0.17806968 0.47420248 0.0028773553 245 28
0.21843082 0.17815383 0.47473168 0.0029754876 229 24
0.2206475 0.17799979 0.47468629 0.0030426814 221 21
0.22221155 0.17732824 0.47331837 0.0033729735 212 19
0.22390342 0.17677194 0.47231299 0.003307661 210 18
0.22622272 0.1767175 0.47270352 0.0036339769 207 17
0.23020536 0.17794998 0.47659546 0.0035662849 203 16
0.23207915 0.1775437 0.47615516 0.0033098804 204 16
0.23320481 0.17657924 0.47426525 0.0036671597 199 15
0.23459725 0.17583427 0.47300842 0.0034780384 191 13
0.23644237 0.17544012 0.47273961 0.0035298895 181 10
0.23838389 0.17512463 0.47272685 0.0037923509 165 5
0.24043468 0.17489482 0.47298828 0.0041995351 166 5
0.24186932 0.17422566 0.47210088 0.0044429046 156 2
0.24368002 0.17383766 0.47201198 0.0046210503 154 2
0.24808317 0.17528887 0.47696388 0.0048509329 135 0
-0.27854851 0.17661782 0.48470515 0.0056783017 101 0
-0.27604496 0.17652287 0.48542532 0.005348118 108 0
-0.27174917 0.17527036 0.48230952 0.0053618532 116 0
-0.27076876 0.17615294 0.48454759 0.0049991985 119 0
-0.26940447 0.17679912 0.48574871 0.0055964608 108 0
-0.26726326 0.17694227 0.48530197 0.0055953441 122 0
-0.26504469 0.17703633 0.48455206 0.0051723453 123 0
-0.26414412 0.17802034 0.4861345 0.0047417204 127 0
-0.26230371 0.17838308 0.48596364 0.004939531 121 0
-0.26039246 0.1787038 0.48565844 0.00486062 124 0
-0.25786275 0.1786021 0.4842093 0.0049279504 117 0
-0.25675374 0.17949171 0.48546129 0.0049307039 122 0
-0.25435397 0.1794872 0.48431656 0.0048728823 125 0
-0.25258812 0.17993419 0.48441994 0.0045275614 135 0
-0.25191563 0.1811761 0.4866893 0.0052313083 124 0
-0.24996744 0.18151568 0.48656431 0.0047603427 127 0
-0.24795146 0.18181221 0.48636135 0.0046737874 130 0
-0.24558835 0.18185753 0.48552707 0.0051221307 139 0
-0.24385501 0.18237476 0.4859941 0.0042993571 145 0
-0.24143171 0.18238123 0.48514333 0.0044176364 145 0
-0.23927616 0.18259211 0.48488298 0.004120281 149 0
-0.23749599 0.18309672 0.48544851 0.0044833687 154 2
-0.23599999 0.18383321 0.48667452 0.0042014481 158 3
-0.2345425 0.18461545 0.48806843 0.0040859524 165 5
-0.23228176 0.18477531 0.48786759 0.0037318196 171 7
-0.22921099 0.18428734 0.48601288 0.003729054 171 7
-0.2260906 0.18374844 0.48408374 0.0038988513 186 11
-0.22336307 0.18352054 0.48303387 0.0035861693 185 11
-0.2209121 0.18351734 0.48263499 0.0034025703 188 12
-0.21856934 0.18360494 0.48253492 0.0035189658 199 15
-0.2164004 0.18384223 0.48288855 0.0035998186 207 17
-0.21394338 0.18383738 0.48266771 0.0033094268 204 16
-0.21222149 0.18447147 0.48418605 0.0031348665 214 19
-0.21004444 0.1847201 0.4847548 0.0031180496 217 20
-0.20776537 0.18488388 0.48516354 0.003238095 211 18
-0.20494094 0.18456045 0.48435625 0.0029542416 237 26
-0.20294577 0.18498503 0.48557404 0.0028093446 245 28
-0.20051777 0.18502069 0.48583236 0.0030531923 237 26
-0.19720231 0.18422812 0.48397496 0.0029796888 254 31
-0.19430681 0.18381289 0.48316529 0.0029922924 247 29
-0.19136931 0.18334678 0.48227677 0.0029437183 255 31
-0.18856874 0.18300152 0.48175833 0.0027118553 265 34
-0.18621071 0.1830823 0.48241213 0.0029212844 276 37
-0.18370293 0.18301602 0.48272723 0.0025533324 286 40
-0.18093954 0.18268988 0.4824014 0.0025871643 280 39
-0.1786505 0.1828403 0.48337594 0.0025552032 297 44
-0.17622393 0.18285221 0.48402384 0.0024319163 306 46
-0.17353879 0.18259238 0.48398703 0.0023852035 323 51
-0.17100336 0.18248492 0.48438495 0.0023816656 316 49
-0.16814889 0.18202899 0.48388407 0.0024155416 327 52
-0.16517347 0.18142687 0.48301512 0.0024989138 326 52
-0.16236058 0.18098798 0.48259771 0.0023676262 320 50
-0.15986432 0.18089414 0.48311567 0.0024439215 318 50
-0.15728261 0.18069927 0.48337701 0.0024289568 333 54
-0.15426216 0.17998643 0.48225978 0.0022519613 343 57
-0.15162194 0.17970167 0.48229319 0.0021742596 357 61
-0.14867708 0.17904097 0.48131856 0.0022532404 346 58
-0.14604743 0.17874448 0.48132125 0.0023722404 360 62
-0.14388502 0.17901941 0.48286256 0.0022629176 344 57
-0.14125042 0.17870627 0.48281536 0.0022620554 342 57
-0.13862295 0.17839156 0.48275667 0.0022550372 339 56
-0.1358144 0.17782877 0.48201656 0.0021946065 350 59
-0.13224727 0.17623506 0.47846487 0.0023112036 362 63
-0.1297137 0.17598596 0.47854626 0.0023905095 359 62
-0.12398532 0.17131333 0.46656752 0.0021235135 387 70
-0.12046925 0.16957946 0.46255404 0.0020024553 408 76
-0.11785074 0.16906689 0.46184999 0.0019704506 417 79
-0.11550841 0.16893826 0.46217915 0.00199018 406 75
-0.11324191 0.16891763 0.46278927 0.0022029488 380 68
-0.11068378 0.16845229 0.46216476 0.0021575121 361 62
-0.10920846 0.16964984 0.46609029 0.0022135079 364 63
-0.10638054 0.16875231 0.46424574 0.0021708531 361 62
-0.10477381 0.1697951 0.46772382 0.0022855669 351 59
-0.10372952 0.17181556 0.47388989 0.0024135374 306 46
-0.10255584 0.17370811 0.47970018 0.0026435857 312 48
-0.10020579 0.17364955 0.4801122 0.0025470571 324 51
-0.09785261 0.1735827 0.48048401 0.0022240111 362 63
-0.095803142 0.1740644 0.48235881 0.0023058169 356 61
-0.093601875 0.17428738 0.48350203 0.0021685243 364 63
-0.091268569 0.1742696 0.48396125 0.0021696426 366 64
-0.088892259 0.17416662 0.48416701 0.0022461847 372 66
-0.086310036 0.17364383 0.48318753 0.0021353655 369 65
-0.083873421 0.17339326 0.48294717 0.0023732833 363 63
-0.081562027 0.17339469 0.483392 0.0021998377 352 60
-0.079125836 0.17312315 0.48305932 0.0021986109 357 61
-0.076630853 0.17270283 0.48229411 0.002286782 367 64
-0.074236855 0.17249107 0.48209462 0.0022214483 346 58
-0.071957447 0.17254053 0.48260957 0.0021944302 357 61
-0.069617383 0.172443 0.48269835 0.0022133526 348 59
-0.067341082 0.17250215 0.48321116 0.0021731779 360 62
-0.065082073 0.1726114 0.48385 0.0022240342 351 59
-0.062752664 0.17253505 0.48395446 0.0023602173 338 56
-0.060319163 0.1721558 0.48319471 0.0022788362 333 54
-0.057914913 0.17183332 0.48257932 0.0023629626 320 50
-0.055630941 0.17185588 0.48291889 0.0022975616 331 54
-0.053127568 0.17117345 0.48126337 0.0022227291 350 59
-0.050977353 0.1716187 0.48276511 0.0024146817 338 56
-0.048687954 0.1716152 0.48299241 0.0021594907 358 61
-0.046326552 0.17134504 0.48245642 0.0023232938 366 64
-0.043985862 0.17112742 0.48205549 0.0022940654 366 64
-0.041601159 0.17070539 0.48106593 0.002185564 365 63
-0.039230675 0.17029624 0.48009989 0.0021888895 360 62
-0.037072476 0.17081492 0.48173821 0.002396364 340 56
-0.034796018 0.17082094 0.48191968 0.0022584223 343 57
-0.032460239 0.17051622 0.48121297 0.0023959833 353 60
-0.030186655 0.17051691 0.48135683 0.002110729 375 66
-0.02789321 0.17039636 0.48114747 0.0022915853 375 66
-0.025587328 0.17017172 0.48063308 0.0021873666 359 62
-0.023426941 0.17096516 0.48298383 0.0022122266 363 63
-0.021163844 0.17109932 0.48346215 0.0021651096 357 61
-0.018859921 0.17089595 0.48297623 0.0020865833 383 69
-0.01656647 0.17074463 0.48262689 0.0021460301 383 69
-0.014292553 0.17077848 0.48279065 0.0021210331 373 66
-0.01199762 0.17052644 0.48213589 0.0020938267 383 69
-0.0097002089 0.1701131 0.48101485 0.0021861717 358 61
-0.0074351016 0.17018685 0.48126096 0.0023758879 362 63
-0.0051714801 0.17037433 0.48181874 0.0021816907 353 60
-0.0028977909 0.1702641 0.48152453 0.0022188674 345 58
-0.00062694226 0.1701268 0.48114392 0.0020855654 379 68
0.0016407768 0.17004463 0.48090941 0.0021763628 362 63
0.0039114496 0.17018633 0.481298 0.0021370517 369 65
0.0061806655 0.17018384 0.48126888 0.0021012772 379 68
0.0084321657 0.16982591 0.48022464 0.0020802808 383 69
0.010704872 0.16995621 0.48055109 0.0020798671 380 68
0.012978578 0.17005405 0.48077577 0.0021419004 384 69
0.015238638 0.1699706 0.48047766 0.0020993126 384 69
0.017482201 0.16974857 0.47977787 0.0020466279 391 71
0.019795867 0.17018011 0.48091492 0.0021076829 418 79
0.022117004 0.17058052 0.4819532 0.0021019285 411 77
0.024373718 0.17045569 0.48149699 0.0019277732 427 82
0.02662879 0.17034167 0.48106065 0.0020849211 381 68
0.028900625 0.17034438 0.48094344 0.0022430457 399 73
0.031192727 0.17045742 0.48112687 0.0019734597 418 79
0.033431109 0.1702815 0.48048365 0.0020050264 400 74
0.035726603 0.17040038 0.48066112 0.0021066535 417 79
0.038073532 0.17073566 0.48143736 0.0020397303 429 82
0.040200144 0.17010088 0.47946703 0.0021496287 404 75
0.042394724 0.16980614 0.47844452 0.0021237615 427 82
0.044821538 0.1704243 0.47998199 0.0019950001 403 75
0.047031671 0.17019869 0.47913054 0.0021384067 378 67
0.049407385 0.17056546 0.47993419 0.0020338071 399 73
0.051831506 0.17105971 0.48108286 0.0020527097 421 80
0.054136846 0.17113681 0.48104483 0.0020109562 410 77
0.056377627 0.17101185 0.48042586 0.0020075298 408 76
0.058577437 0.17077714 0.47948593 0.0021636833 411 77
0.060894813 0.17088993 0.47950849 0.0021427698 371 65
0.062953517 0.17029485 0.47753191 0.0020961836 383 69
0.065390743 0.17072949 0.47842926 0.0021260411 390 71
0.067764789 0.17097549 0.47878247 0.0022799568 380 68
0.07012853 0.17118032 0.47900525 0.002063192 388 70
0.072569758 0.17155543 0.47968841 0.0020845309 410 77
0.075033441 0.17195904 0.48043478 0.002100168 396 73
0.077277131 0.1718495 0.47973156 0.0019728201 434 84
0.079456739 0.1716079 0.47864515 0.0020215458 428 82
0.081674099 0.17145905 0.47780269 0.0020730186 433 83
0.084158994 0.17186467 0.47848904 0.0019763862 413 77
0.086727254 0.1724145 0.47955832 0.0022530984 387 70
0.089267097 0.1728809 0.4803766 0.0019803161 424 81
0.091580726 0.17289673 0.47992513 0.0019203237 432 83
0.094109222 0.17330749 0.48055205 0.0020529912 428 82
0.096487135 0.17342791 0.48035577 0.0019517185 426 81
0.098560795 0.17300859 0.47864875 0.0020225027 441 86
0.10067511 0.17267822 0.47717348 0.0019844372 444 87
0.10321739 0.17308024 0.47770533 0.0018804846 445 87
0.10616371 0.17412737 0.47999609 0.0020265877 418 79
0.10853102 0.17420031 0.47958103 0.0020396402 437 85
0.11081791 0.17414384 0.47879323 0.0020458451 438 85
0.11317763 0.17420179 0.47830421 0.0018728867 453 89
0.11562148 0.1743843 0.47814047 0.0020132291 428 82
0.11806601 0.17456059 0.47794321 0.002080672 424 81
0.12053932 0.17477182 0.47782537 0.0019824305 437 85
0.12327575 0.1753493 0.47869167 0.0018861452 450 88
0.12585387 0.17568426 0.47887892 0.0018372461 466 93
0.12855427 0.17617458 0.47947392 0.0018484553 456 90
