# .PCD v0.7 - Point Cloud Data file format
VERSION 0.7
FIELDS x y z noise intensity gray
SIZE 4 4 4 4 2 1
TYPE F F F F U U
COUNT 1 1 1 1 1 1
WIDTH 847
HEIGHT 1
VIEWPOINT 0 0 0 1 0 0 0
POINTS 847
DATA ascii
0.2103 -0.095477492 0.44084162 0.001815293 498 93
0.21321478 -0.095789574 0.44154438 0.0018266842 481 88
0.21585687 -0.095973946 0.44172132 0.0018562912 472 86
0.21884294 -0.096305922 0.44264603 0.001951253 442 78
0.22048788 -0.096046962 0.44093022 0.0020612893 429 74
0.22269274 -0.096034661 0.44042805 0.0020234159 435 76
0.22628774 -0.096616149 0.44272956 0.0020997138 404 68
0.22854616 -0.096621133 0.44247255 0.0021482564 365 57
0.23050748 -0.096501641 0.44173256 0.0022440834 347 53
0.23294273 -0.096580967 0.44199023 0.0023281593 328 48
0.23360111 -0.095929079 0.43898934 0.0025182979 306 42
-0.25764048 -0.091499403 0.43562281 0.0030613595 232 22
-0.25684652 -0.091995239 0.43704954 0.002983982 233 23
-0.25486955 -0.092072226 0.43653676 0.0029639862 230 22
-0.25303683 -0.09220311 0.43633658 0.0027795914 259 29
-0.25106972 -0.0922869 0.43597344 0.0027504312 253 28
-0.25002185 -0.092713043 0.43728846 0.0028525407 253 28
-0.24791522 -0.092750654 0.43683547 0.0026606906 293 38
-0.24576201 -0.092771374 0.43637338 0.0025911524 284 36
-0.24413306 -0.092992149 0.43692479 0.0027510046 300 40
-0.24237368 -0.093166836 0.43733421 0.0024205672 310 43
-0.23968151 -0.092982881 0.43613935 0.0026909476 306 42
-0.23752716 -0.093006097 0.4359982 0.002637001 309 43
-0.23548192 -0.093072847 0.43614456 0.0023628026 314 44
-0.23177563 -0.092478134 0.43327668 0.0018203383 494 92
-0.23322125 -0.093947321 0.44016519 0.0020093706 372 59
-0.22970325 -0.093426123 0.43781558 0.0025173151 333 49
-0.22626926 -0.092929237 0.43566594 0.0018836113 454 81
-0.22418723 -0.092983291 0.43618479 0.0018924722 433 75
-0.22220162 -0.0930788 0.43698373 0.0019686539 462 83
-0.21966791 -0.092944331 0.43678576 0.0018517975 460 83
-0.21628892 -0.092445835 0.4349539 0.0018030611 472 86
-0.21446933 -0.092610449 0.43631631 0.0017912468 514 97
-0.21263069 -0.092770182 0.43773001 0.0018075372 509 96
-0.20968004 -0.092442997 0.43691212 0.0016469457 551 107
-0.20695622 -0.09220995 0.43659604 0.0016842111 569 111
-0.20413446 -0.091927804 0.43609843 0.0016495831 600 120
-0.20146401 -0.091708407 0.43594307 0.0016720507 597 119
-0.19900075 -0.091579556 0.43625751 0.0015601189 607 121
-0.19656917 -0.09146259 0.43666235 0.0015534087 650 133
-0.19391692 -0.091239169 0.43658531 0.0015802656 629 127
-0.19111441 -0.090939201 0.43615991 0.0015308694 697 145
-0.18824288 -0.090599142 0.43555287 0.001434863 702 147
-0.1855375 -0.090332083 0.4353022 0.0014025428 712 149
-0.18348807 -0.090381861 0.43658286 0.0014092912 720 151
-0.1813716 -0.090399407 0.43771103 0.0014043262 749 159
-0.17886613 -0.090221182 0.43788734 0.0013885788 775 166
-0.17564054 -0.089670971 0.43624413 0.0013354978 770 165
-0.17328815 -0.089558482 0.4367137 0.0013277425 798 172
-0.17090526 -0.08942724 0.43707696 0.001425536 750 159
-0.16842827 -0.089242853 0.43716222 0.0012676369 848 185
-0.16598819 -0.089073531 0.43730044 0.0012984386 796 171
-0.16396844 -0.089128323 0.43851903 0.0012902059 819 178
-0.16099417 -0.088658899 0.43713367 0.0012406752 875 192
-0.15876164 -0.088590898 0.43770051 0.0013421546 810 175
-0.15626623 -0.088372394 0.43749833 0.0012711012 841 183
-0.1532772 -0.087864973 0.43583548 0.0012956775 825 179
-0.15124735 -0.087900966 0.43683985 0.0012985499 812 176
-0.14816302 -0.087316513 0.43473151 0.0011960708 956 214
-0.14610903 -0.087331295 0.43557706 0.0011128325 1045 237
-0.14391407 -0.087261029 0.43597355 0.0011421266 992 223
-0.14125539 -0.086903408 0.43490627 0.0011881812 987 222
-0.13915032 -0.086880811 0.43548805 0.0011967106 905 200
-0.1370994 -0.086891845 0.43621415 0.0012416005 880 194
-0.13485704 -0.086780034 0.43629873 0.0012509983 931 207
-0.13227762 -0.086444467 0.43523139 0.0012126878 915 203
-0.12882724 -0.085520126 0.43116769 0.001237702 877 193
-0.12129547 -0.081813224 0.41302136 0.0012413495 887 196
-0.11665305 -0.079965979 0.40420565 0.0011474986 1049 238
-0.11471711 -0.079943515 0.40458134 0.0010648242 1125 255
-0.11321399 -0.080227025 0.40648699 0.0012030856 922 205
-0.11136027 -0.080267541 0.40714383 0.0011772042 1024 232
-0.10918079 -0.080070578 0.40657595 0.0012109961 972 218
-0.10699695 -0.079863355 0.40593538 0.0011938998 961 215
-0.10434976 -0.079296514 0.40344483 0.0011437847 1025 232
-0.10239577 -0.079245277 0.40355703 0.0010967294 1073 245
-0.10020353 -0.079004273 0.40268442 0.0011231181 1043 237
-0.098471753 -0.079124033 0.40363368 0.0011485481 1032 234
-0.096626379 -0.079155408 0.40411663 0.0011107086 1058 241
-0.094679147 -0.079102941 0.40415585 0.0011082279 1082 247
-0.092989199 -0.079267651 0.4052901 0.0011167849 1092 250
-0.091086723 -0.07925427 0.40549976 0.0011182522 1041 236
-0.088937499 -0.079021081 0.4045698 0.001125357 1040 236
-0.087591082 -0.079506531 0.40730637 0.0010931853 1089 249
-0.085593656 -0.079409443 0.40704659 0.0011174175 1092 250
-0.083788648 -0.07949052 0.40768728 0.0011406988 1046 238
-0.082115993 -0.079703815 0.40899459 0.0011818211 1017 230
-0.080357857 -0.079842262 0.40990692 0.0011337944 1024 232
-0.07864742 -0.08003597 0.41109234 0.001168441 972 218
-0.076628454 -0.079917505 0.41066352 0.0011847519 953 213
-0.074418351 -0.079588607 0.40914187 0.0011500141 1010 228
-0.072639495 -0.079715781 0.40995413 0.0011725579 948 212
-0.070905164 -0.079899944 0.41105038 0.0012105113 924 205
-0.069138974 -0.080057368 0.41200051 0.0011914209 942 210
-0.067295469 -0.080131665 0.41251433 0.0012302552 919 204
-0.065608956 -0.08040268 0.41403282 0.0012902678 861 189
-0.063883521 -0.080640852 0.41537479 0.0012502335 865 190
-0.061988305 -0.080672823 0.41564715 0.0012382134 875 192
-0.060180947 -0.080824845 0.41653103 0.0012291052 895 198
-0.058293991 -0.08087647 0.4168905 0.0012134715 934 208
-0.056461129 -0.081009239 0.41766182 0.001206886 967 217
-0.054536093 -0.081014469 0.41776937 0.0011732577 991 223
-0.052636992 -0.081060015 0.4180789 0.0011406143 1049 238
-0.050748993 -0.081126787 0.41849223 0.0011466678 1076 246
-0.04882627 -0.081141137 0.41862971 0.001107475 1064 242
-0.046890974 -0.0811349 0.41865608 0.0011553663 1019 230
-0.044937618 -0.081095554 0.41850668 0.0011791305 1023 231
-0.042967543 -0.08102113 0.41817173 0.0011612608 979 220
-0.041086484 -0.081115462 0.41870365 0.0012247317 965 216
-0.03927274 -0.081358552 0.41999957 0.0011671954 969 217
-0.037375152 -0.081444159 0.42047897 0.0012534689 919 204
-0.035448294 -0.081471853 0.42065606 0.0011688712 976 219
-0.03348314 -0.081409663 0.42036584 0.0011924653 1029 233
-0.03153903 -0.081394114 0.42031336 0.0011192532 1044 237
-0.029639803 -0.081499957 0.42088509 0.0011685438 1039 236
-0.027728509 -0.081585132 0.4213475 0.0011602945 1041 236
-0.025754387 -0.081484333 0.42084706 0.0011409145 1040 236
-0.023819979 -0.081503019 0.42096156 0.0011395277 1006 227
-0.021940863 -0.081730962 0.42215481 0.0012142346 904 200
-0.020010261 -0.081792831 0.42248842 0.0013381813 819 178
-0.017984336 -0.081436411 0.42065966 0.0013750617 820 178
-0.016007109 -0.081241012 0.41966096 0.0012794262 828 180
-0.014059984 -0.081165664 0.41928092 0.0013670347 807 174
-0.01214648 -0.08129134 0.41993785 0.0013932663 795 171
-0.010171558 -0.080975674 0.41831359 0.0013638184 791 170
-0.0081749409 -0.080299303 0.41482466 0.0013274114 839 183
-0.0061176415 -0.078432061 0.40518245 0.0012161674 944 211
-0.0042499411 -0.078422874 0.40513781 0.0011933801 955 213
-0.0023928978 -0.078750029 0.40682968 0.0012524683 926 206
-0.00052223378 -0.079374433 0.41005623 0.001257337 933 208
0.001372063 -0.079644896 0.41145328 0.0012263636 959 215
0.003284236 -0.080037177 0.41347852 0.0011856665 1022 231
0.0051741577 -0.079798229 0.41224188 0.0011272053 1049 238
0.0070846928 -0.079920165 0.41286835 0.0011569076 980 220
0.0089794993 -0.079850599 0.41250449 0.0012450843 879 193
0.010805625 -0.079301283 0.40966117 0.0013302554 824 179
0.012605442 -0.078751035 0.4068118 0.0012979393 820 178
0.014471957 -0.078705996 0.40657106 0.0013116072 798 172
0.016350776 -0.078730538 0.4066883 0.0013579977 770 165
0.018185083 -0.078557722 0.4057847 0.0013789383 770 165
0.020022437 -0.078429081 0.40510771 0.0013887467 725 153
0.021902042 -0.078473777 0.40532419 0.001440839 694 144
0.023719057 -0.07830482 0.4044354 0.0014194177 710 149
0.025484307 -0.078002036 0.40285346 0.0014301776 700 146
0.027179528 -0.077540584 0.40045008 0.0014031545 739 156
0.028912282 -0.077238113 0.39886552 0.0013855972 750 159
0.030742124 -0.077215664 0.39872465 0.0013407794 783 168
0.032571707 -0.07719513 0.39859095 0.0013831996 800 172
0.034344211 -0.077048741 0.39780462 0.001305519 823 179
0.036100972 -0.076883681 0.39691877 0.0012593601 868 190
0.037886303 -0.076792456 0.39641094 0.0012630167 867 190
0.039648209 -0.076664306 0.39570901 0.0012195051 916 203
0.041438218 -0.076599419 0.39532986 0.0012532285 925 206
0.043380961 -0.07681042 0.39637035 0.0012757184 847 185
0.04528404 -0.07693696 0.39697051 0.0013295695 778 167
0.047284883 -0.077213317 0.39833859 0.0014318422 687 143
0.049831811 -0.078327328 0.40402213 0.0015329926 614 123
0.05170954 -0.078347065 0.40405488 0.0015000629 643 131
0.054643225 -0.07990963 0.41203728 0.0015613204 606 121
0.056785829 -0.080249101 0.41370505 0.001623631 617 124
0.059469339 -0.081306025 0.41906351 0.0016036091 580 114
0.061369002 -0.081258409 0.41872105 0.0016417811 589 117
0.063684382 -0.081747338 0.42113546 0.0015528527 624 126
0.066437945 -0.082753055 0.42620251 0.001589302 587 116
0.06864398 -0.083038494 0.42754999 0.0016289385 625 126
0.070527852 -0.082929142 0.42685586 0.001429274 710 149
0.072003156 -0.082358427 0.42377913 0.0013333252 793 171
0.073744684 -0.082114421 0.42237556 0.0013370544 856 187
0.076065168 -0.082511015 0.42425701 0.0012529281 862 189
0.078238249 -0.082731761 0.42522287 0.0012868613 851 186
0.080703661 -0.083243221 0.42767066 0.001258185 850 186
0.08425799 -0.084826425 0.43560863 0.0013617813 748 159
0.087599844 -0.086126603 0.44207457 0.0014416969 737 156
0.090404138 -0.086850889 0.44556689 0.0014396044 760 162
0.092686743 -0.087052792 0.44636372 0.0013637524 783 168
0.094915934 -0.087196805 0.44684902 0.0013405664 758 161
0.096127674 -0.08641994 0.44260296 0.0013718202 759 162
0.097777501 -0.086061239 0.4404875 0.0012842299 877 193
0.099626034 -0.085888572 0.43931091 0.0012050135 1000 225
0.10147917 -0.085726716 0.43817529 0.0011207465 1079 246
0.10399612 -0.086120971 0.4398652 0.0011254296 1057 240
0.10666601 -0.086624198 0.44209155 0.001155663 969 217
0.11023866 -0.087827548 0.44786674 0.0012517005 909 201
0.11284079 -0.088227287 0.44951913 0.0012744397 871 191
0.11538794 -0.088570207 0.45086017 0.001324857 807 174
0.1172118 -0.088355601 0.44934341 0.0013158707 867 190
0.1193672 -0.088394068 0.44909465 0.00122036 905 200
0.12153831 -0.088442639 0.44887653 0.0012412699 888 196
0.12370288 -0.088484898 0.44860497 0.0012358617 874 192
0.12560576 -0.088341653 0.44737229 0.0012569422 857 188
0.12763675 -0.088291742 0.44659147 0.0012325682 883 194
0.12949249 -0.088124223 0.44519484 0.0012170598 907 201
0.13159306 -0.088125974 0.44463164 0.0012464026 933 208
0.13367847 -0.088117689 0.44399485 0.0011098261 1103 253
0.1361305 -0.088347591 0.4445329 0.0011067929 1028 233
0.1382954 -0.08838699 0.44408667 0.0012277763 884 195
0.1375917 -0.086619318 0.43454987 0.001299549 798 172
0.13735205 -0.085191667 0.42671946 0.0013780149 738 156
0.13594109 -0.083089627 0.41551551 0.0014579048 668 138
nan nan nan 0 611 123
nan nan nan 0 360 56
0.15026613 -0.08800371 0.43779695 0.0026501229 331 48
0.15278476 -0.088248365 0.43819848 0.001571961 613 123
0.15642986 -0.089128189 0.44171911 0.0014811568 708 148
0.15888031 -0.089312918 0.44176078 0.0013808565 732 155
0.16161972 -0.089653052 0.44254276 0.0014084858 709 148
0.16452944 -0.090077564 0.44371101 0.0014013903 712 149
0.16617769 -0.089809388 0.4414444 0.0014567681 676 140
0.16837393 -0.089840442 0.44063124 0.0015192599 669 138
0.1711264 -0.090163775 0.44122964 0.0013762446 731 154
0.17356211 -0.090314269 0.44096085 0.0014543626 705 147
0.17627175 -0.090601891 0.44134298 0.0014090496 709 148
0.17856781 -0.09067253 0.44065297 0.0014522353 704 147
0.18142708 -0.091024064 0.44131556 0.0014935757 676 140
0.18390931 -0.091180354 0.44102156 0.0015524491 637 129
0.18688001 -0.091572367 0.44186124 0.0015641981 641 130
0.18996727 -0.092011802 0.44292471 0.0015500644 633 128
0.19226833 -0.092064731 0.4421314 0.0015675304 624 126
0.19434881 -0.092012055 0.44084582 0.0015549716 610 122
0.19686928 -0.09216655 0.44057238 0.001613454 601 120
0.19968981 -0.092456535 0.44096857 0.0015325431 619 125
0.20241114 -0.092694789 0.44114563 0.0015807111 590 117
0.20536779 -0.093034506 0.44183925 0.0017074068 544 105
0.20758361 -0.093034953 0.44096464 0.0017549507 518 98
0.21016577 -0.093197837 0.44091108 0.0017298181 510 96
0.2131836 -0.093548484 0.44180039 0.0018437606 484 89
0.21620366 -0.093892865 0.44271934 0.0019560589 470 85
0.21836293 -0.093860194 0.44192842 0.0018458711 460 83
0.22043386 -0.093790606 0.44103932 0.0019476369 445 79
0.22255464 -0.093743399 0.44033524 0.0020030492 419 72
0.22560747 -0.094085842 0.4415423 0.0020746798 388 64
0.22880745 -0.094482295 0.44308516 0.0022334941 367 58
0.23077883 -0.094368659 0.44232205 0.0022887141 361 56
0.23205249 -0.09397465 0.44033363 0.0022707882 337 50
0.23359947 -0.093697786 0.43898293 0.0023721906 313 44
-0.25972995 -0.090045512 0.43882033 0.0029444117 233 23
-0.25767827 -0.090095967 0.43814614 0.0030093419 240 24
-0.25573578 -0.090185776 0.43771952 0.0031239376 241 25
-0.25341934 -0.090144135 0.4367148 0.0028379303 253 28
-0.25158128 -0.090273432 0.43660083 0.0029767479 258 29
-0.24991857 -0.090468459 0.43686867 0.0026169301 278 34
-0.24807593 -0.090601265 0.43690291 0.0027425599 287 37
-0.24614356 -0.090703398 0.43686029 0.0027443382 285 36
-0.24423499 -0.09081623 0.43694326 0.0025329317 298 40
-0.2427472 -0.091089003 0.4378722 0.0027609426 308 42
-0.24019851 -0.09096507 0.43697414 0.0024285018 301 41
-0.23717451 -0.09065713 0.43527642 0.0023989619 320 46
-0.23503079 -0.090683028 0.43526691 0.0022261383 359 56
-0.23328967 -0.090866253 0.43609866 0.0018774756 505 94
-0.2327686 -0.091532744 0.43933725 0.002397052 291 38
-0.22872706 -0.090814374 0.43601668 0.0023033919 384 62
-0.22616298 -0.090674303 0.43555877 0.0020178077 438 77
-0.22395512 -0.090675697 0.43586677 0.0018760785 449 80
-0.22179222 -0.0906955 0.43634835 0.0018247861 458 82
-0.21988559 -0.090821549 0.43742439 0.0018957834 477 87
-0.21731749 -0.090674177 0.43726277 0.0018569778 490 90
-0.21498732 -0.090624057 0.43764454 0.001817732 502 94
-0.21240208 -0.090464272 0.43756595 0.0016982238 517 98
-0.20963533 -0.090223007 0.43715546 0.0016605507 540 104
-0.20650116 -0.089816809 0.43599981 0.0016315976 593 118
-0.20447789 -0.089890286 0.43722302 0.0015896952 588 116
-0.20142472 -0.089507677 0.43627161 0.0015118719 624 126
-0.19899814 -0.089398175 0.43668681 0.001501029 642 131
-0.19660592 -0.089301869 0.43719795 0.0015054954 628 127
-0.19377428 -0.089001559 0.43673351 0.0015280519 678 140
-0.19088672 -0.088668473 0.43612236 0.001458974 663 136
-0.18854442 -0.088583954 0.43674427 0.0015436341 677 140
-0.18579382 -0.088303395 0.43640542 0.0014409216 702 147
-0.18264464 -0.087824613 0.43508285 0.001366651 746 158
-0.18091044 -0.08802294 0.43711171 0.0013195808 795 171
-0.17792258 -0.08760871 0.43609226 0.0013481225 795 171
-0.17554137 -0.087486774 0.43651402 0.0013269705 805 174
-0.17321961 -0.087391816 0.43705714 0.0013487921 796 171
-0.17071682 -0.087202035 0.43710917 0.0013729249 744 158
-0.16820289 -0.087001696 0.43708807 0.0013821521 787 169
-0.16601478 -0.086966924 0.43787795 0.0013108439 845 184
-0.16329931 -0.086651407 0.43723086 0.0012862876 832 181
-0.16063833 -0.08635693 0.4366622 0.0012372002 878 193
-0.15806581 -0.086102806 0.43626949 0.0012348787 900 199
-0.1551006 -0.085625045 0.43471336 0.0011647139 982 221
-0.15272668 -0.085465133 0.43474069 0.0011026515 1088 249
-0.1504571 -0.085359991 0.43502003 0.0011858108 925 206
-0.14758843 -0.084907241 0.43349802 0.0012110953 965 216
-0.14517607 -0.084707856 0.43323928 0.0011603603 963 216
-0.1437009 -0.085057452 0.43576473 0.0012746011 832 181
-0.14121032 -0.084807463 0.43519467 0.0013245374 804 174
-0.13904764 -0.084749877 0.4355849 0.0012947238 826 179
-0.13572878 -0.083975248 0.43225881 0.0012389043 896 198
-0.13360916 -0.083930202 0.43265808 0.0012063972 944 211
-0.13168243 -0.084006824 0.43366113 0.0011882187 951 212
-0.12854721 -0.083302699 0.43060628 0.001270186 854 187
-0.11939219 -0.078612335 0.40688688 0.0012234047 919 204
-0.11706331 -0.078336798 0.4059639 0.0010797549 1114 255
-0.11498682 -0.078223817 0.40586045 0.0010731706 1123 255
-0.11344428 -0.078476392 0.40763438 0.0011407968 1001 226
-0.11129078 -0.07830774 0.40720129 0.0011806223 1036 235
-0.10931373 -0.078259543 0.40737414 0.0011509401 997 225
-0.1067999 -0.077818483 0.40548095 0.0012069881 969 217
-0.10456409 -0.077567726 0.40455773 0.0011845573 958 214
-0.10235317 -0.077326536 0.40366453 0.0011629416 980 220
-0.10035741 -0.077241875 0.40357003 0.0011678311 969 217
-0.098300092 -0.077105708 0.40318906 0.0011497807 1067 243
-0.096426778 -0.077111371 0.40353322 0.0011162558 1045 237
-0.094714105 -0.077248268 0.40454933 0.0011166845 1043 237
-0.092981793 -0.077374384 0.40549499 0.0011079884 1057 240
-0.091133051 -0.077406839 0.40593597 0.0011136933 1047 238
-0.08905822 -0.077244565 0.40534121 0.0011552877 988 222
-0.087382339 -0.07742878 0.40655121 0.0011206301 1031 234
-0.085686214 -0.077602796 0.40769562 0.0011146974 1038 235
-0.083713204 -0.077528246 0.40752196 0.0011319799 1032 234
-0.081863463 -0.077567056 0.4079318 0.0012014114 991 223
-0.080197997 -0.077786431 0.40928033 0.0011692672 973 218
-0.078579433 -0.078063026 0.41091982 0.0012016126 959 215
-0.076758035 -0.078146867 0.41153455 0.0011953268 950 212
-0.074267358 -0.077536225 0.40848055 0.001182424 943 210
-0.07232134 -0.077477172 0.40832105 0.001193808 933 208
-0.070712991 -0.077786386 0.41009343 0.0011899451 945 211
-0.069018424 -0.078015208 0.4114337 0.0012208472 901 199
-0.06716574 -0.078073196 0.41186488 0.001206466 922 205
-0.065221936 -0.078025565 0.4117305 0.0012019675 926 206
-0.063797444 -0.078614995 0.41495058 0.0012741825 838 183
-0.061855342 -0.078583352 0.41488564 0.0012699001 844 184
-0.059931204 -0.078573249 0.41492707 0.0012650889 862 189
-0.058176622 -0.07879211 0.41617095 0.0012626149 856 187
-0.056213647 -0.07873404 0.41594571 0.0012363718 917 203
-0.054505207 -0.079040997 0.41764295 0.0012259439 898 198
-0.052627929 -0.079116628 0.41811243 0.0011724457 970 217
-0.050696205 -0.079113051 0.41815776 0.0011853316 983 221
-0.048740268 -0.079069912 0.41798863 0.0011874476 1000 225
-0.046818022 -0.079080127 0.41809678 0.0011948826 1007 227
-0.044968586 -0.07921949 0.41888312 0.001190892 987 222
-0.043005086 -0.079161398 0.41862112 0.0012175066 966 216
-0.041112948 -0.079235382 0.41905358 0.0011957879 938 209
-0.039254639 -0.079385057 0.41988266 0.0011897478 960 215
-0.037383448 -0.079522908 0.42064562 0.0012544139 915 203
-0.035449486 -0.079534955 0.42074022 0.0011667417 987 222
-0.033518691 -0.079555951 0.42087892 0.0011485243 1007 227
-0.031547654 -0.079478122 0.42049196 0.0011605846 997 225
-0.029617637 -0.079500221 0.42063108 0.0011586139 984 221
-0.027699422 -0.079559319 0.42096367 0.0011647498 969 217
-0.025756801 -0.07955192 0.42094219 0.0011583354 980 220
-0.023810323 -0.079530448 0.42084417 0.0012884047 910 202
-0.021902112 -0.079644322 0.42146051 0.001313015 857 188
-0.019931214 -0.079530202 0.42086869 0.0013911859 784 168
-0.017929599 -0.07925573 0.41942662 0.0013400527 779 167
-0.015952876 -0.079038233 0.41828465 0.0013263451 838 183
-0.013981182 -0.078789316 0.41697496 0.0013592347 823 179
-0.012047943 -0.078712292 0.41657385 0.0012843107 820 178
-0.010138731 -0.078792803 0.41700527 0.0013855267 775 166
-0.0080673667 -0.077356137 0.40940601 0.0013144618 846 185
-0.0061185043 -0.076575652 0.40527856 0.0011862712 948 212
-0.004252573 -0.076603293 0.40542725 0.0011747024 969 217
-0.0024065312 -0.077313244 0.40918609 0.0011853316 953 213
-0.00052243186 -0.077514179 0.41025031 0.0012334154 950 212
0.0013827527 -0.078354552 0.41469786 0.0012046666 981 220
0.0032724643 -0.07785172 0.4120355 0.0011398644 1012 229
0.005174235 -0.077899657 0.41228735 0.0011233118 1033 234
0.0070718946 -0.07787659 0.41216245 0.00114628 992 223
0.0089363651 -0.077575177 0.41056356 0.0012800561 841 183
0.010798492 -0.077362299 0.40943214 0.0013505111 775 166
0.012599393 -0.076839343 0.40665886 0.0012890757 836 182
0.014454061 -0.076737262 0.40611178 0.0013442548 773 165
0.016311765 -0.076672837 0.40576279 0.0014093062 738 156
0.018115537 -0.07639426 0.40427917 0.001415422 751 160
0.019958127 -0.076316044 0.40385458 0.0013883731 744 158
0.021810615 -0.076285802 0.40368226 0.0013900347 740 157
0.023579711 -0.075991563 0.40211135 0.0014066002 718 151
0.025180886 -0.075238466 0.39811069 0.0013969674 771 165
0.027006086 -0.075211577 0.39795077 0.001310949 814 176
0.028844496 -0.075222552 0.39798912 0.001316586 794 171
0.03066086 -0.075178161 0.3977322 0.0013161454 827 180
0.032527283 -0.075254597 0.39811188 0.0013010897 804 174
0.03422828 -0.074960589 0.39652911 0.0013009601 863 189
0.03598294 -0.074807949 0.39569145 0.0012274663 895 198
0.037779771 -0.074753493 0.39537001 0.0012075055 928 206
0.039496627 -0.074553065 0.39427322 0.0011746627 961 215
0.041376147 -0.074663833 0.39481854 0.0012166507 892 197
0.043164965 -0.074608475 0.39448142 0.0013233435 858 188
0.044833686 -0.074358426 0.3931109 0.001283492 827 180
0.04676041 -0.074539073 0.39401299 0.0013584663 754 160
0.048984371 -0.075162299 0.3972491 0.0014636084 675 139
0.05126835 -0.075829335 0.40071058 0.0015965685 634 129
0.053922702 -0.076978646 0.40671355 0.0016425456 611 123
0.056855857 -0.07843525 0.41433173 0.0017603767 528 101
0.059047613 -0.078807548 0.41621384 0.001756333 538 103
0.061122518 -0.079005323 0.41716692 0.0017540208 566 111
0.062861145 -0.078769624 0.41582417 0.0015855555 593 118
0.065669373 -0.079848461 0.4214122 0.001549183 608 122
0.068196811 -0.080533557 0.42491189 0.0015695089 604 121
0.070182838 -0.080558859 0.42492095 0.0014758788 667 137
0.071741186 -0.08010523 0.42239565 0.0013875247 775 166
0.074241467 -0.080699533 0.42538664 0.0013778965 792 170
0.07660339 -0.081116632 0.42743209 0.0013843875 750 159
0.080263279 -0.082852557 0.43641239 0.0014367063 717 151
0.083210438 -0.083785586 0.44114727 0.0013965885 713 149
0.086000651 -0.084519632 0.44481933 0.0013787597 750 159
0.088263862 -0.084713526 0.44563451 0.0012928384 859 188
0.090427496 -0.084805153 0.44589859 0.0012449702 871 191
0.092848949 -0.085129082 0.44736984 0.0013330812 824 179
0.094755016 -0.084976628 0.44632366 0.001345757 764 163
0.0957276 -0.084011465 0.4409982 0.0012509672 884 195
0.097234234 -0.083545625 0.43828389 0.0011895511 1016 230
0.099619024 -0.083837949 0.43953252 0.0011274506 1019 230
0.101738 -0.083899304 0.43955374 0.0011563293 1025 232
0.10432874 -0.084339611 0.44154242 0.0011234658 1032 234
0.10699023 -0.084818996 0.44371551 0.0011831021 960 215
0.10992429 -0.085492171 0.44688058 0.0012706367 890 196
0.11258325 -0.085930318 0.44879445 0.0012590057 853 187
0.11495502 -0.086137243 0.44947937 0.0013151114 846 185
0.11744756 -0.086425632 0.4505679 0.0012559943 887 196
0.11940516 -0.086317159 0.44956684 0.001169091 1002 226
0.1216065 -0.086385556 0.44946709 0.0011331449 1039 236
0.12371963 -0.086390048 0.44901347 0.0011436976 1006 227
0.12584689 -0.086404078 0.4485881 0.0012112235 910 202
0.12825412 -0.086606726 0.44911882 0.0012743939 880 194
0.13006946 -0.086409584 0.44755396 0.0013188836 845 184
0.1321217 -0.086373575 0.44680241 0.0012365339 884 195
0.13374475 -0.086062558 0.44460738 0.0011415916 1029 233
0.135952 -0.086131245 0.444352 0.0011345249 1035 235
0.13797231 -0.086081214 0.44345993 0.0012886917 869 191
0.13751671 -0.084511116 0.4347252 0.0013536821 736 156
nan nan nan 0 706 148
0.12683114 -0.075675935 0.38805473 0.0014164684 746 158
0.12859036 -0.075625181 0.38715094 0.0014397067 683 142
nan nan nan 0 322 46
0.14925994 -0.085333377 0.43532372 0.0021248001 413 70
0.15265633 -0.086075053 0.43830001 0.0014728919 661 136
0.15613393 -0.08684174 0.44136479 0.0014865588 685 142
0.1585964 -0.08703088 0.44146064 0.0014012104 740 157
0.16093116 -0.08714585 0.44115338 0.0014454421 755 161
0.16395082 -0.087623872 0.44265485 0.0014892109 688 143
0.16602586 -0.087591231 0.44154993 0.0015272549 687 143
0.16820034 -0.087611236 0.44068977 0.0014152215 713 149
0.17212281 -0.088529781 0.4443197 0.0014112844 702 147
0.17394347 -0.088357911 0.44245136 0.0014425677 690 143
0.17597988 -0.088298514 0.44113362 0.0014967747 700 146
0.17876911 -0.088613711 0.44167194 0.0014224814 694 144
0.18064258 -0.088472858 0.43992585 0.0014621872 671 138
0.18394274 -0.08902584 0.44161892 0.0014948512 663 136
0.18706979 -0.08948312 0.4428232 0.0014538427 657 135
0.18983194 -0.089757308 0.44311517 0.0014744645 664 137
0.19212905 -0.089807868 0.4423064 0.0015370236 632 128
0.19425562 -0.089778483 0.44111633 0.0015851847 614 123
0.19683687 -0.08995755 0.4409669 0.0016506132 601 120
0.199654 -0.090239279 0.44133976 0.0015499908 641 130
0.20275588 -0.090642154 0.4423283 0.0015534378 605 121
0.20508446 -0.090694368 0.44163802 0.0016492916 550 106
0.20736243 -0.090723328 0.44087747 0.0016718629 537 103
0.20976098 -0.090803869 0.4404169 0.0018072508 528 101
0.21319145 -0.091324769 0.44214347 0.0017627609 487 90
0.21607979 -0.091605082 0.44276148 0.001819196 471 85
0.21868677 -0.091761589 0.44284645 0.0020187208 454 81
0.22060099 -0.091627173 0.4416011 0.0019062387 437 76
0.22278567 -0.091606677 0.44098377 0.0021174569 422 73
0.2261554 -0.09206903 0.44277066 0.0021184483 416 71
0.22859105 -0.092145763 0.4427855 0.0021810525 376 60
0.23119329 -0.092287503 0.44319925 0.0021848653 369 58
0.23311676 -0.092158161 0.44239956 0.0022033311 362 57
0.23750392 -0.092995957 0.44633111 0.0023740865 331 48
-0.25752646 -0.087104246 0.43477857 0.0030754588 243 25
-0.25748292 -0.087832123 0.43750918 0.0028653825 240 24
-0.25652692 -0.088258587 0.43878567 0.0027507907 257 29
-0.25445458 -0.088305041 0.43823028 0.0028591778 253 28
-0.25192457 -0.088192083 0.43694925 0.0027068607 263 30
-0.2499707 -0.088280611 0.4367345 0.0029105882 269 32
-0.24813782 -0.088413805 0.4368102 0.0028068589 276 34
-0.24634293 -0.08856307 0.43703744 0.0024974192 300 40
-0.24449274 -0.088694982 0.43725431 0.0023709678 310 43
-0.24282177 -0.088894896 0.43788475 0.0024014546 330 48
-0.24073243 -0.088943951 0.43785331 0.0023578962 324 47
-0.23711996 -0.088425912 0.43511569 0.0022724553 341 51
-0.23467241 -0.088336639 0.43457496 0.001995309 441 78
-0.23444937 -0.089090966 0.43827137 0.0015344229 553 107
-0.23266591 -0.089261129 0.43918294 0.0026702101 300 40
-0.22851865 -0.088518925 0.43569335 0.002154609 416 71
-0.22618407 -0.088471264 0.43570867 0.0018913015 442 78
-0.22376695 -0.088390045 0.43564519 0.0018809981 482 88
-0.22124778 -0.088266484 0.43545681 0.0018148142 484 89
-0.21943294 -0.088424258 0.43673849 0.0018247534 476 87
-0.21773639 -0.088633403 0.43835482 0.001901687 473 86
-0.21458755 -0.088249579 0.43711156 0.0017643985 506 95
-0.21203233 -0.088104464 0.43711582 0.0016937528 537 103
-0.20916498 -0.087825231 0.43651462 0.001624834 570 112
-0.20624623 -0.087518252 0.43582782 0.0016084432 575 113
-0.20322695 -0.087161593 0.43493798 0.0015309583 622 125
-0.20102301 -0.087150678 0.43581417 0.0015376793 633 128
-0.19910628 -0.087265395 0.43735769 0.0015408398 620 125
-0.19639571 -0.087030888 0.43718091 0.0015241386 643 131
-0.19366162 -0.08678057 0.43694428 0.0014671076 654 134
-0.19055645 -0.086356439 0.43584326 0.0014390242 684 142
-0.18776527 -0.086066484 0.43542406 0.0014706083 730 154
-0.1853897 -0.085962534 0.43594879 0.001396665 721 152
-0.18224631 -0.085495949 0.43463036 0.0013813057 743 157
-0.17996171 -0.085425951 0.43531996 0.0013868903 760 162
-0.17792897 -0.085475251 0.43661159 0.0013747788 765 163
-0.17606491 -0.085607775 0.43832156 0.0013765965 770 165
-0.17319325 -0.085247606 0.43749404 0.0013470827 762 162
-0.17048146 -0.084958121 0.43700671 0.0013861981 729 154
-0.16775544 -0.084654175 0.43642098 0.0013796398 753 160
-0.16533054 -0.084496342 0.43656436 0.001346281 822 178
-0.16271274 -0.084234558 0.43614525 0.0012636009 889 196
-0.15936577 -0.083583497 0.43367893 0.0011648728 1053 239
-0.15683408 -0.083348401 0.43333864 0.0010557756 1178 255
-0.15465204 -0.083295301 0.43391806 0.0010232491 1218 255
-0.15246084 -0.083235756 0.43443853 0.0010689219 1111 255
-0.15012769 -0.083095975 0.43451393 0.0011814883 915 203
-0.14763425 -0.08286231 0.43406999 0.0013600547 755 161
-0.14519674 -0.082653835 0.43372902 0.001405418 780 167
-0.14266649 -0.082385801 0.43304649 0.001288448 846 185
-0.14018887 -0.082140751 0.43245548 0.0012455111 879 193
-0.13756511 -0.081801504 0.43133929 0.001210988 926 206
-0.13546272 -0.081766717 0.43180123 0.001175149 956 214
-0.13348641 -0.08180815 0.43264177 0.0011743038 1025 232
-0.13091058 -0.081477717 0.43149012 0.0011904716 955 213
-0.12551862 -0.079356417 0.42081377 0.0013227279 796 171
-0.11954816 -0.076795384 0.40775138 0.0012004897 969 217
-0.11741024 -0.07665287 0.40749106 0.0011344493 1059 241
-0.11537599 -0.076574437 0.40754944 0.0011301634 1034 234
-0.11350626 -0.076604404 0.40816444 0.0011528381 999 225
-0.11180121 -0.076748431 0.40936854 0.0011897916 947 211
-0.10918773 -0.076263003 0.40719432 0.0011772872 973 218
-0.10723043 -0.076226763 0.40739706 0.0011837182 928 206
-0.10493792 -0.075946614 0.40627661 0.0012110219 925 206
-0.10266595 -0.075671285 0.40516186 0.00120871 958 214
-0.10035708 -0.075357921 0.40382367 0.0011511244 1012 229
-0.098436132 -0.075329423 0.40399429 0.0010990029 1070 244
-0.096633591 -0.075392187 0.40463862 0.0011667246 1000 225
-0.094733045 -0.075379469 0.4048627 0.0011721995 1016 230
-0.092804462 -0.075343482 0.40494671 0.0011752326 1035 235
-0.090670951 -0.075136177 0.40409473 0.0011292113 1034 234
-0.088986672 -0.075300246 0.40522602 0.0011896787 981 220
-0.087446988 -0.075596392 0.40705627 0.001179267 978 220
-0.085437939 -0.075490914 0.40671155 0.001147353 994 224
-0.083498165 -0.075443253 0.40666533 0.0011707192 1017 230
-0.081577152 -0.075410739 0.40668854 0.0011573544 1047 238
-0.079515025 -0.075243153 0.40597132 0.0011659531 1034 234
-0.077529222 -0.07514143 0.40559772 0.0011826352 979 220
-0.075910553 -0.075399309 0.40715492 0.0012479547 935 208
-0.07389649 -0.075267583 0.40659833 0.0012055377 920 204
-0.072243348 -0.07550621 0.40803277 0.0012185541 962 215
-0.070422679 -0.075577833 0.40855601 0.0011967142 969 217
-0.068527751 -0.075571522 0.40864909 0.0011743254 964 216
-0.06710811 -0.076103851 0.41164708 0.0011762864 996 224
-0.065183967 -0.076078422 0.41162077 0.0012191219 950 212
-0.062901534 -0.075620718 0.40924713 0.0012964202 902 199
-0.061065517 -0.075687975 0.40970653 0.001240255 875 192
-0.059685577 -0.076342888 0.41334087 0.0012731338 843 184
-0.057770632 -0.076334141 0.41337594 0.0013218394 856 187
-0.055917181 -0.076408833 0.41385666 0.0012609446 856 187
-0.054196972 -0.076677322 0.41538116 0.0012617036 853 187
-0.052519582 -0.077028297 0.41734749 0.0012575956 868 190
-0.050619721 -0.077067271 0.41761824 0.001245291 918 204
-0.048666414 -0.077024728 0.41744226 0.0012494446 923 205
-0.046650775 -0.076875977 0.41668582 0.0011911626 948 212
-0.044741347 -0.076896988 0.41684482 0.0012343923 939 209
-0.043002363 -0.077225976 0.41866946 0.0011944424 936 208
-0.041082285 -0.077245407 0.41881213 0.0012092309 928 206
-0.039202437 -0.077346094 0.41939193 0.0011856048 962 215
-0.037271757 -0.077351756 0.41945302 0.0011854075 945 211
-0.035310518 -0.077291146 0.41915163 0.0011706058 969 217
-0.033482887 -0.07753288 0.42048714 0.0012005909 982 221
-0.03156504 -0.077582598 0.42077857 0.0012222072 946 211
-0.029603209 -0.077523641 0.42047834 0.0012031458 943 210
-0.027679468 -0.077563167 0.42070988 0.0011902007 930 207
-0.025713345 -0.077480927 0.42027897 0.001252235 922 205
-0.023753701 -0.077406414 0.41988805 0.0012771428 861 189
-0.021822408 -0.077419244 0.41996929 0.0013100683 799 172
-0.019867619 -0.077343129 0.41956648 0.0013506818 767 164
-0.017898051 -0.077186853 0.41872737 0.0013214059 793 171
-0.015904177 -0.076875314 0.41704476 0.0013959046 809 175
-0.013966036 -0.076784596 0.4165588 0.0012470391 875 192
-0.012024463 -0.076643065 0.41579622 0.0012718618 845 184
-0.010090507 -0.076505631 0.41505501 0.0013078648 801 173
-0.0080093313 -0.074926727 0.40649253 0.0012175302 917 203
-0.0061160824 -0.074678607 0.40514901 0.0011757116 985 221
-0.0042544524 -0.074768186 0.40563688 0.0011703521 994 224
-0.0024105338 -0.075553238 0.40989718 0.0012382764 959 215
-0.00052340736 -0.075765029 0.41104671 0.0011585359 987 222
0.0013707071 -0.075777784 0.41111571 0.0011499894 989 222
0.0032745868 -0.076002389 0.41233349 0.001172707 1012 229
0.0051721195 -0.075968832 0.41214985 0.0011354858 1038 235
0.0070558991 -0.075805552 0.41126183 0.0011819683 936 208
0.0089350985 -0.075672604 0.41053763 0.0013777327 801 173
0.010784547 -0.075378172 0.40893653 0.0014014296 781 167
0.012598503 -0.074960157 0.4066641 0.0013270114 786 169
0.014433752 -0.074760653 0.40557635 0.0013563813 749 159
0.016264495 -0.074586228 0.40462348 0.0013242052 796 171
0.018009769 -0.074096054 0.40195665 0.0012958231 818 177
0.01981923 -0.073936746 0.40108359 0.0014224921 763 163
0.021726649 -0.074138887 0.40216982 0.0014655472 739 156
0.023346784 -0.073405981 0.39818242 0.0014050432 784 168
0.025156163 -0.073331535 0.39776528 0.0013518888 802 173
0.026956853 -0.073243611 0.39727315 0.0012774761 854 187
0.028750394 -0.073148668 0.39674106 0.0012670422 854 187
0.030553812 -0.073088713 0.39639652 0.0013041723 875 192
0.032341525 -0.073000059 0.39589411 0.0012814981 838 183
0.034085069 -0.07282652 0.39492878 0.0012468321 876 193
0.035877675 -0.072770081 0.39459571 0.0012130667 908 201
0.037609193 -0.072601169 0.39364982 0.0011785666 953 213
0.039395101 -0.072547965 0.39332816 0.0011915313 948 212
0.041232362 -0.072589859 0.3935186 0.0012559326 896 198
0.042870801 -0.072292939 0.39186862 0.0012092964 928 206
0.044744067 -0.072400011 0.39240459 0.0012692249 844 184
0.046578571 -0.072438478 0.39256433 0.0012777244 831 181
0.048489764 -0.072588883 0.39332592 0.0013320673 787 169
0.050560705 -0.072958939 0.39527237 0.0013996492 708 148
0.05250261 -0.073123515 0.39609995 0.0014814158 670 138
0.0543845 -0.073196232 0.39642411 0.0014640589 678 140
0.05654214 -0.073623277 0.39866093 0.0015324578 635 129
0.058523104 -0.073800609 0.39953846 0.0016326705 644 131
0.060555048 -0.074029416 0.40068769 0.0015772503 639 130
0.062826812 -0.074529156 0.4032954 0.0015088388 694 144
0.06480056 -0.074656755 0.40388098 0.0014961998 649 133
0.067868777 -0.076002859 0.41104847 0.0016732237 617 124
0.071140759 -0.077497616 0.41900709 0.0015988422 637 129
0.074213825 -0.078702189 0.4253833 0.0015468325 604 121
0.077777661 -0.080351561 0.43414891 0.001570118 587 116
0.081397362 -0.081974141 0.44275337 0.0015448815 627 127
0.083552092 -0.08207792 0.44314024 0.0012943554 845 184
0.08589147 -0.082353763 0.44444397 0.0012109084 921 205
0.088270411 -0.082653731 0.44586465 0.0012262195 906 201
0.090696961 -0.082983546 0.44743243 0.0013357134 775 166
0.092881188 -0.083081849 0.44773796 0.0013395956 776 166
0.092978247 -0.08134973 0.43817028 0.0012380956 893 197
0.094926625 -0.081276856 0.43753126 0.0012182749 966 216
0.096886925 -0.081217043 0.43694881 0.0011796418 996 224
0.099180527 -0.081433341 0.43783665 0.0011620397 984 221
0.10153854 -0.081692755 0.43893942 0.0011369209 1022 231
0.1041761 -0.082162417 0.44115332 0.0011795391 980 220
0.10686355 -0.082652517 0.4434568 0.0011958329 929 207
0.10958734 -0.083151586 0.44578743 0.0012474509 899 199
0.11242245 -0.083714977 0.44844043 0.0012835111 869 191
0.11467651 -0.083833002 0.44868654 0.0012579209 845 184
0.11645567 -0.083605863 0.44706666 0.001234896 890 196
0.11924358 -0.08409816 0.44927299 0.0011859618 948 212
0.12149599 -0.08420226 0.44938239 0.001124626 1057 240
0.12321834 -0.08394172 0.44752589 0.0011324371 1106 253
0.12532324 -0.083946154 0.44706225 0.0010876703 1092 250
0.12785766 -0.084233433 0.44808149 0.0010975173 1073 245
0.13050401 -0.084583938 0.44941092 0.0012449137 915 203
0.13204373 -0.084217452 0.44690809 0.0012353763 887 196
0.13209078 -0.082925372 0.43948159 0.001126249 1040 236
0.13389115 -0.082756951 0.43799686 0.0011570815 995 224
nan nan nan 0 821 178
nan nan nan 0 805 174
0.12371981 -0.073082685 0.38509998 0.0014234572 740 157
0.12551872 -0.073066428 0.3844063 0.0013228691 802 173
0.12883532 -0.073921435 0.38826728 0.0014432777 667 137
nan nan nan 0 394 65
0.14868602 -0.082932226 0.43409112 0.0020691056 415 71
0.15299796 -0.08416383 0.43973631 0.0015652374 600 120
0.15534019 -0.084293202 0.43958458 0.0014354244 688 143
0.15814489 -0.084666707 0.44067624 0.0014192566 737 156
0.16081782 -0.084960721 0.44132322 0.0014085594 711 149
0.16331644 -0.085156195 0.44142956 0.0014961329 689 143
0.16642451 -0.085660316 0.44310558 0.0014744651 700 146
0.16888066 -0.085820347 0.44297275 0.0013685488 743 157
0.17120039 -0.085907906 0.44244289 0.0014019206 721 152
0.17395262 -0.086207643 0.44298291 0.0014538431 687 143
0.17611147 -0.086209565 0.44197279 0.0014953378 704 147
0.1781202 -0.086138844 0.44057712 0.0014452522 715 150
0.18119276 -0.086578146 0.44177485 0.0015073267 668 138
0.18402582 -0.086893983 0.44232562 0.0015504225 632 128
0.18655193 -0.0870592 0.44210008 0.0014864821 639 130
0.18920809 -0.087280601 0.44215539 0.0014659597 680 141
0.19172354 -0.087432787 0.44186065 0.0015423212 618 124
0.19417132 -0.087551028 0.4414013 0.0015593006 627 127
0.19672582 -0.087714218 0.441181 0.0016452607 611 123
0.19968954 -0.088054262 0.44186622 0.0015823113 583 115
0.20250455 -0.088322029 0.44220996 0.0016003478 570 112
0.20504096 -0.088463821 0.44195303 0.0016541636 569 111
0.20725143 -0.088463463 0.44102597 0.0016328645 559 109
0.21021469 -0.088781029 0.44172877 0.0016768335 536 103
0.21295518 -0.088998869 0.44198498 0.0018782608 480 88
0.21586539 -0.089282401 0.44262388 0.0019122091 450 80
0.2187124 -0.089534275 0.44316861 0.0019312811 446 79
0.22082561 -0.089483671 0.44228709 0.0018804676 448 79
0.22335312 -0.089600295 0.44230887 0.0020440635 418 71
0.22590065 -0.089722551 0.44243848 0.0021658987 398 66
0.22878674 -0.089975536 0.44329554 0.0021534781 364 57
0.23105663 -0.089983635 0.44303226 0.0022832437 377 61
0.23393182 -0.090225041 0.44400582 0.0022121635 349 53
0.23489583 -0.089731745 0.44145387 0.0023261162 353 54
-0.25473136 -0.084005147 0.42975724 0.0027099829 265 31
-0.25761548 -0.085680693 0.43744293 0.0026528616 268 32
-0.25640869 -0.086012743 0.43830907 0.0026382408 277 34
-0.25427777 -0.086037859 0.43767083 0.0027463799 273 33
-0.25206113 -0.086034164 0.43695211 0.0025671057 287 37
-0.25008833 -0.086114377 0.4367283 0.0026627157 301 41
-0.24809022 -0.086187206 0.43653837 0.0025040086 302 41
-0.24632697 -0.086343676 0.43684602 0.0025624984 300 40
-0.24434659 -0.086426184 0.43685651 0.0025390782 311 43
-0.24196343 -0.086366422 0.43622875 0.0026174239 324 47
-0.24039045 -0.086597435 0.43715253 0.0022523527 339 51
-0.23691951 -0.086142659 0.43470037 0.0021731134 377 61
-0.23388985 -0.085841283 0.43311021 0.0016645074 586 116
-0.23592512 -0.087410741 0.44104773 0.0018832673 392 65
-0.23189948 -0.086743191 0.43778762 0.0023514403 341 51
-0.22881715 -0.086418979 0.43634808 0.0019423199 438 77
-0.2264438 -0.086358815 0.43632931 0.0019098429 441 78
-0.22430816 -0.086389013 0.43685386 0.0019477535 443 78
-0.22159894 -0.086196683 0.43633696 0.0017508344 509 96
-0.21899566 -0.086042129 0.43609062 0.0017721972 517 98
-0.21656261 -0.085951991 0.43624663 0.001851527 506 95
-0.21401192 -0.085812815 0.43622491 0.0016686853 541 104
-0.21150997 -0.085690506 0.43635425 0.0017201001 519 98
-0.20882049 -0.085488841 0.43613833 0.0015964187 577 114
-0.20594129 -0.085204408 0.43555075 0.0015752489 578 114
-0.20311515 -0.08493609 0.43508857 0.0015266535 630 128
-0.2010781 -0.084995471 0.43634495 0.0015178511 622 125
-0.19882029 -0.084961832 0.43715972 0.0014977742 651 133
-0.19632696 -0.08482568 0.43747404 0.0014468284 683 142
-0.19340178 -0.084497817 0.43681657 0.0014239493 719 151
-0.19018805 -0.084035017 0.43546847 0.0013826696 738 156
-0.18761837 -0.083849452 0.43555984 0.001390903 719 151
-0.18521737 -0.083735839 0.43602678 0.0014142324 728 153
-0.18268405 -0.083559044 0.43616197 0.0014411513 726 153
-0.17980868 -0.083219737 0.43543908 0.0014115769 765 163
-0.17748865 -0.083132409 0.43602195 0.0013332451 778 167
-0.17523266 -0.083073296 0.43674067 0.0013875139 719 151
-0.173236 -0.083137199 0.4380925 0.0014756009 659 135
-0.16910394 -0.082165115 0.43395832 0.0012846817 892 197
-0.16572054 -0.081536882 0.43160301 0.001143637 1067 243
-0.1633226 -0.081383646 0.43173328 0.0011283105 1036 235
-0.16138487 -0.081458725 0.4330526 0.0011501987 990 223
-0.15858516 -0.081094995 0.43201366 0.0010707276 1132 255
-0.15680926 -0.081252083 0.43372363 0.0010593769 1149 255
-0.15444429 -0.081104077 0.43378133 0.001099397 1126 255
-0.15198804 -0.080903456 0.43352935 0.0012014813 951 212
-0.15040848 -0.081170365 0.4357585 0.0012501988 854 187
-0.14759056 -0.08076711 0.43436348 0.0013831628 798 172
-0.14462641 -0.080271207 0.4324367 0.0012652181 871 191
-0.14241306 -0.080183722 0.43267983 0.0012815294 857 188
-0.1394964 -0.079691887 0.43071115 0.0012074417 924 205
-0.13691774 -0.079381384 0.42969123 0.0011807515 993 224
-0.13492179 -0.079404473 0.43045041 0.0011405451 1007 227
-0.13326883 -0.079633199 0.4323025 0.0012097224 953 213
-0.13007416 -0.078933477 0.42908725 0.0012729492 854 187
-0.12218465 -0.075317621 0.40996596 0.0012968385 877 193
-0.11956605 -0.07488694 0.40813187 0.0011371082 1050 239
-0.11762901 -0.074876055 0.40856162 0.0011639377 1006 227
-0.11566961 -0.074850313 0.40888965 0.0012056147 969 217
-0.11360938 -0.07475739 0.40882987 0.0011514087 1055 240
-0.11130948 -0.074500836 0.4078536 0.0011154572 1034 234
-0.10999065 -0.074903443 0.41046768 0.0011741159 958 214
-0.10713516 -0.07425531 0.40730387 0.0011498359 1001 226
-0.10504168 -0.074121401 0.40693882 0.0012069237 946 211
-0.10317033 -0.07414221 0.4074052 0.0011832586 955 213
-0.10100851 -0.073951133 0.40668952 0.001244789 916 203
-0.098789401 -0.073710009 0.40568048 0.0011677586 971 218
-0.096939571 -0.073740378 0.40614885 0.001233186 955 213
-0.094926193 -0.073645078 0.40590948 0.0012668917 911 202
-0.092981011 -0.073599875 0.40593106 0.0012079079 915 203
-0.090791494 -0.073355407 0.40483823 0.0012021546 968 217
-0.089032091 -0.073455453 0.40563247 0.001173674 965 216
-0.087201737 -0.073500007 0.40610746 0.0011747783 974 219
-0.085270636 -0.073459744 0.40610099 0.001129295 1027 233
-0.08335945 -0.073435217 0.406169 0.0011099653 1066 243
-0.081471331 -0.073430337 0.40633371 0.0011310097 1083 247
-0.079456143 -0.073307991 0.4058367 0.0011457923 1058 241
-0.07743226 -0.073171511 0.40524989 0.0011567783 1049 238
-0.075580485 -0.073194914 0.40553778 0.0011503214 1063 242
-0.073921897 -0.073411375 0.40688583 0.0011670192 986 222
-0.072003573 -0.073374458 0.40682027 0.0011581614 996 224
-0.070216231 -0.073472604 0.4074944 0.0011658743 976 219
-0.068589263 -0.073748611 0.40914679 0.0012029816 950 212
-0.066893384 -0.073964067 0.4104555 0.0012702061 917 203
-0.064999327 -0.073966593 0.41057497 0.0011931489 936 208
-0.062829748 -0.0736463 0.40889436 0.0011834875 955 213
-0.061053835 -0.073781893 0.40973747 0.0012063789 908 201
-0.059410147 -0.074091062 0.41153812 0.0013417542 847 185
-0.057634372 -0.074250482 0.41250089 0.0012988464 803 173
-0.05591511 -0.07449609 0.41393659 0.0013099242 807 174
-0.054185659 -0.074745014 0.41538545 0.0013111213 827 180
-0.052028406 -0.074400447 0.41353038 0.0012634563 852 186
-0.050470509 -0.074919328 0.4164694 0.0012571693 854 187
-0.048454322 -0.07477206 0.41570076 0.0012566342 865 190
-0.046563625 -0.074814297 0.41598099 0.001229584 886 195
-0.044754624 -0.074997053 0.41703841 0.0012619786 855 187
-0.042869397 -0.075062759 0.41744101 0.0012221006 905 200
-0.041037872 -0.075233087 0.41842183 0.00125538 911 202
-0.039166741 -0.075344026 0.41906905 0.0012554906 887 196
-0.037261896 -0.075398251 0.41939777 0.0012377608 885 195
-0.035360862 -0.075466543 0.41980171 0.0012904035 882 194
-0.033458546 -0.075539865 0.42023095 0.001255475 907 201
-0.031560458 -0.075632311 0.42076418 0.001243069 885 195
-0.029635729 -0.075668834 0.42098412 0.0012764488 910 202
-0.027662311 -0.075577453 0.42049032 0.0012508271 859 188
-0.025660992 -0.075390339 0.41946203 0.0013152141 850 186
-0.023711633 -0.075337835 0.41918087 0.0012678652 848 185
-0.021749172 -0.075230688 0.41859418 0.0013394599 791 170
-0.019777536 -0.07506787 0.41769642 0.0014215513 769 164
-0.017776553 -0.074746549 0.4159154 0.001292281 818 177
-0.015907237 -0.0749681 0.41715404 0.0012725689 853 187
-0.013940559 -0.074728638 0.41582647 0.0012667528 912 202
-0.012022626 -0.074715808 0.41575909 0.0012428992 871 191
-0.010081883 -0.074529476 0.41472557 0.0013016131 813 176
-0.0079809921 -0.072795309 0.40507811 0.0012129927 926 206
-0.0061176331 -0.072830349 0.40527505 0.0012037894 956 214
-0.0042753569 -0.073257402 0.40765285 0.0011577528 993 224
-0.0024180405 -0.073894046 0.41119641 0.0011832129 979 220
-0.00052417803 -0.073979922 0.41167462 0.0011505388 1002 226
0.0013714547 -0.073923871 0.41136268 0.0011663407 969 217
0.0032721488 -0.074047402 0.41204947 0.0011695906 1027 233
0.0051716696 -0.074063413 0.41213748 0.0011574093 979 220
0.0070572114 -0.0739244 0.41136223 0.0012437934 856 187
0.0089233508 -0.073684022 0.4100225 0.0013579442 748 159
0.010760739 -0.073331714 0.40805915 0.001406057 744 158
0.012570908 -0.072926305 0.40579969 0.0014022229 786 169
0.014377023 -0.072605394 0.40400973 0.0013369165 782 168
0.01615056 -0.072212398 0.40181774 0.001352352 765 163
0.017931271 -0.071929 0.40023479 0.0013406734 850 186
0.019744569 -0.071816996 0.39960438 0.0013756894 811 175
0.021539334 -0.071662433 0.39873606 0.0013231346 820 178
0.023375986 -0.071660586 0.39871612 0.0012891154 866 190
0.025112439 -0.071374208 0.39711156 0.0012481122 897 198
0.026879573 -0.071208023 0.39617413 0.0012409323 877 193
0.02864827 -0.071066841 0.39537409 0.0012903295 858 188
0.030429104 -0.070970856 0.39482352 0.0012316665 903 200
0.032251846 -0.070977934 0.39484411 0.0012959464 892 197
0.034058854 -0.070951484 0.39467576 0.0012135527 919 204
0.035767734 -0.070733644 0.39344016 0.0011842971 951 212
0.037562035 -0.070697606 0.39321303 0.0011736988 970 217
0.039390884 -0.070726931 0.39334631 0.0011691758 971 218
0.040948894 -0.07028877 0.39087659 0.0012011614 972 218
0.042749252 -0.070285998 0.39082468 0.0012003959 950 212
0.044606425 -0.070373096 0.39126846 0.0012084718 925 206
0.046484809 -0.070485577 0.39184919 0.0012331774 890 196
0.048418637 -0.070670567 0.39282829 0.0012802606 836 182
0.050175007 -0.070592538 0.39234063 0.0013706763 802 173
0.05192104 -0.07050591 0.39180011 0.0014098391 753 160
0.053777382 -0.070569865 0.3920911 0.0013184058 817 177
0.055639457 -0.070636936 0.39239356 0.0013006643 809 175
0.057148136 -0.070265256 0.39025295 0.0013084626 814 176
0.05911874 -0.070466898 0.39129037 0.0013281252 864 189
0.060993999 -0.070546307 0.39164197 0.0012943716 830 180
0.062486552 -0.070191242 0.38957486 0.0013793473 800 172
0.064750873 -0.070698716 0.39228725 0.0013623293 795 171
0.067308076 -0.071489625 0.39656255 0.001360314 758 161
0.070295662 -0.072683617 0.40306211 0.0014365668 689 143
0.074956305 -0.075501151 0.41854876 0.0015929635 593 118
0.081451178 -0.079977885 0.44320986 0.0016757392 548 106
0.083578624 -0.080051638 0.44345161 0.0012830275 845 184
0.085933633 -0.080334589 0.44484016 0.0012412494 910 202
0.088236272 -0.080556482 0.44587776 0.0012771662 821 178
0.089796402 -0.080105841 0.44318131 0.0014037535 765 163
0.090996869 -0.0793617 0.43885151 0.00131517 865 190
