# .PCD v0.7 - Point Cloud Data file format
VERSION 0.7
FIELDS x y z noise intensity gray
SIZE 4 4 4 4 2 1
TYPE F F F F U U
COUNT 1 1 1 1 1 1
WIDTH 854
HEIGHT 1
VIEWPOINT 0 0 0 1 0 0 0
POINTS 854
DATA ascii
0.095421962 -0.095973223 0.41870198 0.0017519965 547 115
0.1034079 -0.10191363 0.44424319 0.0020319084 439 85
0.10577174 -0.10218818 0.44504678 0.0014775587 657 146
0.10808037 -0.10239983 0.44555685 0.0014042243 711 161
0.11035611 -0.10257287 0.44587916 0.0014028557 718 163
0.11272253 -0.10282216 0.4465124 0.001480534 655 145
0.11494038 -0.10292931 0.44650751 0.0014620253 664 148
0.11691058 -0.10281485 0.44552162 0.0013511424 757 173
0.1188616 -0.10268783 0.44446236 0.0013268911 792 183
0.12099035 -0.10271609 0.44405514 0.0013867047 745 170
0.12322652 -0.10283305 0.44400954 0.0014012455 726 165
0.12541409 -0.10290618 0.44375226 0.0014210278 701 158
0.1279494 -0.10325757 0.44467056 0.0014195974 728 165
0.13048819 -0.10360033 0.4455255 0.0014238849 722 164
0.13266096 -0.10364618 0.44507864 0.0015402194 649 143
0.1354115 -0.10413493 0.44650748 0.0015889633 584 125
0.13749403 -0.10410279 0.44567683 0.0015713255 593 128
0.1405849 -0.10482346 0.44804108 0.0015885314 582 125
0.14204642 -0.10432587 0.44517335 0.0014886213 645 142
0.14437257 -0.10446861 0.44501731 0.0015613429 635 140
0.14719944 -0.10496426 0.44633669 0.0015479459 610 133
0.14962721 -0.10516518 0.44637477 0.0014991624 635 140
0.15199888 -0.10532154 0.44619834 0.0016186611 620 135
0.15440674 -0.10549828 0.44608369 0.0016172595 622 136
0.156965 -0.1057715 0.44635209 0.0014876575 647 143
0.15888035 -0.10560995 0.44476482 0.0015438355 608 132
0.16215755 -0.10634585 0.44693309 0.0015792155 590 127
0.1644109 -0.10639974 0.44621065 0.0015999228 574 123
0.1663027 -0.10622127 0.44449914 0.0015101989 631 138
0.16876985 -0.10641018 0.44431129 0.0015559543 602 130
0.17214735 -0.10716096 0.44644949 0.0017162729 567 121
0.17443436 -0.1072226 0.44570059 0.0017496789 532 111
0.17692795 -0.10740813 0.44545901 0.0017485317 542 114
0.17948085 -0.10762469 0.44534054 0.0016553138 547 115
0.18214743 -0.10790333 0.44547659 0.0017042436 549 116
0.18523248 -0.10842028 0.44659555 0.0016744755 535 112
0.18760249 -0.1085114 0.44596612 0.0017316395 518 107
0.19018607 -0.10872252 0.44584355 0.0018239552 505 103
0.19261858 -0.1088434 0.44536987 0.0018043802 518 107
0.19535685 -0.10913233 0.44560775 0.0017945602 518 107
0.19786872 -0.10928969 0.44533819 0.0018384526 459 91
0.20072128 -0.10962965 0.44584808 0.0018715913 449 88
0.20324104 -0.1097823 0.44563791 0.0019280759 438 85
0.20611361 -0.11012016 0.44622728 0.0019490306 433 83
0.20894353 -0.11042818 0.44674847 0.0019836584 412 77
0.21170868 -0.11069575 0.44716483 0.0020711501 392 72
0.21400627 -0.11071578 0.4466469 0.0020997263 375 67
0.21617876 -0.11067135 0.44594067 0.0022475934 345 59
0.21860009 -0.11075392 0.44582134 0.0021911627 362 64
0.22128358 -0.11096627 0.44630161 0.0022853871 331 55
0.22388555 -0.11113384 0.44668159 0.0024324718 340 57
0.2265484 -0.11132798 0.44725001 0.002463683 299 46
0.22846009 -0.11115279 0.4464182 0.0027780246 287 43
0.23065414 -0.11111706 0.44623062 0.002731418 285 42
0.23276848 -0.11104403 0.44597691 0.0027552848 268 37
0.23534535 -0.11119092 0.4466894 0.0028072326 258 35
0.23768985 -0.11122626 0.44703582 0.0032933834 221 24
-0.25893843 -0.10509596 0.44012094 0.0037639851 171 10
-0.25969818 -0.1063031 0.44413349 0.0038456556 181 13
-0.26024678 -0.10744381 0.4478949 0.0034622957 190 16
-0.25799575 -0.10743845 0.44692004 0.0033166413 203 19
-0.25634742 -0.10768618 0.44705057 0.0033465324 198 18
-0.25445232 -0.10783373 0.44681922 0.0035719979 210 21
-0.25188267 -0.10769546 0.44546336 0.0033961649 212 22
-0.2496703 -0.10770886 0.44479835 0.0031849435 213 22
-0.24765745 -0.10780936 0.44455764 0.0039055785 197 18
-0.24601837 -0.10807587 0.44506758 0.003834686 182 13
-0.2440547 -0.10820341 0.44507402 0.0029464718 236 28
-0.24126516 -0.10796378 0.44364393 0.0029540069 254 33
-0.2387134 -0.10782702 0.44271389 0.0026313546 275 39
-0.23701252 -0.10807566 0.44344389 0.0025984936 280 41
-0.23517321 -0.10826534 0.44401106 0.002552934 291 44
-0.23346339 -0.10851888 0.44492128 0.0026075093 280 41
-0.23154314 -0.10867862 0.44552976 0.0024331005 306 48
-0.22946021 -0.1087644 0.44591936 0.0023210065 324 53
-0.22690751 -0.10862698 0.44547829 0.002369836 331 55
-0.22375353 -0.10819607 0.44391701 0.0022096913 355 62
-0.22164446 -0.10826679 0.4444961 0.0022158707 351 60
-0.21959329 -0.10836754 0.44528046 0.0021901843 360 63
-0.21659118 -0.10799623 0.44420323 0.0021654719 388 71
-0.21407285 -0.10786087 0.44417027 0.0020536124 403 75
-0.21120192 -0.1075431 0.4434559 0.0019495087 423 81
-0.2085685 -0.10734075 0.44328243 0.0019884463 444 86
-0.20609848 -0.10721901 0.44350266 0.0018911875 466 92
-0.20424324 -0.10741794 0.44510761 0.0018471886 463 92
-0.20177118 -0.10729329 0.44542426 0.0017942098 485 98
-0.19818044 -0.10656431 0.44327134 0.0017685632 540 113
-0.19570331 -0.1064244 0.44360152 0.0016135575 578 124
-0.19238305 -0.10581754 0.4420127 0.0016660212 561 119
-0.19018166 -0.10581915 0.44298798 0.0015852975 585 126
-0.18784726 -0.10574592 0.44367138 0.0016002961 574 123
-0.18526182 -0.10552797 0.44376156 0.0015801967 589 127
-0.18248618 -0.10519514 0.44337484 0.001670061 576 123
-0.17978479 -0.10489756 0.44313726 0.001527668 615 134
-0.17778687 -0.10500813 0.44462427 0.0014938783 641 141
-0.17490371 -0.10459207 0.4438768 0.0015763115 631 138
-0.17207837 -0.10420056 0.44322029 0.0014770938 653 145
-0.16924404 -0.10379351 0.44248137 0.0016102812 625 137
-0.16466457 -0.10229183 0.43704659 0.0013188579 791 183
-0.16236669 -0.10218671 0.43754986 0.0011962492 955 229
-0.16032985 -0.10224527 0.43873805 0.0012117982 909 216
-0.15797307 -0.10209862 0.43902728 0.001181151 947 226
-0.15500475 -0.10154734 0.43755162 0.0012431848 928 221
-0.15250224 -0.10129019 0.43731615 0.0011728769 953 228
-0.15014437 -0.10112324 0.43744555 0.0011646231 973 234
-0.14825235 -0.10126976 0.43890905 0.0012515188 919 219
-0.1458351 -0.10105655 0.43879065 0.0012344761 880 208
-0.14327013 -0.10073324 0.4381671 0.0013870444 766 176
-0.14070089 -0.10039725 0.43746051 0.0014009565 756 173
-0.13823366 -0.10012501 0.43700412 0.0013923405 737 168
-0.13588122 -0.099928863 0.43685335 0.0013841998 787 182
-0.13353617 -0.099732123 0.43667427 0.00144368 726 165
-0.13117534 -0.099517196 0.43638992 0.0013464561 805 187
-0.12923211 -0.09961728 0.43746349 0.0013310257 813 189
-0.12754351 -0.099920094 0.43940753 0.0013562364 756 173
-0.12523411 -0.099738538 0.43920004 0.0013538199 792 183
-0.12357046 -0.10007385 0.44124761 0.0013322401 773 178
-0.12142069 -0.1000202 0.44156033 0.001354959 781 180
-0.11933629 -0.10001947 0.44208518 0.0014077738 746 170
-0.11722426 -0.099995151 0.44248503 0.0013649351 764 175
-0.11528537 -0.10012031 0.4435266 0.0013416786 773 178
-0.11320625 -0.10012607 0.44402 0.0013080799 798 185
-0.1110175 -0.10003323 0.4440566 0.0012501359 855 201
-0.10910452 -0.1001901 0.44518298 0.0012140253 904 214
-0.10669969 -0.099892624 0.44427162 0.0012474578 935 223
-0.10456699 -0.099843144 0.44444406 0.0012606242 881 208
-0.1026338 -0.099986009 0.44545582 0.0012952266 865 204
-0.10063363 -0.10006819 0.44618115 0.0012613041 896 212
-0.098556921 -0.10007613 0.44655949 0.0012493683 865 204
-0.096293129 -0.099890359 0.44605696 0.0012728374 844 198
-0.0941035 -0.099774994 0.44585261 0.0013591942 803 186
-0.091850407 -0.099585608 0.44530174 0.0013329919 817 190
-0.089691781 -0.099492267 0.44516522 0.0012679845 846 198
-0.087650977 -0.099528298 0.4455936 0.0013436682 816 190
-0.085416399 -0.099340729 0.44500718 0.0013052268 803 186
-0.083340265 -0.09933266 0.44521159 0.0013176693 814 189
-0.081329167 -0.099403687 0.44575828 0.0012529619 857 201
-0.07942412 -0.099611439 0.44690669 0.001233666 882 208
-0.077252857 -0.099487476 0.44655558 0.0012575887 858 202
-0.074998133 -0.099246264 0.44566646 0.0012769363 852 200
-0.073032156 -0.0993843 0.44646943 0.001246221 868 204
-0.070974387 -0.099401832 0.44672126 0.0012396189 875 206
-0.068852603 -0.099328049 0.44655281 0.0012821497 844 198
-0.066685326 -0.099182062 0.44604999 0.0013067374 821 191
-0.064455032 -0.098930001 0.44506058 0.001480083 666 148
-0.061861437 -0.098085247 0.44139466 0.0015831573 583 125
-0.058576841 -0.096049741 0.43235838 0.0014828525 685 153
-0.056686632 -0.09623754 0.43331999 0.0015036495 652 144
-0.054873012 -0.096573904 0.43494394 0.0016606633 544 114
-0.052501697 -0.095916986 0.43208706 0.0017635156 540 113
-0.049325991 -0.093680382 0.42210454 0.0015767504 634 139
-0.047363661 -0.093658902 0.42209461 0.0014308448 695 156
-0.045310196 -0.093447618 0.42122307 0.0014132913 750 172
-0.043333963 -0.093383789 0.42101052 0.0014099575 755 173
-0.041432597 -0.093482904 0.4215273 0.0013545037 797 185
-0.03955698 -0.09365274 0.4223581 0.001289058 826 193
-0.037759513 -0.094034821 0.42414168 0.0012796718 829 194
-0.035744559 -0.093887448 0.42353281 0.001253527 862 203
-0.033874273 -0.094125025 0.42465618 0.0012605246 859 202
-0.031988796 -0.094346955 0.42570508 0.0012848539 855 201
-0.030070959 -0.094496265 0.4264226 0.0012451389 880 208
-0.028135119 -0.094605975 0.42695779 0.0012560807 870 205
-0.026184829 -0.094679944 0.42732817 0.0012442492 869 205
-0.024334228 -0.09515579 0.42950925 0.0013587842 783 181
-0.022392804 -0.095329367 0.430323 0.001326425 807 187
-0.020429334 -0.095433772 0.43082142 0.0013408809 803 186
-0.018440466 -0.095429234 0.43082514 0.001280079 832 194
-0.016449545 -0.095411688 0.43076733 0.001284381 833 195
-0.014471073 -0.095471464 0.43105581 0.0012883728 848 199
-0.012490869 -0.095537052 0.43136805 0.0012724098 844 198
-0.010499519 -0.095526062 0.43133196 0.0012889676 828 193
-0.0085152052 -0.095588937 0.43162698 0.0013028004 825 192
-0.0065221936 -0.095562741 0.43151736 0.0013020567 813 189
-0.004518338 -0.095284864 0.43026897 0.0013732003 802 186
-0.0025292293 -0.095126182 0.42955646 0.001367484 790 183
-0.00054834248 -0.095247343 0.43010536 0.0013819649 789 182
0.001429418 -0.094826236 0.42820328 0.0013301965 791 183
0.0034074157 -0.094900355 0.42853516 0.0013383367 778 179
0.005384041 -0.094895855 0.42850983 0.0013419457 768 177
0.0073717847 -0.095037125 0.42914033 0.0013069357 806 187
0.0093656816 -0.0951811 0.42978081 0.0013932735 778 179
0.011356762 -0.09525115 0.43008494 0.0013829758 770 177
0.01335211 -0.095330842 0.43043011 0.0012909162 823 192
0.015360096 -0.095468439 0.43103418 0.0013498713 803 186
0.017378133 -0.095629796 0.43174279 0.0013220763 833 195
0.019371359 -0.095635474 0.43174577 0.0013042007 846 198
0.02156263 -0.09652666 0.43574324 0.0012820903 829 194
0.023543013 -0.096402273 0.43515286 0.0012885794 831 194
0.025505424 -0.09622965 0.43434176 0.0012939131 819 191
0.027586579 -0.096497543 0.43551555 0.0013670825 782 180
0.029639803 -0.096637957 0.43611032 0.0013274378 797 185
0.031716142 -0.096831128 0.4369393 0.0012735259 831 194
0.033659868 -0.0966205 0.43594232 0.001288593 814 189
0.035636444 -0.096522614 0.43545008 0.0012996189 807 187
0.037623562 -0.096462227 0.43512276 0.0013646784 777 179
0.039609831 -0.096405886 0.43480918 0.0014054981 757 173
0.041564286 -0.09628129 0.43418315 0.0014375215 695 156
0.043501716 -0.096130542 0.43343437 0.0014458573 681 152
0.045364216 -0.095834769 0.43202671 0.0014593591 666 148
0.047012419 -0.095130302 0.42877188 0.0015340515 659 146
0.048756249 -0.094668508 0.42660603 0.0014991522 646 143
0.050447114 -0.094143748 0.42415142 0.0014581593 676 151
0.052114252 -0.093615666 0.42167649 0.0014440845 686 154
0.053671703 -0.092935733 0.41851237 0.0014547548 676 151
0.055355985 -0.092515118 0.41651022 0.0014314554 695 156
0.057136215 -0.092277758 0.41532692 0.0014826113 662 147
0.058964029 -0.092130207 0.41454077 0.0014263267 699 157
0.060087785 -0.090926573 0.40899688 0.0014580929 708 160
0.061825819 -0.090697609 0.40783122 0.0014534174 701 158
0.063707136 -0.090686202 0.40763581 0.0013823669 734 167
0.065528959 -0.090593211 0.40706506 0.0013983172 721 163
0.067258105 -0.090380862 0.40594947 0.0013918821 731 166
0.069075346 -0.09029524 0.40539426 0.0013698153 747 171
0.071113132 -0.090494826 0.40610936 0.001436508 711 161
0.073224947 -0.090775885 0.40717897 0.0014162479 697 157
0.075025067 -0.090666093 0.40648425 0.0014905565 717 162
0.076897368 -0.090646796 0.40618464 0.0014368307 698 157
0.078824885 -0.090691946 0.40616214 0.0014239771 697 157
0.081174091 -0.091208793 0.4082388 0.0014645277 687 154
0.083133258 -0.091273785 0.40827909 0.0013678728 745 170
0.085418083 -0.091685414 0.4098556 0.0014844883 706 159
0.087483905 -0.091849104 0.41030884 0.0014642377 731 166
0.089677475 -0.092137046 0.41130191 0.0015185458 688 154
0.091869399 -0.09241125 0.41221741 0.001549167 653 145
0.095713213 -0.094301745 0.42032045 0.0017028955 528 110
0.10251725 -0.098974109 0.44078332 0.0020037116 414 78
0.10600565 -0.1003243 0.4464117 0.0015909486 584 125
0.10813767 -0.10036343 0.44618335 0.0014262353 694 156
0.11027505 -0.10040593 0.44595155 0.0015640871 642 141
0.11251711 -0.10054042 0.44610888 0.0015257515 620 135
0.11468658 -0.10060629 0.44594178 0.0013963145 717 162
0.1165361 -0.10039417 0.44452357 0.0013107293 801 186
0.11877654 -0.10052039 0.44458368 0.0014044007 748 171
0.12094193 -0.10057979 0.44432691 0.0014181831 739 168
0.12300212 -0.1005512 0.4436602 0.0013896591 723 164
0.12521179 -0.10064367 0.44350594 0.0013714515 739 168
0.1280383 -0.10122078 0.44546166 0.0014374092 686 154
0.13023284 -0.10128766 0.44514579 0.0014172826 705 159
0.13143873 -0.10059575 0.44147658 0.0013475873 762 175
0.13407968 -0.10100664 0.44262594 0.0013953481 724 164
0.13693218 -0.10156174 0.44437787 0.0015406216 635 140
0.13944776 -0.10185385 0.44495007 0.001589818 616 134
0.1415628 -0.10184904 0.44419971 0.0015072357 640 141
0.14442809 -0.10237619 0.44574198 0.0015727077 623 136
0.14694102 -0.10264184 0.44611642 0.0016356688 613 133
0.14943886 -0.10288951 0.44638535 0.0015674005 591 127
0.15101919 -0.10250737 0.44390002 0.0014986241 638 140
0.15368447 -0.10286205 0.44458336 0.0015380393 635 140
0.15658493 -0.10336225 0.44586653 0.0015509489 643 142
0.15908077 -0.10358538 0.44592735 0.001506225 633 139
0.16148853 -0.10374594 0.44569567 0.0015976289 605 131
0.16377154 -0.10382321 0.44508538 0.0015672417 610 133
0.16611299 -0.10393502 0.44460443 0.0016634443 595 128
0.16920868 -0.1045098 0.44608265 0.0015889348 587 126
0.17220198 -0.10500754 0.447209 0.0017095827 563 119
0.17409898 -0.10483266 0.44545752 0.0016398663 555 117
0.17648211 -0.10495122 0.44494626 0.0016701127 552 116
0.17896579 -0.10512594 0.44466639 0.0016039127 577 123
0.18116805 -0.1051331 0.44367599 0.0016767704 555 117
0.18405889 -0.10553493 0.4443514 0.0016801262 550 116
0.18743019 -0.1061995 0.44613156 0.0018329853 508 104
0.18952365 -0.10613297 0.44484854 0.001752557 501 102
0.19198765 -0.1062731 0.44445017 0.001713027 535 112
0.19570567 -0.10709625 0.44692436 0.0018342929 497 101
0.19812752 -0.10719956 0.44641706 0.0019121355 466 92
0.2006789 -0.10736986 0.44622314 0.0020089513 445 87
0.20319606 -0.10751829 0.44597882 0.0018941286 444 86
0.20584303 -0.10773142 0.44604895 0.0019498516 443 86
0.20863014 -0.10801253 0.44645172 0.002029367 421 80
0.21150145 -0.10833075 0.44706437 0.0020778303 389 71
0.21394598 -0.10842596 0.44681981 0.0021119772 379 68
0.21641667 -0.1085323 0.4466902 0.0021139102 377 68
0.21867363 -0.10853038 0.44618908 0.0021842401 355 62
0.22123496 -0.108678 0.44637996 0.0021688477 358 62
0.22407427 -0.10895781 0.44719282 0.0022875557 335 56
0.22674859 -0.10915257 0.44773817 0.0024640283 307 48
0.22885033 -0.10907058 0.44723216 0.0026609367 286 42
0.23084684 -0.10894054 0.44661409 0.0027070113 274 39
0.23291223 -0.10884523 0.44622314 0.0028440689 267 37
0.23524895 -0.10887734 0.44643876 0.0026655763 269 38
0.23784453 -0.10902748 0.4472217 0.0029427705 247 32
-0.26156616 -0.10395099 0.44416258 0.0037304203 173 11
-0.25926915 -0.1039167 0.44299108 0.0036776299 177 12
-0.25802696 -0.10430827 0.44368163 0.0036905524 195 17
-0.25777972 -0.10511231 0.44616878 0.0031745234 211 21
-0.25661087 -0.10555132 0.44715157 0.0032349071 207 20
-0.25399384 -0.10539718 0.44567788 0.0031831535 206 20
-0.25195697 -0.10548315 0.44528154 0.0032486417 204 20
-0.24940066 -0.10535126 0.44402993 0.0032449027 223 25
-0.24739523 -0.10545179 0.4438251 0.0036270334 181 13
-0.24491867 -0.1053515 0.44284457 0.0030360268 225 25
-0.2435396 -0.1057258 0.44393009 0.0028166461 257 34
-0.24104971 -0.10562036 0.44307488 0.0027499094 268 37
-0.23900253 -0.10570873 0.44311026 0.0026253553 287 43
-0.23721445 -0.10591448 0.44371629 0.0025901482 312 50
-0.23524365 -0.1060418 0.44407469 0.0024694179 304 47
-0.23293079 -0.10601591 0.44387457 0.0026646778 303 47
-0.23095575 -0.10614476 0.44440663 0.0024225467 313 50
-0.22957759 -0.10655318 0.44619453 0.0023419252 319 52
-0.22586545 -0.10587571 0.44351986 0.0021358663 374 67
-0.22353262 -0.10583764 0.44360691 0.0023541478 361 63
-0.22138116 -0.10588554 0.44413736 0.0021538578 367 65
-0.21883897 -0.10574562 0.44396073 0.0021687478 389 71
-0.21657659 -0.10573942 0.44442344 0.0020680965 392 72
-0.21364355 -0.1054022 0.44356808 0.0019884326 408 76
-0.21074158 -0.10507333 0.44281498 0.001971127 436 84
-0.20785692 -0.10474613 0.44213089 0.0018755815 462 91
-0.20570043 -0.10478275 0.44304144 0.001855701 462 91
-0.20338832 -0.10474004 0.44367194 0.0018899961 473 94
-0.20060675 -0.10445195 0.44330975 0.0017498233 498 101
-0.19791755 -0.10420603 0.4431656 0.0017225239 512 105
-0.19482045 -0.10373736 0.44210491 0.0016811874 557 118
-0.19220497 -0.10351732 0.44212875 0.0016374124 559 118
-0.18983655 -0.10342679 0.44272798 0.0015985077 580 124
-0.18741924 -0.1033072 0.44322017 0.0015692894 593 128
-0.18462615 -0.10297517 0.4428106 0.001623299 602 130
-0.18196072 -0.10270721 0.44267949 0.0016011545 600 130
-0.17953864 -0.10257179 0.44312 0.0015968726 607 132
-0.17674287 -0.10221691 0.44260758 0.0014960192 642 141
-0.17434844 -0.10208818 0.44306576 0.0015318661 620 135
-0.17179464 -0.10186172 0.44308907 0.0014850695 660 146
-0.16816533 -0.1009836 0.4402566 0.0014517456 677 151
-0.16451828 -0.10007198 0.43724796 0.0012525327 856 201
-0.16217209 -0.099938132 0.43761253 0.0011263179 1033 250
-0.16008145 -0.099960268 0.43864244 0.0011483659 988 238
-0.15796877 -0.099969074 0.43959552 0.0011518276 985 237
-0.1548509 -0.099333301 0.43768874 0.0011746128 949 227
-0.15279396 -0.099369928 0.4387185 0.0011725863 959 230
-0.150566 -0.099294774 0.43923274 0.0012152266 953 228
-0.1479101 -0.098931283 0.43844539 0.0012441587 914 217
-0.14556496 -0.098768122 0.43851879 0.0012585716 847 199
-0.14333984 -0.098682836 0.43891272 0.0014680531 716 162
-0.14036 -0.098067686 0.43692124 0.0014433621 691 155
-0.13782687 -0.097750783 0.43622825 0.0013817662 738 168
-0.13532856 -0.097449265 0.43557617 0.001318817 793 184
-0.13310146 -0.097336687 0.43574256 0.0013033637 809 188
-0.13117786 -0.09744601 0.43687925 0.0013512585 808 188
-0.12908912 -0.097434208 0.43745095 0.0013133606 845 198
-0.12681998 -0.097283624 0.43737599 0.001317981 813 189
-0.12478078 -0.097307354 0.43806186 0.0013819858 769 177
-0.12285763 -0.097423941 0.43914476 0.0013591337 753 172
-0.12110575 -0.097682633 0.44084895 0.0013619852 754 173
-0.11899301 -0.097654246 0.44123772 0.0014116995 733 167
-0.11687173 -0.097617686 0.44156867 0.0013637507 773 178
-0.1149217 -0.097725444 0.44253269 0.0012903509 819 191
-0.11297808 -0.097842708 0.44352114 0.0012700729 838 196
-0.11094566 -0.097886048 0.44415596 0.001255731 861 202
-0.10867499 -0.097716816 0.44380701 0.0012419431 922 219
-0.10653846 -0.097663939 0.44396746 0.0012274518 889 210
-0.10449788 -0.097698674 0.44450834 0.0012468349 864 203
-0.1026184 -0.097888485 0.44573852 0.0012805696 846 198
-0.10061821 -0.097968653 0.44645375 0.0012555397 859 202
-0.09841536 -0.097850688 0.44624969 0.0013383417 828 193
-0.096275866 -0.097791985 0.4462997 0.0012732437 868 204
-0.093803063 -0.097384661 0.44474187 0.0012685778 841 197
-0.091747224 -0.097401589 0.44510588 0.0012789824 837 196
-0.089779653 -0.097515173 0.44589779 0.0012552437 861 202
-0.08726912 -0.097030446 0.4439393 0.001256617 858 202
-0.085303016 -0.09714222 0.44469571 0.0012756715 829 194
-0.083274864 -0.097187117 0.44513372 0.0012601368 855 201
-0.081186585 -0.097162358 0.44524059 0.0012470847 865 204
-0.079266995 -0.097343467 0.44627926 0.0012308575 884 209
-0.077127449 -0.097256906 0.44607979 0.0012871604 856 201
-0.075075589 -0.097279206 0.44636866 0.0013179771 847 199
-0.072922595 -0.097168021 0.44603437 0.0012565274 859 202
-0.070952699 -0.097301424 0.44681281 0.0013120169 832 194
-0.068809152 -0.097197562 0.44649225 0.0012592096 852 200
-0.066480316 -0.096817434 0.44489256 0.0013218948 833 195
-0.063980125 -0.09615545 0.44198748 0.0013788086 731 166
-0.061602741 -0.095640391 0.43974775 0.0015509875 601 130
-0.058811489 -0.094425678 0.4342809 0.0015665551 617 135
-0.056596268 -0.094082594 0.43281356 0.0016849182 531 111
-0.054173864 -0.093357325 0.4295797 0.0016291748 568 121
-0.051438268 -0.092016585 0.42350489 0.0015975668 626 137
-0.049197827 -0.091490567 0.42117161 0.0014593096 709 160
-0.047230124 -0.091449328 0.42106348 0.0014430924 741 169
-0.045273416 -0.091426715 0.42103538 0.0013768569 778 179
-0.043321334 -0.091411851 0.4210377 0.0013873619 788 182
-0.041414995 -0.091496661 0.42149389 0.0013787218 778 179
-0.039558887 -0.091706261 0.42252043 0.001299246 813 189
-0.03772584 -0.091993853 0.423902 0.0013070536 804 187
-0.035765413 -0.091985308 0.42391479 0.0012810788 836 195
-0.0337766 -0.091898546 0.42356288 0.0012778757 869 205
-0.031992346 -0.092391849 0.42588085 0.0013187657 840 197
-0.03009456 -0.092600428 0.42688289 0.0012606714 869 205
-0.028151112 -0.092687882 0.42732325 0.0012607594 854 200
-0.026231853 -0.09287414 0.4282158 0.0012494271 870 205
-0.024295704 -0.093026087 0.42894715 0.001315171 825 192
-0.022387847 -0.093322895 0.4303436 0.0013686932 818 190
-0.020410059 -0.093357608 0.43052858 0.001376353 789 182
-0.018419473 -0.093334958 0.4304463 0.0013368522 820 191
-0.016438356 -0.093360625 0.43058422 0.0013367505 828 193
-0.014468392 -0.093465373 0.43108439 0.0012990993 823 192
-0.012479682 -0.093463115 0.43108866 0.0012895623 861 202
-0.010486563 -0.093420722 0.43090546 0.001322894 837 196
-0.0084970566 -0.093398228 0.4308117 0.0012559622 848 199
-0.0065118377 -0.093423493 0.43093622 0.0012688462 858 202
-0.0045161895 -0.093255609 0.43016753 0.0012512685 862 203
-0.0025313809 -0.093223833 0.43002468 0.0012699468 841 197
-0.00054715684 -0.093061581 0.42927781 0.0013123372 810 188
0.0014286947 -0.09280391 0.42808875 0.0013257461 812 189
0.0034005642 -0.092736624 0.42777589 0.0013099759 804 187
0.0053830519 -0.092902012 0.42853418 0.0013630613 791 183
0.0073715243 -0.093054101 0.42922905 0.0013086024 817 190
0.0093691917 -0.093233302 0.43004683 0.0012991501 810 188
0.011368129 -0.09336032 0.43062159 0.0013134076 798 185
0.013372468 -0.093487307 0.43119395 0.0013033818 803 186
0.015376143 -0.093577377 0.43159369 0.0012975045 807 187
0.017386913 -0.093685023 0.43207192 0.0013123973 826 193
0.019432455 -0.093938619 0.43322068 0.0012783111 827 193
0.021397326 -0.093791321 0.43251783 0.0012962607 815 190
0.0234986 -0.094216041 0.43444997 0.0012954166 807 187
0.025546599 -0.09437719 0.43516365 0.0013029727 803 186
0.027562084 -0.09440349 0.43525225 0.0012947514 812 189
0.029714221 -0.094862469 0.43733224 0.0013609817 816 190
0.031621788 -0.094531953 0.43576902 0.0012792131 833 195
0.033668067 -0.094630837 0.43618166 0.0013129493 833 195
0.03561515 -0.094455466 0.43532622 0.0013516798 810 188
0.037608001 -0.094413757 0.43508285 0.0013177326 792 183
0.039574347 -0.094313085 0.43456352 0.0013875072 726 165
0.04150762 -0.094147123 0.43373886 0.001458492 709 160
0.04342575 -0.093963668 0.43282905 0.0014210853 692 155
0.045308493 -0.093723156 0.43165162 0.0014940057 657 146
0.04713789 -0.093397237 0.43007591 0.0014977629 643 142
0.048640914 -0.092477165 0.4257597 0.0014936944 650 144
0.050368734 -0.092039406 0.42365941 0.0014789064 657 146
0.052074295 -0.091595262 0.42152441 0.0015904164 644 142
0.053676102 -0.091007233 0.41872191 0.001511358 671 150
0.05524841 -0.090411879 0.41588026 0.0015047854 692 155
0.057003401 -0.090145476 0.41454586 0.0014931348 694 156
0.058631197 -0.089701831 0.41239002 0.0014612832 678 151
0.060045641 -0.088970013 0.4089033 0.0014433083 682 153
0.061791636 -0.088759176 0.40780443 0.001425745 700 158
0.06340117 -0.088370651 0.40588191 0.0014209524 716 162
0.065025315 -0.088024259 0.40414554 0.0014166735 707 160
0.066805512 -0.087902598 0.40343291 0.0014074554 757 173
0.068626292 -0.087839529 0.40298024 0.0014200135 744 170
0.07057967 -0.087945014 0.40329123 0.0014168329 726 165
0.072852015 -0.08843223 0.40534142 0.0014321214 701 158
0.074976549 -0.088720009 0.40646538 0.0014746592 671 150
0.076826327 -0.088676527 0.40606028 0.0015410474 656 145
0.078747943 -0.088716045 0.40602389 0.0014797361 727 165
0.081030637 -0.089150988 0.40778428 0.0014459635 680 152
0.082756154 -0.08896704 0.40670082 0.0014075842 753 172
0.085038356 -0.089376405 0.4083164 0.0014226134 714 162
0.087447971 -0.08989884 0.41043261 0.0014170012 736 168
0.089607395 -0.09014722 0.41128147 0.0014136299 708 160
0.091600701 -0.090221569 0.41132125 0.0014302245 703 158
0.095904529 -0.092521898 0.42148635 0.0016559537 565 120
0.09941984 -0.093984298 0.42780524 0.0020468575 422 80
0.10649885 -0.098691478 0.44885454 0.0017357413 508 104
0.10813332 -0.098268792 0.44653898 0.0015228164 622 136
0.1101213 -0.098177306 0.44571251 0.0015467935 642 141
0.1121882 -0.09815827 0.4451969 0.0013870003 719 163
0.11439494 -0.098260053 0.44520983 0.0013423722 795 184
0.11663535 -0.098386578 0.44531435 0.0013751574 777 179
0.11848402 -0.098184027 0.44390982 0.0013930474 766 176
0.12079485 -0.098364815 0.44421807 0.0014336894 748 171
0.1228134 -0.098305516 0.44342053 0.0013760035 731 166
0.12509868 -0.098458141 0.4435569 0.0014338457 689 155
0.12791286 -0.099015117 0.44548908 0.0015955536 600 130
0.12972981 -0.098794639 0.4438991 0.0015338068 635 140
0.13167559 -0.09867771 0.44275379 0.0014178167 751 172
0.13360228 -0.098550402 0.44154069 0.0013638006 780 180
0.13594463 -0.098728903 0.44167414 0.0013555173 763 175
0.13869347 -0.099192649 0.44305587 0.0015368711 649 143
0.14144652 -0.099645503 0.44435892 0.0015825772 600 130
0.14394014 -0.099904895 0.44477028 0.001578478 599 130
0.146731 -0.10036004 0.44602394 0.0015298239 619 135
0.14867745 -0.10023287 0.44466344 0.0015417658 617 135
0.1511279 -0.10044427 0.44478089 0.0015644031 617 135
0.15350975 -0.10060481 0.44464707 0.0015311787 629 138
0.15614523 -0.10092488 0.44519183 0.0015183504 622 136
0.15875943 -0.10122269 0.44561124 0.0015838332 622 136
0.16116573 -0.10138176 0.44539514 0.0015726575 620 135
0.1636073 -0.10155852 0.44523415 0.0015437868 605 131
0.16587117 -0.10162178 0.44455525 0.0015800659 604 131
0.16839497 -0.10184063 0.444538 0.0015193662 628 138
0.17144558 -0.10236847 0.44584802 0.0017139832 567 121
0.17392637 -0.10254712 0.44561854 0.0016589731 544 114
0.17634717 -0.1026864 0.44520584 0.0017137072 555 117
0.17878594 -0.10283259 0.44481453 0.0016454706 554 117
0.18126041 -0.10299554 0.44449052 0.0016523812 548 115
0.18356824 -0.10306106 0.44374552 0.0016539193 547 115
0.18641515 -0.10342409 0.44428369 0.0016954839 523 108
0.18915688 -0.10372099 0.4445425 0.0017156195 515 106
0.19164661 -0.10387445 0.44419858 0.0017267327 520 108
0.19466652 -0.10430851 0.4450711 0.0018481864 504 103
0.19801766 -0.10490827 0.44666904 0.0017939433 474 95
0.20036453 -0.10496853 0.44599801 0.0018629653 449 88
0.20295949 -0.10515599 0.44590563 0.0018852991 441 86
0.20560838 -0.105367 0.44595626 0.0019299032 432 83
0.20819303 -0.10554092 0.44589928 0.0019708043 417 79
0.21096633 -0.10580572 0.44628155 0.0021133074 393 72
0.21363887 -0.10601492 0.44648999 0.0021619773 379 68
0.21632712 -0.10622747 0.44677871 0.0021703884 376 67
0.21870747 -0.106286 0.44649151 0.0022397332 372 66
0.2211881 -0.10639157 0.44647825 0.0021628288 366 65
0.22357568 -0.1064507 0.44634941 0.0022417274 345 59
0.22611552 -0.10658041 0.44659868 0.0025089411 319 52
0.22919764 -0.10696061 0.4479807 0.0025088682 296 45
0.23136915 -0.10691255 0.44765377 0.0027606871 290 43
0.23371366 -0.10694458 0.44774806 0.0028166862 272 38
0.23560122 -0.10676894 0.44705835 0.0028413415 278 40
0.23539342 -0.10565614 0.44252741 0.0029204853 252 33
-0.26158312 -0.1017461 0.4437817 0.0036953813 174 11
-0.25894275 -0.10157793 0.4420405 0.0035082758 190 16
-0.25752592 -0.10189094 0.44244337 0.0032505032 207 20
-0.25663203 -0.10241808 0.44382262 0.0031601284 212 22
-0.25555241 -0.1028797 0.44496623 0.00337038 212 22
-0.25375608 -0.10305836 0.44494107 0.0030096171 222 25
-0.25149623 -0.10305027 0.44417116 0.0032717087 201 19
-0.24943604 -0.10312461 0.44382161 0.0036096515 201 19
-0.2467048 -0.10292035 0.4423424 0.0040926319 174 11
-0.24513547 -0.1032015 0.44302014 0.002957569 245 31
-0.24318519 -0.10332598 0.44309726 0.002853025 257 34
-0.2417184 -0.10366014 0.44414839 0.0028915771 261 35
-0.23879749 -0.1033711 0.44260806 0.002522348 293 44
-0.23690304 -0.10352515 0.44304639 0.0025008961 300 46
-0.23512256 -0.10373241 0.44379476 0.002501834 296 45
-0.23297502 -0.10378019 0.44394502 0.0024004395 313 50
-0.23055188 -0.10370494 0.4436543 0.0023515036 326 54
-0.22808367 -0.10360774 0.44335526 0.0022601113 356 62
-0.22588921 -0.10363418 0.44367072 0.0022031097 367 65
-0.22371584 -0.10367092 0.44411507 0.0021246879 375 67
-0.22101903 -0.10346337 0.44359541 0.0021313345 389 71
-0.21850775 -0.10333931 0.44351313 0.0020535919 393 72
-0.21592303 -0.10317758 0.44334543 0.0021000667 411 77
-0.2134461 -0.1030645 0.44345903 0.0020316904 428 82
-0.21061243 -0.10277494 0.44288021 0.0018875605 448 87
-0.20744108 -0.10231262 0.44161615 0.0019064293 451 88
-0.2049443 -0.10217659 0.44181487 0.0018344675 497 101
-0.2035272 -0.10258176 0.44440907 0.0017923058 485 98
-0.20065227 -0.10225301 0.44387126 0.0018115152 500 102
-0.19784087 -0.1019496 0.44347876 0.0018246108 515 106
-0.19488937 -0.10156634 0.4427672 0.0017033018 551 116
-0.19229652 -0.10136334 0.44286424 0.001580855 588 126
-0.18991843 -0.10127012 0.44346076 0.0015852929 581 124
-0.18722659 -0.10100547 0.44331965 0.0015401928 619 135
-0.18435897 -0.1006386 0.44273505 0.0015745338 614 134
-0.1815518 -0.10029629 0.44225785 0.001610178 627 137
-0.17899016 -0.10008297 0.44234577 0.0014880775 646 143
-0.17658415 -0.099952467 0.44279417 0.0015959565 595 128
-0.17418355 -0.099821821 0.44323352 0.0014965712 636 140
-0.17168555 -0.099631362 0.44339511 0.0015285026 645 142
-0.16765806 -0.098537117 0.43950969 0.001376898 729 166
-0.16490051 -0.098170578 0.43884152 0.0011677131 960 230
-0.16199219 -0.097703524 0.43769962 0.0011141946 1050 255
-0.15989585 -0.097720273 0.43870279 0.0011865904 947 226
-0.15768641 -0.097667418 0.43937364 0.0011603397 979 235
-0.1552486 -0.097469755 0.43937013 0.0011822119 952 228
-0.15295649 -0.097359344 0.43973547 0.0012042905 960 230
-0.15062906 -0.097223051 0.43995935 0.0011896618 961 230
-0.14808524 -0.096941233 0.43949819 0.0012174613 906 215
-0.14558938 -0.096683115 0.43911663 0.0014389625 712 161
-0.14327271 -0.096538201 0.43922234 0.0015343778 668 149
-0.13973227 -0.095552102 0.43546858 0.0013848965 731 166
-0.13736631 -0.095351517 0.43526208 0.0013139024 795 184
-0.13515991 -0.095257238 0.43551525 0.0012471465 883 209
-0.13306375 -0.095238931 0.43609175 0.0012933997 863 203
-0.13097139 -0.095222808 0.43665496 0.0012451221 871 205
-0.1287974 -0.095145866 0.43691573 0.0012581525 855 201
-0.12672371 -0.095141701 0.43748781 0.001260765 846 198
-0.12455957 -0.095068373 0.43771923 0.0012859819 816 190
-0.12227322 -0.09489774 0.43747944 0.0013750198 745 170
-0.12088954 -0.095433824 0.44047827 0.0013639559 745 170
-0.11873736 -0.095371373 0.4406963 0.0014098457 761 175
-0.11669906 -0.09539979 0.44131342 0.0013093052 801 186
-0.1147654 -0.095516309 0.44231886 0.0012739288 836 195
-0.11273858 -0.095558181 0.4429597 0.0012846051 858 202
-0.11079222 -0.095671095 0.44391152 0.001238232 888 210
-0.10858437 -0.095558204 0.44379711 0.0012227236 905 215
-0.10638253 -0.095446303 0.44366819 0.0012780947 887 210
-0.10436254 -0.095496364 0.44427437 0.0013358048 849 199
-0.10236861 -0.095572777 0.44498649 0.0012748832 851 200
-0.10025837 -0.095541522 0.44518104 0.0013175462 821 191
-0.098226883 -0.095585577 0.44571051 0.0012832795 826 193
-0.096099041 -0.09553574 0.4457866 0.0012422657 868 204
-0.093843229 -0.095353678 0.44523004 0.0012422823 893 211
-0.09170609 -0.095286705 0.4451955 0.0012519769 899 213
-0.089270301 -0.094899133 0.44364786 0.001236215 877 207
-0.087321267 -0.095022939 0.44447678 0.0012853967 846 198
-0.085263409 -0.09503144 0.44475359 0.0012901234 849 199
-0.083112799 -0.094934419 0.44452387 0.0012399803 882 208
-0.081252292 -0.095172256 0.4458504 0.0012347058 886 209
-0.079172105 -0.095158488 0.44598708 0.0012623445 868 204
-0.077142052 -0.095205858 0.44639924 0.0012705211 837 196
-0.074925095 -0.095018812 0.44570124 0.001280377 826 193
-0.072912589 -0.095087782 0.44619378 0.0012964639 830 194
-0.070857726 -0.095103949 0.44642872 0.0013345991 820 191
-0.068751059 -0.095049441 0.44632247 0.0012399053 877 207
-0.066472791 -0.094746985 0.44504234 0.001259375 862 203
-0.06400276 -0.094143108 0.44233653 0.0013722184 767 176
-0.061444584 -0.093365379 0.43880388 0.0016602849 572 122
-0.059118193 -0.092898779 0.4367241 0.0017069452 521 108
-0.05547867 -0.090262741 0.42443481 0.001593762 583 125
-0.053132046 -0.089614041 0.42147982 0.0014810322 663 147
-0.050851904 -0.089032382 0.41883254 0.0014258628 702 158
-0.049030241 -0.089239165 0.41988781 0.0013700332 747 171
-0.047149654 -0.089351304 0.42049244 0.0013748029 736 168
-0.045196667 -0.089329995 0.42046353 0.0014068664 763 175
-0.04331499 -0.089454032 0.42111367 0.0013997005 783 181
-0.041455612 -0.08963795 0.42204109 0.0013684458 794 184
-0.039541837 -0.089716591 0.42246819 0.0013453423 806 187
-0.037713893 -0.090008244 0.42389417 0.0012961335 820 191
-0.035795685 -0.09010458 0.42439646 0.0013550017 799 185
-0.033803411 -0.090014853 0.42401835 0.0012726983 855 201
-0.032031965 -0.090538271 0.426525 0.0012637335 843 197
-0.030108849 -0.090673447 0.4271993 0.0012672669 847 199
-0.028183702 -0.09082102 0.42792895 0.0012433144 872 206
-0.026245624 -0.090946026 0.42854908 0.0012970879 849 199
-0.024325144 -0.091157332 0.429573 0.0013565286 808 188
-0.022361295 -0.091229185 0.42993701 0.0013633475 808 188
-0.020428222 -0.0914528 0.43101364 0.0013438287 804 187
-0.018416755 -0.091335848 0.43048266 0.0012790584 844 198
-0.016441338 -0.09139102 0.43076041 0.0012665812 844 198
-0.014468166 -0.091475539 0.43117428 0.0012628885 841 197
-0.012479861 -0.091476075 0.43119004 0.0012727013 835 195
-0.010472354 -0.091309376 0.43041545 0.0012529572 855 201
-0.0084877145 -0.09131074 0.43043098 0.0012557101 861 202
-0.006499927 -0.091268726 0.43024006 0.0012302753 891 211
-0.0045176889 -0.091301955 0.43040192 0.0012928401 857 201
-0.0025289047 -0.091151305 0.42969507 0.0012781243 842 197
-0.00054668792 -0.091003709 0.42900068 0.0013393201 816 190
0.0014338912 -0.091159947 0.42973679 0.0013897753 785 181
0.0034122812 -0.091076471 0.42934099 0.0013145097 791 183
0.0053891805 -0.091029093 0.42911357 0.0012932295 830 194
0.0073794983 -0.091172963 0.42978567 0.0012986761 809 188
0.0093781631 -0.091337204 0.43055195 0.0012901594 815 190
0.011392713 -0.091571733 0.43164742 0.0013204481 809 188
0.013392329 -0.091634326 0.43193036 0.0013327 828 193
0.015389811 -0.091667995 0.43207479 0.0013182041 835 195
0.017414294 -0.091836341 0.43285164 0.0013049748 827 193
0.019415969 -0.09186215 0.43295437 0.0013016538 853 200
0.02144058 -0.09198153 0.43349558 0.0013341837 823 192
0.023466362 -0.092085153 0.43395981 0.0012761313 831 194
0.025612935 -0.092609242 0.43640253 0.0013403773 801 186
0.027590491 -0.092490353 0.43581235 0.0012760798 836 195
0.029563135 -0.092372261 0.43522286 0.0013097619 824 192
0.031588692 -0.092424005 0.43543026 0.0012790386 825 192
0.033638954 -0.092537545 0.43592525 0.0012775131 835 195
0.035626117 -0.092474468 0.43558452 0.0012814556 833 195
0.037557635 -0.092281416 0.43462774 0.0013313468 778 179
0.039538484 -0.092222989 0.43430099 0.001476758 716 162
0.041475691 -0.092073321 0.43354031 0.001464351 704 159
0.043398 -0.091905892 0.43269148 0.0014779998 673 150
0.045318455 -0.091749437 0.43188974 0.0015146682 645 142
0.047081947 -0.091301791 0.42971253 0.0015158105 656 145
0.048625436 -0.090480983 0.42577463 0.0015344914 655 145
0.050365228 -0.090075061 0.4237844 0.001492398 660 146
0.051995806 -0.089511514 0.42104751 0.0014881927 648 143
0.053512242 -0.088799208 0.41760603 0.0014645677 665 148
0.055185419 -0.088387549 0.415573 0.0014456679 684 153
0.056882065 -0.088039897 0.41383505 0.001465276 702 158
0.058315914 -0.087321386 0.41034806 0.0014129368 713 161
0.060029894 -0.087054409 0.40897682 0.0015080714 664 148
0.061585519 -0.086581118 0.40662962 0.0014566256 668 149
0.063120745 -0.086108066 0.40427703 0.0014341278 703 158
0.064799316 -0.085852176 0.40293676 0.0014529972 712 161
0.066693619 -0.085888445 0.40295929 0.0013672384 751 172
0.068586268 -0.085920654 0.40295368 0.001373972 740 169
0.070443392 -0.085907854 0.40272743 0.0014018819 721 163
0.07241302 -0.086029351 0.40312073 0.0014181606 738 168
0.07447651 -0.086253442 0.40398368 0.0014293817 760 174
0.076712623 -0.086661547 0.40569651 0.0014226706 706 159
0.078846417 -0.086937249 0.4067767 0.0014178681 713 161
0.080827497 -0.087035619 0.40701452 0.0014225283 700 158
0.083185509 -0.087526083 0.40907225 0.0014765983 697 157
0.085211538 -0.087653123 0.4094173 0.0014294924 691 155
0.087174796 -0.087711446 0.40942767 0.0014745726 723 164
0.089555278 -0.088178091 0.41132888 0.0014611543 725 165
0.091684729 -0.088383168 0.4119938 0.0014194945 704 159
0.094030306 -0.088783905 0.41355413 0.0015281556 638 140
0.098802835 -0.09141399 0.42547262 0.0017769746 498 101
0.10597456 -0.096116371 0.44699284 0.0019848093 418 79
0.10791294 -0.095982164 0.44598553 0.001655767 563 119
0.10990233 -0.095897578 0.44519177 0.0015265932 658 146
0.11206169 -0.095961682 0.44507 0.0013407236 766 176
0.11424449 -0.096043162 0.44500935 0.0013362834 804 187
0.11626238 -0.095985547 0.44428465 0.0013405316 773 178
0.11833753 -0.095976427 0.44376481 0.0013619206 758 174
0.12050212 -0.096038885 0.4435553 0.0013985932 737 168
0.1228428 -0.096237168 0.44395086 0.0014817984 709 160
0.12507047 -0.096341766 0.44389123 0.001478505 659 146
0.12748712 -0.096586101 0.44445163 0.0015534379 639 141
0.12915583 -0.09626504 0.44238845 0.0014231396 719 163
0.13136426 -0.096350066 0.44217041 0.0013679944 744 170
0.13364606 -0.096485429 0.442159 0.0014209946 730 166
0.13597228 -0.096648149 0.44224772 0.0013714306 736 168
0.13832244 -0.096822686 0.44236469 0.0015112483 689 155
0.14074135 -0.097039409 0.44264778 0.0015305406 642 141
0.14353783 -0.097506218 0.4440428 0.0015643415 603 131
0.14590918 -0.097674802 0.44405088 0.001541473 618 135
0.14828444 -0.097841166 0.44402221 0.0015220124 626 137
0.15078762 -0.098086037 0.44432274 0.0015693686 618 135
0.15324 -0.098291487 0.44441757 0.0015230469 658 146
0.1557942 -0.098555714 0.44475102 0.0016015563 604 131
0.15814713 -0.09868715 0.44445938 0.0015209389 623 136
0.16081423 -0.099008515 0.44499758 0.0016104415 617 135
0.16320428 -0.099153064 0.44471627 0.001565128 598 129
0.16593112 -0.099495791 0.44530007 0.0015425972 610 133
0.16849849 -0.099735312 0.44539884 0.0016461343 583 125
0.17097771 -0.099917248 0.44522077 0.0016479261 574 123
0.17354743 -0.10014682 0.44523758 0.0016726367 547 115
0.17602351 -0.10031735 0.44497707 0.0016165576 568 121
0.17901196 -0.10077214 0.44596359 0.0017493227 548 115
0.18119733 -0.10076931 0.44491604 0.001682131 560 119
0.18361774 -0.1008957 0.44443756 0.0017114413 532 111
0.18619259 -0.10110296 0.44431594 0.0017395718 519 107
0.18893026 -0.10139278 0.4445608 0.0016732357 542 114
0.19187418 -0.10178532 0.44526318 0.0017405943 511 105
0.19449197 -0.10199787 0.4451915 0.0018514566 495 101
0.19705075 -0.10217506 0.44498694 0.0017331759 515 106
0.20005509 -0.10257673 0.44578597 0.0018278321 469 93
0.20260453 -0.10273887 0.44557652 0.0018659635 452 89
0.20523845 -0.10293984 0.44557613 0.0019676262 450 88
0.20806397 -0.10323158 0.44601458 0.0020268855 426 81
0.21088247 -0.1035136 0.44646281 0.0021627082 390 71
0.21340117 -0.10364409 0.44631633 0.002059137 391 72
0.21583146 -0.10372934 0.44604093 0.0020985859 381 69
0.21831104 -0.10383629 0.44592947 0.0021157633 378 68
0.22076751 -0.10393018 0.44583687 0.0022411931 359 63
0.22268753 -0.10377216 0.44474342 0.0021373008 364 64
0.22519365 -0.10388771 0.44490469 0.0023056802 331 55
0.22797513 -0.10412671 0.44567782 0.0024997445 318 51
0.23201485 -0.10493007 0.44895011 0.0025617462 290 43
0.23378143 -0.10469978 0.44788536 0.0026208817 277 40
0.23549883 -0.10445209 0.44683307 0.0026288161 278 40
0.23784102 -0.10448361 0.44706061 0.0027470626 270 38
-0.26116639 -0.099375926 0.44268051 0.0037662445 182 13
-0.2591975 -0.099467725 0.4420971 0.0034098295 190 16
-0.25768006 -0.099735834 0.4423466 0.0032828432 204 20
-0.25645682 -0.10012344 0.44317558 0.0032115919 210 21
-0.25526062 -0.10052852 0.44413352 0.0033106685 214 22
-0.25384605 -0.10085396 0.44479519 0.0033994748 203 19
-0.25169408 -0.10088963 0.44424057 0.0033474108 208 21
-0.24955186 -0.10092986 0.44377276 0.0039062412 184 14
-0.24779269 -0.10112718 0.44406444 0.0032092885 208 21
-0.24494992 -0.10088182 0.44248527 0.0029097514 238 29
-0.24382252 -0.10134492 0.44408837 0.0028470592 255 34
-0.24093577 -0.10107857 0.4425723 0.00262267 280 41
-0.23894969 -0.10118861 0.44278523 0.0026336266 286 42
-0.23718742 -0.10139641 0.44350791 0.0024310506 315 50
-0.23575799 -0.10175187 0.44495994 0.0025557892 318 51
-0.23343061 -0.10172289 0.44481629 0.0022221331 348 60
-0.23026948 -0.10132647 0.44315231 0.0024941312 336 56
-0.22798987 -0.10131396 0.44325343 0.0021690957 367 65
-0.22587776 -0.10137638 0.44376835 0.0021328158 370 66
-0.22360182 -0.10136575 0.44404846 0.0021421968 375 67
-0.22118984 -0.10129265 0.44413745 0.0021479076 389 71
-0.21805117 -0.10088182 0.44282362 0.002139874 380 69
-0.21573494 -0.10084692 0.44323435 0.0020091755 434 84
-0.21336436 -0.10078562 0.44360107 0.0019281129 434 84
-0.21104206 -0.10074605 0.44413066 0.0019516286 444 86
-0.20752285 -0.10012815 0.4421683 0.0018047274 488 99
-0.20482042 -0.099895202 0.44195616 0.0018222352 525 109
-0.20220833 -0.099701688 0.4419654 0.0016427636 550 116
-0.20092207 -0.10016487 0.4449327 0.00171897 518 107
-0.19776425 -0.099694945 0.44379327 0.0017029207 519 107
-0.19505413 -0.099442616 0.4436475 0.0016164841 566 120
-0.19231728 -0.099170722 0.44343501 0.0015725651 606 131
-0.18975449 -0.098983333 0.44361559 0.0015721868 620 135
-0.18713664 -0.098762475 0.44365633 0.0015530807 604 131
-0.18384914 -0.098178789 0.44206774 0.0014769096 666 148
-0.18133166 -0.097997218 0.44228604 0.0014998885 648 143
-0.17877099 -0.097787604 0.44237357 0.001503694 651 144
-0.17613672 -0.097532079 0.44224441 0.0014948813 639 141
-0.1739351 -0.097512737 0.44317582 0.0014982909 671 150
-0.17181049 -0.097536653 0.44429329 0.0014746852 666 148
-0.16809085 -0.096644081 0.44121379 0.0014377985 700 158
-0.16446978 -0.095785834 0.43825769 0.0012153643 916 218
-0.16189241 -0.095520884 0.43798757 0.0011528472 1011 244
-0.15951391 -0.095367797 0.43820742 0.0011547239 982 236
-0.15739863 -0.095370069 0.43911925 0.0012082685 911 216
-0.15504134 -0.095223784 0.43932423 0.0012168594 902 214
-0.15252098 -0.094971903 0.43901616 0.0011700159 990 238
-0.15041208 -0.094972752 0.43985116 0.0011679835 963 231
-0.14801906 -0.094791681 0.43981859 0.0013553062 786 182
-0.14551072 -0.094530448 0.43938664 0.001541517 659 146
-0.14252642 -0.093947843 0.43743032 0.0013984002 718 163
-0.13965224 -0.093421578 0.43570349 0.0013767378 755 173
-0.13737763 -0.093286581 0.43577269 0.0012732778 834 195
-0.13514684 -0.093177661 0.43593839 0.0012558919 856 201
-0.13288727 -0.093045183 0.43596864 0.0012708973 894 212
-0.13054417 -0.092849128 0.43567562 0.001217718 901 214
-0.12846297 -0.092836022 0.43621683 0.0012303466 882 208
-0.12657738 -0.092966162 0.43740943 0.001234518 884 209
-0.12442867 -0.092904188 0.43767628 0.001272977 833 195
-0.12186277 -0.092523351 0.43641669 0.0012850997 867 204
-0.11994696 -0.092631482 0.43744072 0.0013018247 807 187
-0.11862486 -0.093209915 0.44066858 0.0013371479 777 179
-0.11669641 -0.093323991 0.44168425 0.0013797614 780 180
-0.11450156 -0.093225285 0.44167307 0.0013016616 810 188
-0.11269642 -0.093446113 0.44315675 0.0013346833 816 190
-0.11064923 -0.09347073 0.44369215 0.0012513001 853 200
-0.10852303 -0.093428291 0.44389066 0.0012607031 849 199
-0.10626955 -0.093272462 0.4435316 0.0013043332 841 197
-0.10419632 -0.093271807 0.44389242 0.0013381415 820 191
-0.10211025 -0.093259379 0.44418037 0.0012972971 808 188
-0.10011725 -0.093333207 0.44486284 0.0013099491 857 201
-0.098070711 -0.093359195 0.44530174 0.001274943 836 195
-0.095978394 -0.093341783 0.44551834 0.0012594605 882 208
-0.093818158 -0.093256086 0.44539386 0.0012430685 870 205
-0.091591321 -0.093098834 0.44491249 0.0012726528 859 202
-0.089344651 -0.092913672 0.44428307 0.0012752166 873 206
-0.087182783 -0.092810035 0.4440293 0.0012789427 878 207
-0.085300237 -0.093005925 0.44519597 0.0012894088 863 203
-0.083394378 -0.093185492 0.44627303 0.0013414839 839 196
-0.081337385 -0.093201034 0.44655305 0.001247649 883 209
-0.079302631 -0.093243539 0.44695094 0.0012455616 871 205
-0.076580591 -0.092458524 0.44336984 0.0012776051 832 194
-0.074804768 -0.092804134 0.44519892 0.0013070414 819 191
-0.072764613 -0.092832103 0.44549495 0.0012743251 837 196
-0.070805579 -0.092968233 0.44630057 0.00129523 815 190
-0.068700835 -0.09291546 0.44619021 0.0012703424 836 195
-0.066371061 -0.092545636 0.44454789 0.0013262961 839 196
-0.063720949 -0.091691226 0.44056773 0.0013775257 740 169
-0.061263677 -0.091067016 0.43768376 0.0016361966 557 118
-0.057528753 -0.088436104 0.42514384 0.0016665632 590 127
-0.055192605 -0.08784543 0.42240122 0.0014734596 661 147
-0.053263791 -0.087883517 0.42267486 0.0014041964 716 162
-0.050861973 -0.087114364 0.4190591 0.0014008812 759 174
-0.048905127 -0.087076627 0.41895518 0.0013542105 765 176
-0.046975262 -0.087085806 0.41907129 0.0013593349 769 177
-0.044950407 -0.086912103 0.418302 0.0013373395 778 179
-0.043159906 -0.087196276 0.41973156 0.0013473304 765 176
-0.041365974 -0.087499902 0.42125034 0.0013392137 766 176
-0.039664969 -0.088039756 0.42390248 0.0013222791 788 182
-0.037744362 -0.088122897 0.42435172 0.0013216247 787 182
-0.03588029 -0.088354349 0.4255113 0.001343789 783 181
-0.033958171 -0.088461377 0.42606804 0.0012636709 859 202
-0.032005034 -0.088495798 0.42627156 0.0013187479 841 197
-0.03016296 -0.08886192 0.42806965 0.0012690573 850 199
-0.028210647 -0.088931836 0.42843783 0.0012719954 848 199
-0.026254617 -0.088999651 0.42879298 0.0013299481 831 194
-0.024309611 -0.089118943 0.42939338 0.0012813271 841 197
-0.022406705 -0.089427412 0.43090278 0.0013016254 810 188
-0.020403301 -0.089355782 0.43057823 0.0012967498 809 188
-0.018404786 -0.089292444 0.43029127 0.0012732528 840 197
-0.016438404 -0.08938852 0.43077031 0.001278006 836 195
-0.014463452 -0.089457996 0.43111902 0.0012829253 822 192
-0.012460898 -0.089351706 0.43061873 0.0012800739 845 198
-0.010482607 -0.089412078 0.43091959 0.0012689567 846 198
-0.0084760021 -0.089202687 0.42991862 0.0013386989 824 192
-0.0064922525 -0.089179434 0.42981291 0.0012558668 855 201
-0.0045129587 -0.089223832 0.43003154 0.0012688974 845 198
-0.0025228991 -0.088958219 0.42875427 0.0012626785 855 201
-0.00054643053 -0.08898367 0.42887819 0.0012918619 815 190
0.0014338942 -0.089178614 0.42981747 0.0013174617 793 184
0.0034264799 -0.089467503 0.43120775 0.0013930248 777 179
0.0054049348 -0.08931075 0.43044856 0.0013086975 831 194
0.0073860809 -0.089270733 0.43025032 0.0013101135 845 198
0.009400228 -0.089562066 0.43164724 0.0012771798 837 196
0.011406421 -0.089689054 0.43225029 0.0012990045 818 190
