# .PCD v0.7 - Point Cloud Data file format
VERSION 0.7
FIELDS x y z noise intensity gray
SIZE 4 4 4 4 2 1
TYPE F F F F U U
COUNT 1 1 1 1 1 1
WIDTH 860
HEIGHT 1
VIEWPOINT 0 0 0 1 0 0 0
POINTS 860
DATA ascii
-0.15037525 0.022752484 0.39873144 0.0012314674 877 209
-0.14776967 0.022643881 0.3975645 0.0012089774 939 226
-0.14604971 0.02266993 0.39873216 0.0012089097 945 228
-0.1440991 0.022660395 0.39924788 0.0012103323 918 221
-0.14245534 0.022699501 0.40059501 0.0012206987 899 215
-0.14066885 0.022716608 0.40152922 0.0012195443 900 216
-0.13894996 0.02274525 0.40264255 0.0012487532 885 212
-0.13716501 0.022763722 0.40355161 0.0012472048 879 210
-0.13525012 0.02276084 0.40405723 0.0012763385 858 204
-0.1332766 0.022747874 0.40435883 0.0013158115 853 203
-0.13117632 0.022712583 0.4042381 0.0013237261 826 195
-0.13012183 0.022859987 0.40734771 0.0012986844 817 193
-0.12786752 0.022797851 0.40670201 0.0012463297 876 209
-0.12533273 0.02268308 0.4050912 0.0012692811 859 204
-0.12377603 0.022744521 0.40660417 0.0012872978 830 196
-0.12216438 0.022797616 0.40794852 0.0013297169 789 185
-0.12054347 0.02285064 0.40927231 0.0013924789 739 171
-0.11852812 0.022829391 0.40924597 0.0014186254 704 162
-0.11636373 0.022778274 0.40866318 0.0015151509 674 153
-0.11441906 0.022769185 0.4088144 0.0015689183 646 146
-0.11237199 0.02273907 0.40856883 0.001537225 621 139
-0.11023583 0.022689583 0.40795627 0.001545712 609 136
-0.10775195 0.022565549 0.40598381 0.0015570411 623 139
-0.10573826 0.022537321 0.40571651 0.001521326 630 141
-0.10339624 0.022436826 0.40413085 0.0015841407 604 134
-0.10143869 0.022417597 0.40399215 0.0015712719 596 132
-0.09938854 0.022376798 0.40344909 0.0015666595 627 140
-0.097292759 0.022323964 0.40267396 0.0015284362 644 145
-0.095088616 0.022243723 0.40138957 0.0015097151 638 144
-0.092767157 0.0221323 0.39952782 0.0016299417 611 136
-0.090718187 0.022082685 0.3987681 0.0015536118 633 142
-0.088718005 0.022043137 0.39817736 0.0014968476 642 145
-0.086840428 0.022033021 0.39810643 0.0015795947 638 144
-0.08489237 0.022004202 0.39768627 0.0014395601 689 158
-0.08290717 0.021964269 0.39705426 0.0014677324 667 152
-0.080873124 0.021909297 0.39613995 0.0014949831 645 145
-0.078833953 0.021850366 0.39514399 0.0014496468 689 158
-0.077121273 0.02188128 0.39576364 0.00145389 692 158
-0.075401627 0.021911668 0.39636514 0.0015166983 667 152
-0.073698148 0.02194838 0.39707306 0.0014922498 679 155
-0.071989931 0.021985512 0.39778087 0.0014938532 639 144
-0.069393471 0.021746235 0.39348006 0.0014447467 692 158
-0.0676516 0.021769112 0.39391559 0.0015706595 639 144
-0.065824039 0.021764912 0.39385477 0.0015544837 613 137
-0.063936487 0.021740081 0.39341459 0.001532824 626 140
-0.06204081 0.021710955 0.39289111 0.001561273 604 134
-0.06014248 0.02167912 0.39231351 0.001545752 614 137
-0.057556879 0.021389902 0.38707361 0.0014981945 671 153
-0.055571802 0.021312498 0.38566241 0.0015052742 662 150
-0.053749792 0.021294588 0.38532406 0.0015367125 653 148
-0.051922157 0.021273147 0.38491824 0.0013775571 744 173
-0.049903404 0.021169117 0.3830151 0.0013517826 772 180
-0.048076261 0.021141723 0.38249588 0.0013263834 784 184
-0.046275031 0.021124072 0.38215059 0.0013174458 793 186
-0.044481568 0.021108707 0.38184464 0.0014338129 715 165
-0.042726479 0.021111038 0.38185701 0.0014879557 655 148
-0.040743679 0.020996228 0.37974924 0.0014634185 670 152
-0.038693618 0.020834887 0.37679926 0.0014698042 668 152
-0.036915086 0.020811467 0.37634289 0.0014595883 671 153
-0.03478672 0.020578776 0.37210223 0.0014187894 707 163
-0.0328613 0.020448232 0.36970884 0.0014031403 753 175
-0.031101994 0.020412423 0.36902851 0.0014122585 751 175
-0.029533653 0.020505056 0.37067047 0.0013825109 743 172
-0.027875531 0.020542907 0.37132242 0.0014967229 696 159
-0.026274975 0.020630911 0.37288141 0.0016321808 614 137
-0.025148412 0.021129493 0.38186121 0.0015275943 652 147
-0.023325646 0.021074178 0.3808313 0.0012986687 816 193
-0.02152204 0.021028571 0.3799783 0.0012952972 872 208
-0.019803362 0.021065217 0.38061312 0.0012749681 847 201
-0.018059857 0.021080015 0.38085493 0.0012824817 840 199
-0.016281066 0.021052379 0.3803319 0.0012958907 811 191
-0.014507335 0.021025389 0.3798227 0.0012713319 845 201
-0.012717113 0.020963805 0.37869075 0.0013106932 803 189
-0.010958496 0.020942997 0.37829769 0.0013820152 783 183
-0.0092153084 0.020949373 0.378398 0.0014685204 708 163
-0.007439232 0.020866487 0.37688857 0.0013908884 732 169
-0.0056875357 0.020822257 0.37607986 0.0014141644 717 165
-0.0039379536 0.020750305 0.37477306 0.0014221476 743 172
-0.0022014228 0.020688262 0.37364787 0.0014122739 711 164
-0.00047591867 0.02065582 0.37305993 0.0014256428 712 164
0.0012436798 0.020615153 0.37232602 0.0013819869 741 172
0.0029526553 0.020547748 0.37111181 0.0013432588 778 182
0.0046715252 0.020573413 0.37158117 0.0013343513 779 182
0.006415565 0.020666372 0.3732684 0.0014064868 761 177
0.0082741259 0.021010781 0.37950003 0.0015528111 610 136
0.010443383 0.021885961 0.39532176 0.0017390345 513 109
0.012254544 0.021861974 0.39490512 0.0015126733 677 154
0.014003417 0.021747462 0.39285553 0.0014326568 741 172
0.01584515 0.021786887 0.39358887 0.0014770461 691 158
0.017646946 0.021768937 0.39328799 0.0014034096 719 166
0.019432412 0.021736067 0.39271945 0.0014513277 721 166
0.02105774 0.021544961 0.38929364 0.0014045634 768 179
0.022809878 0.021503447 0.38857216 0.0013320951 785 184
0.024565114 0.021470685 0.38801017 0.0013780124 754 175
0.026248841 0.021384118 0.38647702 0.0014044306 755 176
0.027977111 0.021342542 0.38575792 0.0013602827 751 175
0.029737022 0.021328637 0.38553977 0.0013790188 735 170
0.031538505 0.021344433 0.38585907 0.0014325349 714 164
0.033354431 0.02136779 0.38631564 0.0014667055 714 164
0.035071347 0.02132857 0.38564098 0.0013884287 744 173
0.036826037 0.021314999 0.38542977 0.0014134113 712 164
0.03857787 0.021301096 0.38521221 0.0013892537 721 166
0.040369492 0.021309426 0.385396 0.0013701586 741 172
0.042270944 0.021372579 0.38657042 0.0014149986 707 163
0.044108376 0.021399567 0.38708961 0.00151997 670 152
0.045781802 0.021347979 0.38618582 0.0014698599 701 161
0.047404435 0.021277456 0.38493744 0.0014315647 694 159
0.049182765 0.021279383 0.3849974 0.0014602547 670 152
0.050974429 0.021286745 0.38515311 0.0014167528 702 161
0.052901655 0.021348312 0.38628674 0.0013579436 764 178
0.05461273 0.021321489 0.38581765 0.0014067128 750 174
0.056305163 0.021289306 0.38524786 0.0013808622 753 175
0.057999231 0.02125969 0.38472047 0.0013349999 778 182
0.059788864 0.021265822 0.38483563 0.0013799652 762 178
0.061528049 0.021254173 0.38462406 0.0013281174 810 191
0.063347504 0.021270126 0.38490692 0.0012899241 845 201
0.065116704 0.021268798 0.38487127 0.001346738 768 179
0.066925354 0.021280088 0.38505796 0.0014187902 761 177
0.068526357 0.021226468 0.38406372 0.001298024 820 194
0.070084713 0.021162676 0.38287872 0.0012937372 868 207
0.071937799 0.021188822 0.38331372 0.0012921346 825 195
0.073662244 0.021176739 0.38304934 0.0012616994 871 208
0.075221516 0.021118842 0.38194844 0.0012722596 877 209
0.07690648 0.021098077 0.38151059 0.001264398 865 206
0.078485161 0.021049738 0.38056535 0.0012427721 879 210
0.080222011 0.021045003 0.38039926 0.0012408906 886 212
0.081896678 0.021024508 0.37993839 0.0012284616 891 213
0.083795883 0.021061309 0.38050252 0.0011941828 937 226
0.085394032 0.021022486 0.37968951 0.0012570488 873 208
0.086921878 0.020968262 0.37858766 0.0012641588 907 218
0.088818811 0.021003457 0.37908846 0.0012580482 864 206
0.090455636 0.020976972 0.37846383 0.0012413936 924 222
0.091954865 0.020920189 0.37728035 0.0011802521 954 231
0.093589708 0.020895796 0.37666836 0.0011629357 976 237
0.095390886 0.020908754 0.37671608 0.0012087355 957 231
0.097102411 0.02090195 0.37639347 0.0012467303 929 224
0.098715588 0.020874588 0.37568626 0.0012316094 910 218
0.10040013 0.020863 0.37524813 0.0012127361 909 218
0.10221101 0.02087762 0.3752656 0.0012921377 844 200
0.1045842 0.021004681 0.37728602 0.0013524969 762 178
0.1064425 0.021025846 0.37738559 0.0014921289 660 150
0.10884613 0.021152308 0.37935558 0.0016913878 564 123
0.11104981 0.021236492 0.38054615 0.0016121122 589 130
0.1134863 0.021361863 0.38245279 0.0016711217 590 130
0.11675254 0.021637131 0.38701713 0.0016909945 535 115
0.11971974 0.021849444 0.39042687 0.0017017304 548 119
0.1224205 0.022007499 0.39283937 0.0018519835 463 95
0.12865794 0.022787284 0.40631002 0.0020914893 387 74
0.13060956 0.022796338 0.40599957 0.0017434437 529 114
0.13131687 0.022591066 0.40185288 0.0013346475 770 180
0.13351581 0.022644579 0.40228888 0.001307623 818 193
0.13693324 0.022900386 0.4062871 0.001415159 705 162
0.13967179 0.02303718 0.40813914 0.0015335502 652 147
0.1421122 0.023121756 0.40903476 0.0014578433 696 159
0.14430812 0.023164824 0.40916654 0.0014161766 708 163
0.14642951 0.023194946 0.40904105 0.0013994806 716 165
0.1486191 0.023234947 0.40906069 0.0015087413 685 156
0.15061943 0.023244711 0.40851936 0.0014865201 686 157
0.15262188 0.023254547 0.40795133 0.0014773699 694 159
0.1548218 0.023293847 0.4078711 0.001467813 703 161
0.1570428 0.023335308 0.40779862 0.0013903248 729 169
0.15972222 0.023443041 0.40885189 0.0014676765 699 160
0.16193949 0.023481149 0.40865871 0.0013809035 744 173
0.16436346 0.023547966 0.4089348 0.0014304011 698 160
0.16670687 0.023601798 0.40895513 0.0014505938 687 157
0.16900513 0.023648061 0.40881571 0.0014418819 682 156
0.17096993 0.023647133 0.40783525 0.0014095473 709 163
0.17355159 0.02373057 0.40828466 0.0015363193 667 152
0.1762239 0.023824386 0.40888527 0.0014700342 663 150
0.17865439 0.02388378 0.40887126 0.0015324334 621 139
0.18130007 0.023970317 0.40930095 0.0015640149 597 132
0.18371074 0.024024231 0.4091562 0.0015219563 627 140
0.18614313 0.024079794 0.40902734 0.0015302456 623 139
0.18850897 0.024125656 0.40872627 0.0015791612 595 132
0.19156601 0.024258075 0.40988576 0.0016933101 575 126
0.19404556 0.024315359 0.4097749 0.0016614621 545 118
0.19664448 0.02438627 0.40990177 0.0016500683 553 120
0.19872332 0.02439189 0.40894839 0.0016377671 557 121
0.20114015 0.024438459 0.40870672 0.0017753443 510 108
0.2035642 0.024484968 0.40849495 0.001784281 496 104
0.20566264 0.024491772 0.40766084 0.0018228256 473 98
0.20824271 0.02455524 0.40781701 0.0018950445 470 97
0.21099961 0.024638114 0.40834755 0.0019551634 445 90
0.21343723 0.024682473 0.40829974 0.0020198622 439 89
0.21508591 0.024635619 0.40681413 0.002067317 412 81
-0.24589097 0.027015753 0.41078779 0.0032120093 218 28
-0.24340081 0.026970193 0.40960816 0.0030909043 233 32
-0.24139677 0.026978176 0.40932313 0.0030068767 227 30
-0.23963022 0.027013067 0.40952975 0.0028921785 241 34
-0.23790964 0.027053796 0.40991101 0.0028761392 245 35
-0.23530547 0.026993874 0.40885687 0.0026889311 267 41
-0.23411891 0.027096963 0.41036332 0.0025638274 290 48
-0.23270153 0.027174957 0.41158292 0.0025415567 299 50
-0.22971649 0.027069628 0.41012022 0.0023927756 329 58
-0.22737561 0.027038969 0.40988225 0.0023838058 324 57
-0.22471017 0.026968796 0.4091377 0.0023996946 335 60
-0.22188832 0.026878372 0.4081752 0.0021896458 356 66
-0.22040607 0.026950037 0.40976277 0.0020642637 391 76
-0.21898794 0.027030982 0.41157988 0.0021106226 393 76
-0.21659745 0.02699231 0.41165739 0.0020150761 403 79
-0.21390234 0.02691455 0.41121131 0.0020710467 418 83
-0.21003382 0.026686182 0.40852433 0.0019909991 433 87
-0.20869884 0.026778394 0.41080296 0.0018425063 465 96
-0.20590122 0.026682891 0.41025662 0.0017959665 479 100
-0.2035135 0.026639119 0.41054827 0.0018150384 471 98
-0.20115808 0.026598733 0.41092888 0.0018887643 483 101
-0.19830334 0.026490811 0.41029277 0.0018403649 513 109
-0.19556403 0.026396228 0.40988046 0.001792911 488 102
-0.19311884 0.026339769 0.41007224 0.0017896028 511 109
-0.19086684 0.026308749 0.41066825 0.0017740693 525 112
-0.18807812 0.026202288 0.41008684 0.0016680891 568 124
-0.18585208 0.026172757 0.41070434 0.001659087 582 128
-0.18296143 0.026047962 0.40981609 0.0015495307 603 134
-0.1809538 0.026047509 0.41087046 0.0015568017 608 135
-0.1786927 0.02601015 0.41132882 0.0015161164 641 144
-0.17586388 0.02588837 0.41043019 0.0015599765 615 137
-0.17180195 0.025580207 0.40654159 0.0016756955 576 126
-0.16714071 0.025174623 0.40105689 0.0016740207 563 123
-0.16302109 0.024842061 0.39668578 0.0014490435 682 156
-0.1605102 0.024749668 0.39611092 0.0014266608 691 158
-0.15848948 0.024731543 0.39669651 0.0013574843 811 191
-0.15572332 0.024595244 0.39535612 0.0012181062 904 217
-0.15342313 0.024530087 0.39512676 0.0011625495 994 242
-0.15195897 0.024598645 0.39702526 0.0012192472 911 219
-0.15017912 0.024617184 0.39809269 0.001227456 890 213
-0.14835747 0.024629258 0.39902982 0.0012048153 921 221
-0.14638136 0.024615666 0.39952445 0.0012618111 908 218
-0.14422788 0.024571506 0.39949456 0.001220746 903 216
-0.14207903 0.024526969 0.39942968 0.0012780973 883 211
-0.14071009 0.024617679 0.40154243 0.0012170045 905 217
-0.13897234 0.024645466 0.40260586 0.0012603023 892 213
-0.13716567 0.024661621 0.40345478 0.0012462401 874 209
-0.13520107 0.024649443 0.40381506 0.0013200708 843 200
-0.13306691 0.024605565 0.40363011 0.0013133719 849 202
-0.13172224 0.024708509 0.40583062 0.0013001136 846 201
-0.12975226 0.02469546 0.406104 0.0012704903 843 200
-0.12786363 0.024697732 0.40660578 0.0012363202 886 212
-0.12557639 0.024621915 0.40579808 0.0012402744 881 210
-0.12368047 0.024621682 0.40621254 0.0012650717 847 201
-0.12205899 0.024676923 0.40752161 0.0013576939 796 187
-0.12032934 0.024711695 0.40847316 0.0013544345 754 175
-0.11819587 0.024663324 0.40802968 0.0013740896 744 173
-0.11653382 0.024713345 0.40919417 0.0014086806 727 168
-0.11461006 0.024708604 0.40943322 0.0014537042 668 152
-0.11250602 0.024664182 0.40899545 0.0014896441 649 147
-0.11029398 0.024594152 0.40811366 0.0015587164 608 135
-0.10834166 0.024580603 0.40815064 0.001526754 631 142
-0.10596241 0.024467994 0.4065246 0.0016083646 611 136
-0.1039321 0.024433333 0.40617606 0.0015891645 615 137
-0.10183364 0.024381088 0.40551856 0.0015702624 604 134
-0.09964373 0.024304569 0.40444124 0.0016189106 594 131
-0.097339973 0.024196824 0.4028284 0.001569645 596 132
-0.095222972 0.024132207 0.40191823 0.0015889927 595 132
-0.093306608 0.024116876 0.40181515 0.0015787091 589 130
-0.090699457 0.023918755 0.39865252 0.0015068096 672 153
-0.088794857 0.023901535 0.39849159 0.0015307551 625 140
-0.086887062 0.023882708 0.39829192 0.0015620303 600 133
-0.084836312 0.023822924 0.39739764 0.0015184638 628 141
-0.082911417 0.023796622 0.39705089 0.0015268908 659 149
-0.080923431 0.023750614 0.39636499 0.0015085003 650 147
-0.078865439 0.023681458 0.39528275 0.0014150642 707 163
-0.076958455 0.02365545 0.39491114 0.0015247436 666 151
-0.075298332 0.0237059 0.3958075 0.0015164717 640 144
-0.073341876 0.023663243 0.39514092 0.0015235 663 150
-0.071118087 0.023529965 0.39295304 0.0014796415 660 150
-0.069269784 0.023517204 0.39277029 0.0014758583 663 150
-0.067422397 0.023504071 0.39257449 0.0015769635 628 141
-0.065520324 0.023470633 0.39203304 0.001544318 620 139
-0.063620508 0.023436127 0.39146769 0.0015336531 624 140
-0.061633226 0.023366444 0.39030921 0.0015609837 608 135
-0.059469186 0.023223553 0.3879227 0.0015503987 623 139
-0.057431988 0.023122869 0.38623652 0.0015253775 638 144
-0.055533808 0.023073511 0.38540334 0.0014815253 678 155
-0.053682685 0.023041086 0.38484919 0.0015032596 656 148
-0.051834658 0.023007825 0.38427746 0.0014982059 709 163
-0.049975041 0.022966886 0.38357449 0.0014055723 755 176
-0.048045874 0.022889808 0.38226518 0.0013478481 783 183
-0.046286199 0.022890681 0.38225529 0.0012720178 840 199
-0.044496071 0.022875972 0.3819831 0.0013566971 791 186
-0.042630915 0.022819888 0.38101828 0.0013541842 764 178
-0.040860642 0.022811957 0.38085601 0.0013476877 765 178
-0.039067045 0.022789707 0.38045365 0.0014068476 719 166
-0.037170064 0.022702223 0.3789615 0.0014816272 654 148
-0.035461821 0.02272707 0.37934399 0.0015143495 632 142
-0.033048227 0.022278991 0.37183297 0.0015067718 697 160
-0.0313945 0.022322161 0.37252146 0.00136994 747 174
-0.029732833 0.022364357 0.37319365 0.0014440261 719 166
-0.028033739 0.022381857 0.37345418 0.0015096863 648 146
-0.02688784 0.022872221 0.3816047 0.0015341045 622 139
-0.02515818 0.022899924 0.3820363 0.0014177716 752 175
-0.02330677 0.022812631 0.38055059 0.0012727899 843 200
-0.021546165 0.022807235 0.38043249 0.0012361618 889 213
-0.019808713 0.022827566 0.38074496 0.0012624448 871 208
-0.018056955 0.022833765 0.3808234 0.0012997214 812 191
-0.016290905 0.022821272 0.38059199 0.0013112976 801 188
-0.014500483 0.022767494 0.37967399 0.0012860388 826 195
-0.012714457 0.02270679 0.37864274 0.0013047989 814 192
-0.010948828 0.022668973 0.37799534 0.0013335822 782 183
-0.0092027932 0.022665078 0.37791598 0.0013824366 740 172
-0.0074402615 0.02260923 0.37697273 0.0014012279 728 168
-0.0056949835 0.022587724 0.37660459 0.0014411339 710 163
-0.0039525754 0.022563701 0.37619698 0.0013921035 724 167
-0.0022041001 0.022440279 0.37413463 0.0014254913 724 167
-0.00047596774 0.022380179 0.37313062 0.0013984872 721 166
0.001246147 0.022378119 0.37309685 0.0014134117 731 169
0.0029728475 0.022413019 0.37368187 0.0014830687 683 156
0.0047201463 0.022520576 0.37548074 0.0014837355 664 151
0.0064573935 0.022535281 0.37573418 0.0014214368 702 161
0.0083827209 0.023061173 0.38451338 0.0016635831 593 131
0.01048485 0.023804715 0.39692473 0.0017300057 521 111
0.012230841 0.02363877 0.39417389 0.0014880754 672 153
0.014034373 0.023612607 0.39375606 0.0013557903 765 178
0.015861865 0.023628132 0.3940357 0.0013829039 736 171
0.017716842 0.023677196 0.39487675 0.0014280623 734 170
0.019488798 0.023616508 0.39388943 0.0014172858 707 163
0.021247655 0.02355165 0.39283422 0.0014609309 684 156
0.023023076 0.023513908 0.39223278 0.0014338297 691 158
0.024849376 0.023529841 0.39252821 0.0015278169 649 147
0.026383542 0.023285773 0.38848713 0.0015093626 659 149
0.028088404 0.023213824 0.38731831 0.0014978423 682 156
0.029908361 0.023239914 0.38778597 0.0014702819 676 154
0.031611603 0.023177484 0.38677707 0.0014063421 730 169
0.033356994 0.023150977 0.38636789 0.001420892 707 163
0.035211392 0.023198977 0.38720229 0.0014105431 708 163
0.036899079 0.023137806 0.38621446 0.0013850437 732 169
0.038680259 0.023138195 0.3862536 0.0014281861 718 166
0.040483683 0.023151269 0.38650373 0.0014536813 670 152
0.042289458 0.023164527 0.38675612 0.0014345439 700 161
0.044200506 0.023232048 0.38791308 0.0014742225 669 152
0.04592701 0.023201091 0.3874242 0.0014738862 667 152
0.047639005 0.023165395 0.38685414 0.0014432056 692 158
0.049427394 0.023168085 0.38692275 0.0013971849 719 166
0.051166169 0.023148136 0.38661066 0.0014060646 710 163
0.053068124 0.023200875 0.38750955 0.0014215284 765 178
0.054757606 0.023160316 0.38684672 0.0013514687 767 179
0.056492187 0.023140781 0.38653138 0.0013134243 798 188
0.058529865 0.023242805 0.38824239 0.0013405404 777 182
0.059863534 0.023067502 0.38531652 0.0012948677 830 196
0.061631132 0.023064686 0.38526696 0.0012541972 867 207
0.063378625 0.023054713 0.38509253 0.0013146288 840 199
0.065186828 0.023066767 0.38528046 0.0012948377 827 196
0.066958122 0.023065472 0.38523924 0.0012993844 810 191
0.068598434 0.023020284 0.3844586 0.0012897587 828 196
0.070211791 0.022968551 0.38356179 0.0012783072 831 197
0.071885377 0.022938583 0.3830213 0.001263364 854 203
0.073591813 0.022920281 0.38266796 0.0013509636 802 189
0.075421609 0.022940356 0.38294709 0.0012611478 868 207
0.077114224 0.022918742 0.38252172 0.0012935435 853 203
0.07873705 0.022877822 0.38176522 0.001265165 862 205
0.080341168 0.022833366 0.38094059 0.0012280723 888 212
0.08229892 0.022889171 0.38177857 0.0012147035 917 220
0.083603442 0.022764765 0.37960061 0.001225749 895 214
0.085275747 0.022743559 0.37913328 0.001214277 919 221
0.087044559 0.022748424 0.37908939 0.0012411461 904 217
0.08867535 0.022717739 0.37844133 0.0012538531 861 205
0.090672605 0.02278031 0.37933427 0.0012569133 902 216
0.092147961 0.022711873 0.37803292 0.0012103353 921 221
0.093816325 0.022692671 0.37753847 0.0012274496 894 214
0.095518865 0.022682285 0.37717715 0.0012648741 906 217
0.09715014 0.022655651 0.37653169 0.0012156196 963 233
0.098800026 0.022634221 0.37595838 0.0011988138 932 224
0.10057401 0.022641469 0.37584621 0.0012277061 915 220
0.10257704 0.022699161 0.37655497 0.0013123639 814 192
0.10429289 0.022692431 0.37617809 0.0012999462 816 193
0.10670482 0.022834886 0.37825572 0.0014045677 739 171
0.10906401 0.02296162 0.38005194 0.0016065316 581 128
0.11163226 0.023127625 0.38247606 0.001877307 482 101
0.11585025 0.023624845 0.39034918 0.001982193 446 91
0.11793892 0.023679186 0.39087653 0.001798537 485 101
0.12014605 0.023755297 0.39174086 0.0017898738 483 101
0.12256614 0.023870602 0.39322728 0.0020247325 442 90
0.12840335 0.024638187 0.40542102 0.0020476424 401 78
0.12976308 0.024536781 0.40328071 0.0016294864 569 125
0.13135579 0.024481712 0.40188161 0.0014510963 689 158
0.13345152 0.024520624 0.40200177 0.0014306308 707 163
0.13800049 0.025002932 0.40935528 0.0015533925 646 146
0.13984661 0.024989003 0.40854874 0.0014651448 687 157
0.14200023 0.025029654 0.40860796 0.0013816 744 173
0.14419296 0.025076024 0.40873232 0.0013993884 719 166
0.14632954 0.025111526 0.40865088 0.0014491176 727 168
0.14852096 0.025155393 0.40867653 0.0015221541 664 151
0.15042594 0.025150243 0.40787762 0.0014105667 705 162
0.15267345 0.025201766 0.40796918 0.0014491511 696 159
0.15495887 0.025258172 0.40810922 0.0014142485 737 171
0.15762402 0.025374312 0.40918157 0.0014133474 723 167
0.15996289 0.025435725 0.40933859 0.0014462724 718 166
0.16190428 0.025433214 0.40843812 0.0014086047 720 166
0.16430978 0.025502801 0.40866682 0.0013809443 731 169
0.16717751 0.025641641 0.40997243 0.0014056016 713 164
0.16930644 0.025665248 0.4094052 0.0014587465 674 153
0.17150198 0.025698291 0.40896326 0.0014099795 705 162
0.17390317 0.025761042 0.40896887 0.0014282203 697 160
0.17619549 0.025806436 0.40867528 0.0015241208 665 151
0.17847812 0.025849417 0.40832296 0.0014611579 672 153
0.18079601 0.025896493 0.40801764 0.0015640667 627 140
0.18360551 0.026012195 0.40877625 0.0015558174 627 140
0.18622464 0.026098724 0.40906128 0.0016711103 594 131
0.18861713 0.026151979 0.40881681 0.0015581148 600 133
0.19083764 0.026180517 0.4081853 0.0015587765 607 135
0.19389236 0.026321709 0.40931162 0.0016602994 577 127
0.19597614 0.02632953 0.40837252 0.0016467664 554 120
0.19889365 0.026448062 0.40916666 0.0017198717 531 114
0.20165211 0.026543254 0.40961963 0.0017955955 480 100
0.2040147 0.026584955 0.40927756 0.0017300224 508 108
0.2061677 0.026598787 0.40854761 0.0017790468 490 103
0.20869677 0.026660386 0.40859929 0.0019416953 467 96
0.2115965 0.026767675 0.40940389 0.0018516069 460 95
0.21344191 0.02674081 0.40821922 0.0018858318 448 91
0.21531704 0.026718142 0.40717155 0.0021364102 406 80
-0.24762163 0.02929949 0.41374019 0.0031923987 212 26
-0.24330612 0.029034337 0.40950078 0.0029654359 243 35
-0.24135128 0.029048758 0.40928888 0.0032907722 232 32
-0.24024314 0.029166218 0.41061062 0.0028534408 240 34
-0.23787504 0.029131435 0.40987462 0.003216177 244 35
-0.23545046 0.02908906 0.40912154 0.0028714749 263 40
-0.23362775 0.029120946 0.40950403 0.0027617149 283 46
-0.23178743 0.029151196 0.40995651 0.0026654724 292 48
-0.22952968 0.029129017 0.40976542 0.0024932243 300 50
-0.22723347 0.029101506 0.40959302 0.0024230573 314 54
-0.22505127 0.029088223 0.40971389 0.0023519467 320 56
-0.22220904 0.028988589 0.40870872 0.0023022315 331 59
-0.21998669 0.028968707 0.40891507 0.0021523596 371 70
-0.21837883 0.029030133 0.41035557 0.0022093181 360 67
-0.2165492 0.029062977 0.41147512 0.0022637493 380 72
-0.2139886 0.028997406 0.41127649 0.0020605116 415 82
-0.21018979 0.028761117 0.40871817 0.0019168685 437 88
-0.20800918 0.028743776 0.409327 0.0018399215 465 96
-0.20520021 0.028638395 0.40873381 0.0018384645 468 97
-0.20322886 0.028648963 0.40984076 0.0018506444 487 102
-0.20126756 0.028661184 0.41101271 0.0018324266 480 100
-0.1986675 0.028581755 0.4109014 0.0017978727 483 101
-0.19542898 0.028407872 0.40944883 0.0017860789 495 104
-0.19308794 0.028362164 0.40985459 0.0017546944 504 107
-0.19092298 0.028341627 0.41063422 0.0017735888 525 112
-0.18859808 0.028296651 0.41106379 0.0016724489 574 126
-0.18599571 0.028208621 0.41086403 0.0016459089 561 122
-0.18360806 0.028151583 0.41110629 0.0016220654 559 122
-0.18089746 0.028043216 0.41058472 0.0016324479 601 133
-0.1782362 0.027940156 0.41012111 0.0016003941 622 139
-0.17469546 0.027695332 0.40754867 0.001536062 622 139
-0.17114152 0.027442781 0.40482652 0.0016160869 578 127
-0.16663399 0.027029697 0.3996926 0.0016619707 583 128
-0.16227351 0.026631055 0.39472231 0.0013760547 745 173
-0.16043252 0.026641335 0.39577684 0.0013685013 740 172
-0.15816149 0.026579598 0.3957358 0.0012802974 850 202
-0.1558162 0.026503725 0.39545494 0.0011781213 954 231
-0.15346003 0.026424112 0.39508796 0.0011635307 972 235
-0.15160911 0.026430599 0.39597991 0.001213263 973 236
-0.15009262 0.026496286 0.39773473 0.001237918 920 221
-0.14854203 0.026557559 0.39940017 0.0012218601 898 215
-0.14664245 0.026557211 0.40011412 0.0012381106 894 214
-0.14435934 0.026486482 0.39973912 0.0012374383 902 216
-0.14232036 0.026459267 0.39999187 0.0012749517 888 212
-0.14070331 0.026510814 0.40140975 0.0012388775 872 208
-0.13910499 0.026567347 0.40287971 0.0012440233 875 209
-0.13706076 0.0265391 0.40303913 0.0012432375 879 210
-0.13513517 0.026533358 0.40351442 0.0012259898 905 217
-0.13316712 0.026518997 0.40383345 0.0013058342 854 203
-0.13111243 0.026486717 0.40385449 0.0012558984 858 204
-0.12960723 0.026566125 0.4055557 0.0012658519 864 206
-0.12765794 0.026555512 0.4058606 0.0012318838 880 210
-0.12582275 0.026568679 0.4065063 0.0012545622 855 203
-0.12394756 0.026573665 0.40700498 0.0013120316 837 198
-0.12205224 0.026574427 0.40741751 0.0012846295 826 195
-0.12018966 0.026582444 0.40792048 0.0013322119 779 182
-0.11839738 0.026606526 0.4086498 0.0013957293 760 177
-0.11637024 0.026577758 0.40854752 0.0013968095 758 177
-0.11477193 0.026647594 0.40994209 0.0014831936 703 161
-0.11265698 0.026597815 0.40947801 0.0015092492 668 152
-0.11051675 0.026540251 0.40887487 0.0015030148 650 147
-0.10843079 0.026493942 0.4084264 0.0015473238 606 135
-0.10641437 0.026463278 0.40820149 0.001558051 600 133
-0.10432752 0.026413674 0.40766734 0.0015922555 581 128
-0.1022611 0.026367513 0.40716961 0.0015557767 608 135
-0.099964246 0.026259083 0.40569404 0.0016031829 592 131
-0.097782686 0.026177371 0.40461525 0.0016194533 568 124
-0.095684856 0.026115319 0.4038254 0.0016784294 549 119
-0.093726799 0.026089715 0.40358508 0.0016232462 569 125
-0.091720209 0.026049282 0.40310207 0.0016037101 575 126
-0.089130789 0.025838219 0.39996511 0.0015443233 620 139
-0.087129176 0.02579223 0.39937031 0.0015368589 625 140
-0.085115775 0.025740692 0.39867789 0.0015928369 617 138
-0.082938634 0.025636265 0.39715499 0.0015515443 627 140
-0.080985509 0.025597924 0.39664525 0.001577017 639 144
-0.078833371 0.025493454 0.39510071 0.0014701055 660 150
-0.077024072 0.025497535 0.39522898 0.0015297842 631 142
-0.075217955 0.025502896 0.39536831 0.0016438791 597 132
-0.07325381 0.025453607 0.39465207 0.0015883347 588 130
-0.071187407 0.025365375 0.39332402 0.0015452652 618 138
-0.069143318 0.025280692 0.39204338 0.001497226 641 144
-0.067045256 0.025171196 0.39037094 0.0014814131 680 155
-0.065229237 0.025164476 0.39028576 0.0015835634 621 139
-0.063340485 0.025128523 0.38974112 0.0015231736 634 142
-0.061203931 0.02498929 0.38758913 0.0015124348 638 144
-0.059308596 0.024943143 0.3868756 0.0015047936 646 146
-0.057482909 0.02492433 0.38658136 0.0015894828 647 146
-0.055582643 0.024870945 0.38574654 0.0014586439 688 157
-0.053533543 0.024745237 0.38378602 0.0014505726 675 154
-0.051787056 0.024755599 0.38393244 0.0014627383 665 151
-0.050067324 0.024779938 0.38429233 0.0014947978 648 146
-0.048264015 0.024763178 0.38401195 0.001485651 698 160
-0.046397991 0.024711741 0.38319135 0.0014416928 723 167
-0.044607267 0.024697922 0.382952 0.001379339 745 173
-0.042755663 0.024647871 0.38214904 0.0013494609 805 190
-0.04090425 0.024593629 0.38127974 0.0013483388 767 179
-0.039126113 0.024580557 0.38104749 0.0013810848 764 178
-0.037330519 0.024554776 0.38061741 0.0013668137 749 174
-0.035603303 0.024573643 0.38087872 0.001424309 704 162
-0.033825289 0.02455759 0.38059843 0.001576121 646 146
-0.03152043 0.024136353 0.37403899 0.001539054 652 147
-0.029849224 0.02417965 0.37467903 0.001545448 667 152
-0.028246164 0.024286861 0.37630963 0.0015523818 631 142
-0.027000172 0.024735224 0.3832261 0.0014817931 687 157
-0.025152156 0.024656245 0.38197282 0.0013495858 796 187
-0.023350412 0.02461414 0.38129207 0.0013301487 836 198
-0.021564808 0.024583584 0.38079134 0.001290755 831 197
-0.019791732 0.024563145 0.380449 0.0012969967 883 211
-0.018015957 0.02453506 0.3799898 0.0013195872 798 188
-0.016286651 0.024571024 0.38052434 0.0013613689 791 186
-0.014553597 0.024609344 0.38109723 0.0013613475 755 176
-0.012695788 0.02441825 0.37811953 0.0012750346 845 201
-0.010947117 0.024409605 0.37796938 0.0013071049 837 198
-0.0091777993 0.024342936 0.37692297 0.0012921714 826 195
-0.0074424525 0.024356253 0.37711748 0.0013171607 795 187
-0.0057001128 0.024347831 0.37697774 0.0013961857 733 170
-0.0039553232 0.024316948 0.37649268 0.0014562702 722 167
-0.0021986659 0.024107547 0.3732461 0.0014061659 717 165
-0.00047680264 0.024144685 0.3738192 0.0015300917 641 144
0.0012454154 0.02408604 0.37291175 0.0014636406 676 154
0.0029696522 0.024111835 0.3733142 0.0014676668 707 163
0.0047216262 0.024261208 0.37563241 0.0014832491 694 159
0.0064952215 0.024411615 0.37796921 0.0014608689 675 154
0.0083714454 0.024802398 0.38403037 0.0015667884 601 133
0.010457044 0.025568582 0.39590701 0.0016816864 544 118
0.012321861 0.025647305 0.39714184 0.0014093884 710 163
0.014056355 0.025469506 0.39440665 0.001403701 740 172
0.015919084 0.025538191 0.39549044 0.0013671976 751 175
0.017795185 0.025611991 0.39665574 0.0013976839 724 167
0.019591907 0.025568437 0.39600542 0.001438439 685 156
0.021313323 0.025442416 0.39407939 0.0015078081 658 149
0.023101838 0.025410011 0.39360484 0.0015121623 633 142
0.024916146 0.025408627 0.39361227 0.0014682175 672 153
0.02673832 0.025414905 0.39373952 0.0015817698 638 144
0.028481184 0.025349803 0.3927618 0.0015497692 649 147
0.0301296 0.025213443 0.39068061 0.001425867 706 162
0.0318476 0.025147418 0.38968953 0.0014584715 688 157
0.033423565 0.024982281 0.38716257 0.0014727695 661 150
0.035251219 0.025012475 0.38766265 0.0014552296 674 153
0.037212741 0.025130155 0.38951865 0.0015045486 690 158
0.038963243 0.02510106 0.38909918 0.0014733707 688 157
0.040837973 0.025151033 0.38990471 0.0015220182 683 156
0.042567104 0.025110902 0.38931224 0.001502224 681 155
0.044267029 0.025057485 0.38851231 0.0015362583 670 152
0.046098959 0.02508004 0.38888863 0.0014751854 710 163
0.047878776 0.025073618 0.3888135 0.0014464601 683 156
0.049703501 0.025090322 0.38909465 0.0014742467 679 155
0.051534988 0.025109161 0.38940629 0.0013670811 744 173
0.053005368 0.024956709 0.38705832 0.0013868078 740 172
0.054988082 0.025047563 0.38848031 0.00133677 774 181
0.056807868 0.025060805 0.38869473 0.0013248315 784 184
0.058481444 0.025010707 0.38792273 0.0013160924 806 190
0.06007795 0.0249316 0.38669625 0.0013205488 795 187
0.061699372 0.024867093 0.38569117 0.001319015 842 200
0.063473575 0.02486605 0.38566518 0.001267268 851 202
0.065225922 0.024856731 0.38550517 0.0012397429 898 215
0.066953301 0.024838647 0.38520306 0.0012454018 898 215
0.06860745 0.024795027 0.38449851 0.0013282641 830 196
0.070215359 0.024737315 0.38356861 0.0013117583 832 197
0.07183516 0.024686528 0.38273889 0.0012742955 846 201
0.073541045 0.024667043 0.38238683 0.0013235132 834 197
0.075139143 0.024613166 0.38149357 0.001259711 851 202
0.077005625 0.024647651 0.38196141 0.0012786217 840 199
0.078662962 0.024615159 0.38138202 0.0012395375 879 210
0.08049611 0.024637891 0.38164893 0.0012511013 870 207
0.082111888 0.024594549 0.38088229 0.0012413317 909 218
0.083708361 0.024547357 0.38004604 0.0012102914 913 219
0.085333377 0.024510307 0.37935615 0.0012014462 930 224
0.086966798 0.024477107 0.37871489 0.001183008 969 235
0.088668272 0.024463993 0.37837282 0.0012281345 908 218
0.090443984 0.024471471 0.37833697 0.0012587451 897 215
0.092399813 0.024526479 0.37902263 0.0012459925 875 209
0.094197258 0.024538178 0.37902525 0.0013366436 802 189
0.095708042 0.024476139 0.37787545 0.0012364907 884 211
0.097258605 0.024426321 0.37690088 0.0012279125 901 216
0.09905754 0.024439536 0.37688443 0.0012133564 911 219
0.10088944 0.02446028 0.37696835 0.0012175213 909 218
0.1026535 0.024464158 0.37677631 0.0012920174 824 195
0.10452968 0.024494173 0.3769699 0.0012892399 827 196
0.10659327 0.024566395 0.37779504 0.0014014775 773 181
0.10907369 0.02473079 0.38001719 0.0015005289 647 146
0.11269349 0.025144154 0.38603947 0.0019254507 471 98
0.11601903 0.025479922 0.39084128 0.0020564341 406 80
0.11834808 0.025589846 0.39215267 0.0020199488 410 81
0.12046252 0.02565073 0.3926895 0.0018806728 453 93
0.1246741 0.026149653 0.39990219 0.0019696152 432 87
0.12774214 0.026397534 0.40324143 0.0020202354 419 83
0.12966211 0.026404405 0.40287176 0.0015932068 576 126
0.13205338 0.026505679 0.40391713 0.0015224001 661 150
0.13506846 0.026727527 0.40676975 0.0014968743 644 145
0.13793364 0.026913943 0.40905026 0.0015126837 637 143
0.14019547 0.026979126 0.40945753 0.001431143 693 159
0.14199704 0.026955165 0.40848535 0.0013829586 741 172
0.14411309 0.026990743 0.40838897 0.001371021 744 173
0.14646675 0.0270693 0.40891361 0.0014291013 696 159
0.1484371 0.027075889 0.40832216 0.0014228534 700 161
0.15094224 0.027178602 0.4091503 0.0014163526 704 162
0.15308234 0.027213816 0.40893131 0.0014064144 717 165
0.15520468 0.02724502 0.40862292 0.0014435466 695 159
0.15780032 0.027357513 0.40950212 0.001411469 709 163
0.16010806 0.027417948 0.40956992 0.0014242295 697 160
0.16236855 0.027468927 0.40946624 0.0014064973 711 164
0.16411448 0.02743268 0.40803578 0.0014073356 714 164
0.16732727 0.027639585 0.41019094 0.0014180943 699 160
0.16930261 0.027639648 0.40924528 0.0014193221 709 163
0.1716051 0.027692502 0.40905643 0.0014128085 707 163
0.1740616 0.027768714 0.40918693 0.0014459484 684 156
0.17625092 0.027801068 0.4086481 0.0014719983 659 149
0.17818148 0.027792346 0.40748805 0.0015029068 644 145
0.18054207 0.027850138 0.40728793 0.0015209081 653 148
0.18343183 0.027987421 0.4082326 0.0015300319 635 143
0.18608069 0.028085377 0.40858862 0.0015343629 624 140
0.18868966 0.028175291 0.40881878 0.001576553 593 131
0.19106174 0.028228302 0.40851164 0.00155529 598 133
0.19292335 0.028205581 0.40711635 0.0016095515 595 132
0.19592936 0.02834891 0.4081288 0.0016937299 551 120
0.19885793 0.028478213 0.40895122 0.0017156823 529 114
0.20184018 0.028612508 0.40986493 0.0019000713 476 99
0.2039974 0.028628327 0.40911275 0.0018208856 469 97
0.20678248 0.028731069 0.40964288 0.001852759 478 99
0.20922303 0.028784391 0.40951493 0.001842864 466 96
0.21159557 0.028827406 0.40929648 0.0018608922 456 93
0.21339558 0.02879235 0.4080351 0.002005389 446 91
0.21435899 0.028646158 0.40527526 0.0019562305 423 84
-0.24771254 0.031404596 0.4139587 0.0031713301 214 27
-0.24256687 0.031014459 0.40831324 0.0032144154 204 24
-0.24173975 0.031174524 0.4099949 0.0029329192 238 33
-0.24118339 0.031372588 0.41225499 0.0030456274 225 30
-0.23838532 0.03127997 0.41078022 0.0028176156 251 37
-0.23565015 0.031194042 0.40948349 0.0027059149 265 41
-0.23375894 0.031219296 0.40973744 0.0028329929 278 44
-0.23173964 0.031227743 0.40986311 0.002759632 278 44
-0.22929786 0.031178901 0.40933034 0.0026606822 292 48
-0.22686146 0.031129899 0.40888864 0.0024094421 308 53
-0.22505288 0.031166939 0.40967032 0.002488934 323 57
-0.22288245 0.031154089 0.40988809 0.0022370501 341 62
-0.22039701 0.031096552 0.40960619 0.0022024568 351 64
-0.21826884 0.031088809 0.41006505 0.0021642291 384 74
-0.21593872 0.03105188 0.41021973 0.0020461753 398 77
-0.2127932 0.030895842 0.40887281 0.0019393628 427 85
-0.21069409 0.030890169 0.40958217 0.0019812982 426 85
-0.20838229 0.030852897 0.40993512 0.0019602729 428 86
-0.20601393 0.030806419 0.41021985 0.0019187169 455 93
-0.20340984 0.030723402 0.41006336 0.0019205116 460 95
-0.20172691 0.030779246 0.41180119 0.0019204847 435 88
-0.19848816 0.030596413 0.41037568 0.0018775818 476 99
-0.19529077 0.030416222 0.40900043 0.0017569201 506 107
-0.19277263 0.03033915 0.40902281 0.0017410355 526 113
-0.19079006 0.030345628 0.41018251 0.0016635191 545 118
-0.18852839 0.03030738 0.41074395 0.0016588087 541 117
-0.18589813 0.030208405 0.41047928 0.0016371143 555 121
-0.18319735 0.030095678 0.41001722 0.0016377453 560 122
-0.1804738 0.029976668 0.40945402 0.0017011396 569 125
-0.17764233 0.029836869 0.40858659 0.0016416494 592 131
-0.17428645 0.029604819 0.40642843 0.0015965097 596 132
-0.17143779 0.029454602 0.40536341 0.0016139286 577 127
-0.16616251 0.028879151 0.39840254 0.0016494732 581 128
-0.1625424 0.02858125 0.39522073 0.0014184396 710 163
-0.15958968 0.028395023 0.39354512 0.0013209702 788 185
-0.15807617 0.028463472 0.39537179 0.0012878381 825 195
-0.15575232 0.028385896 0.39514533 0.001245872 888 212
-0.15359004 0.028336221 0.3952781 0.0012160931 902 216
-0.15204619 0.028400831 0.39697957 0.0012186343 910 218
-0.15026891 0.028422918 0.39806294 0.0012118788 915 220
-0.14881742 0.028507974 0.40000451 0.0012177496 904 217
-0.14650156 0.02842751 0.39959705 0.0012301626 893 214
-0.14442579 0.028392134 0.39979404 0.0012138429 954 231
-0.1424831 0.028382326 0.4003236 0.0012326848 883 211
-0.14048819 0.028361712 0.40067384 0.0012538389 879 210
-0.13866684 0.02837605 0.40149194 0.0012882486 855 203
-0.13709956 0.028443499 0.40303752 0.0012497822 872 208
-0.13508211 0.028418129 0.40324381 0.0012553671 859 204
-0.13310689 0.028401058 0.40354222 0.0012619037 881 210
-0.13104229 0.028364141 0.40353346 0.0012649462 854 203
-0.12916888 0.028368134 0.40408242 0.0013076958 847 201
-0.12762921 0.028446626 0.40567079 0.0012649038 860 205
-0.12588999 0.028482344 0.40662831 0.0012542603 862 205
-0.12402152 0.028489465 0.40715599 0.0012652265 848 201
-0.12221732 0.028511804 0.40788001 0.0013005981 816 193
-0.12043869 0.028540902 0.40868041 0.0013532897 798 188
-0.11848808 0.028529532 0.4088811 0.0013449354 784 184
-0.1165713 0.028526064 0.40917477 0.001353584 762 178
-0.1147034 0.028534641 0.40962207 0.001450089 717 165
-0.11322848 0.028642923 0.41148299 0.0014363726 680 155
-0.11056583 0.028449304 0.40898782 0.001423798 696 159
-0.10892849 0.028517356 0.41023555 0.0015116284 634 142
-0.10662058 0.028409151 0.40893033 0.0016260676 607 135
-0.10454936 0.028361233 0.40847507 0.0015942289 595 132
-0.10251729 0.028322373 0.40813383 0.0015735765 599 133
-0.10032879 0.028238015 0.40712082 0.0015412652 613 137
-0.098001525 0.028110636 0.40547132 0.0015949807 578 127
-0.095971517 0.028065216 0.4049888 0.0016943321 532 114
-0.094043136 0.028048297 0.40490365 0.0017331699 535 115
-0.092160799 0.028044702 0.4049978 0.0016837191 535 115
-0.090208746 0.028019302 0.40476447 0.0016190346 563 123
-0.08783561 0.027859271 0.4025735 0.0016233901 565 123
-0.08538793 0.027668172 0.39992076 0.0016025277 575 126
-0.083100393 0.027521668 0.39790055 0.0016128202 621 139
-0.081159055 0.02748579 0.39746878 0.0016146116 596 132
-0.079309829 0.027480176 0.39746478 0.0015686348 611 136
-0.076967709 0.027299467 0.39491862 0.0015471489 615 137
-0.075088538 0.027278183 0.39466935 0.0016270976 611 136
-0.073189341 0.027248383 0.39428848 0.0016170456 575 126
-0.071169645 0.02717107 0.39321205 0.0016177776 570 125
-0.068849295 0.026971933 0.39036489 0.0014922033 658 149
-0.066951565 0.026932109 0.38981631 0.0014440363 682 156
-0.065112315 0.026914269 0.38957936 0.0015194387 639 144
-0.063077882 0.026812447 0.38812074 0.0015181643 634 142
-0.061145175 0.026749192 0.3872146 0.0015754843 642 145
-0.059239358 0.026694246 0.38642359 0.0015510204 610 136
-0.057432912 0.026682066 0.3862468 0.0015733079 617 138
-0.055672135 0.026690999 0.38637123 0.0014833088 658 149
-0.05349265 0.026493149 0.38349843 0.0014609322 679 155
-0.05176989 0.026515713 0.38381264 0.0014227874 704 162
-0.050092462 0.026563907 0.38449448 0.001447059 705 162
-0.048345655 0.026577502 0.38467258 0.0014729958 728 168
-0.046519987 0.026547126 0.38421169 0.001398876 728 168
-0.044662192 0.026495289 0.38343802 0.0013835646 729 169
-0.042846728 0.026465325 0.38297909 0.0013950561 722 167
-0.041066382 0.02645541 0.38280869 0.0014249303 704 162
-0.039246205 0.026417792 0.38223621 0.0014237079 741 172
-0.037476271 0.026412053 0.38212407 0.0014053218 761 177
-0.035632547 0.026351174 0.38121349 0.0013511694 777 182
-0.033904277 0.026373791 0.3815105 0.0013802189 745 173
-0.032229748 0.026442975 0.3824808 0.0015701808 652 147
-0.030362897 0.026353242 0.38115266 0.0016115046 573 126
-0.028677799 0.026419923 0.38208711 0.0014917584 652 147
-0.026974136 0.026477117 0.38288474 0.0013447079 781 183
-0.025205959 0.02647456 0.38281906 0.0013014021 806 190
-0.023366554 0.026391173 0.38158566 0.0013080962 856 204
-0.021556005 0.026329439 0.3806667 0.0013114216 825 195
-0.01975707 0.026272207 0.37981436 0.0012958078 872 208
-0.017982867 0.026239922 0.3793242 0.0012953992 818 193
-0.016248893 0.026265705 0.37967521 0.0013454676 799 188
-0.014517795 0.02630293 0.38019335 0.0013699462 744 173
-0.012705024 0.02618208 0.37842867 0.0013192724 789 185
-0.010921628 0.026092896 0.37712389 0.0013028593 811 191
-0.0091740144 0.026071597 0.37680236 0.0012907949 825 195
-0.0074297166 0.026051965 0.37650731 0.001404167 766 179
-0.0057006576 0.026090095 0.3770493 0.0014341852 730 169
-0.003958486 0.026075341 0.37682939 0.0014529788 677 154
-0.0022124671 0.025992285 0.37562478 0.0014233952 709 163
-0.00047570156 0.025810195 0.37299144 0.0014468631 742 172
0.0012442842 0.025783662 0.37260851 0.0013498905 766 179
0.0029658708 0.025801843 0.3728742 0.0013666363 768 179
0.0047066943 0.025912581 0.37447995 0.0014559553 718 166
0.0065396489 0.02633485 0.38059023 0.0014733386 680 155
0.0083370209 0.026465369 0.38248679 0.0015639199 635 143
0.010505966 0.027523741 0.39779583 0.0016724833 551 120
0.012295444 0.027421013 0.39632639 0.0014300935 712 164
0.01413312 0.027438458 0.3965961 0.0013526992 766 179
0.016023381 0.027542291 0.39811668 0.0013861469 728 168
0.017867042 0.027552899 0.3982918 0.0014629159 718 166
0.01962957 0.027448086 0.3968001 0.0014545106 673 153
0.021368083 0.027330436 0.39512447 0.001536923 675 154
0.023116376 0.027242808 0.39388409 0.0014680678 684 156
0.024925839 0.027234782 0.39379594 0.0014650553 669 152
0.026766289 0.027259409 0.39418098 0.0015374204 646 146
0.028550368 0.027227141 0.39374429 0.0015370877 641 144
0.03025217 0.027124964 0.39229712 0.0015095233 657 149
0.032299798 0.027326893 0.3952488 0.001572268 603 134
0.034148965 0.027348321 0.39559019 0.0015296731 625 140
0.035845302 0.027251385 0.39421931 0.0015247974 625 140
0.037759814 0.02732167 0.39526725 0.0016417571 607 135
0.039281886 0.027114594 0.39230171 0.001633623 619 138
0.041116953 0.027132284 0.39258721 0.0015719762 607 135
0.042694233 0.026985548 0.3904922 0.0015248391 625 140
0.044472069 0.026972318 0.39032757 0.0015361942 663 150
0.046389494 0.027041486 0.39135349 0.0014860999 663 150
0.048183858 0.027036428 0.39130324 0.001548848 658 149
0.049876127 0.026976518 0.39045656 0.0015231072 659 149
0.051719435 0.026999621 0.3908087 0.0014392477 691 158
0.053463772 0.026971241 0.39041248 0.0013751547 738 171
0.055082764 0.026883539 0.38915399 0.001408599 753 175
0.0568134 0.026854131 0.38873547 0.0013140731 795 187
0.058447678 0.026782369 0.38769957 0.0012799447 832 197
0.060059588 0.026704919 0.38657674 0.0012806728 839 199
0.061760601 0.026670406 0.38607052 0.00132264 842 200
0.06353759 0.026669718 0.38604853 0.0013238394 843 200
0.065210104 0.026626401 0.38540387 0.0012939296 853 203
0.066894613 0.026590157 0.38485542 0.0012424408 904 217
0.068529308 0.026536489 0.38404828 0.0012451009 912 219
0.070196822 0.026497919 0.38345289 0.0012525084 868 207
0.071892738 0.026471695 0.38302886 0.0013185091 813 192
0.073526293 0.02642432 0.38229093 0.0013027324 805 190
0.075226769 0.026402649 0.38191694 0.0012608882 857 204
0.076972686 0.026397547 0.38177398 0.001289605 841 199
0.078760818 0.026406839 0.38183001 0.0012336879 888 212
0.080455326 0.026385011 0.38142657 0.0012248566 904 217
0.082178123 0.026373202 0.38115796 0.0012621876 903 216
0.083805643 0.02633195 0.38045365 0.0011972253 929 224
0.085544117 0.026326541 0.38025633 0.0012778005 893 214
0.087100498 0.026266426 0.37925783 0.0011957631 932 224
0.088896848 0.026279632 0.37930617 0.0011929082 956 231
0.090582803 0.026260318 0.37887296 0.0012408312 879 210
0.092440784 0.026290663 0.37914324 0.0013434668 824 195
0.094227389 0.026299953 0.37909618 0.0013022806 849 202
0.095768623 0.026241675 0.37806159 0.0012763112 874 209
0.097608179 0.026265763 0.37819964 0.0013426862 808 190
0.09928409 0.026245743 0.37768757 0.0012501106 864 206
0.10094492 0.026222499 0.37711409 0.0012416351 884 211
0.10278316 0.026245341 0.37718749 0.0012404138 876 209
0.10481618 0.026316332 0.37793538 0.0013284032 834 197
0.10690288 0.026398236 0.37882134 0.0013001385 815 192
0.1096057 0.026627164 0.38179603 0.0015436949 658 149
0.11295027 0.02700221 0.38684019 0.0017154438 527 113
0.11611915 0.027324144 0.39109552 0.0019942841 413 82
0.11959478 0.027707197 0.39619625 0.0021565512 366 69
0.12189433 0.027810266 0.39726594 0.002068345 394 76
0.12401002 0.02786893 0.39767751 0.0019058421 447 91
0.12749085 0.028228121 0.40234885 0.0019494871 438 88
0.12963744 0.02828574 0.40269223 0.0015777436 620 139
0.13188277 0.028362941 0.40328863 0.001364831 752 175
0.13508126 0.028640052 0.40669718 0.0015847712 641 144
0.13788852 0.028827639 0.40880105 0.0015640062 636 143
0.14000864 0.028868388 0.40879291 0.0014275219 716 165
0.14202617 0.02888716 0.40844652 0.0014264875 710 163
0.14415073 0.028926918 0.40836948 0.0013890632 723 167
0.14631195 0.028972877 0.40835166 0.0014037661 722 167
0.14842334 0.029007901 0.40815082 0.0014683562 690 158
0.15063493 0.029061353 0.40818027 0.001464902 702 161
0.15321775 0.029184159 0.40915209 0.0014056144 714 164
0.15532479 0.029214393 0.40879491 0.0014206336 699 160
0.15728678 0.02921694 0.40802208 0.00144624 714 164
0.16025442 0.029403945 0.40979308 0.0014766727 697 160
0.16200353 0.029365551 0.40839192 0.001438414 704 162
0.16417867 0.029404374 0.40803879 0.0014093231 705 162
0.16707535 0.029569982 0.40941355 0.001417251 702 161
0.16864133 0.029498959 0.40748516 0.0014268347 701 161
0.17135538 0.029628079 0.40829703 0.0014782286 709 163
0.17403108 0.0297477 0.40894893 0.0014798254 654 148
0.17614818 0.029770222 0.40824255 0.0014991616 652 147
0.17809416 0.029763641 0.40712056 0.0014685275 663 150
0.18034384 0.029807404 0.40667266 0.0014856204 653 148
0.18312636 0.029937316 0.40738454 0.0015366455 636 143
0.18591632 0.030065633 0.40806004 0.0015709664 623 139
0.18876122 0.030199995 0.40880743 0.0015634022 616 137
0.19090755 0.030220946 0.40801817 0.0015615787 600 133
0.19315846 0.030257829 0.40745217 0.0016013337 578 127
0.19557044 0.030318933 0.40722495 0.0016919938 541 117
0.19847524 0.030454397 0.40801281 0.0017132203 521 111
0.20122924 0.030564208 0.4084788 0.0018332361 496 104
0.20399021 0.030672874 0.4089596 0.0017795681 491 103
0.20620941 0.030698726 0.40837711 0.0018125609 475 99
0.20893429 0.030798608 0.4088282 0.0019009484 464 96
0.21011104 0.030670563 0.40631375 0.0019032886 447 91
0.21359126 0.030877989 0.40830809 0.0018793958 453 93
0.21581298 0.030901255 0.40793446 0.0019230444 430 86
-0.24386466 0.032978591 0.40759975 0.003146461 211 26
-0.24219914 0.033032641 0.40775612 0.0030862268 223 29
-0.24087399 0.033134446 0.4085784 0.0029045753 239 34
