# .PCD v0.7 - Point Cloud Data file format
VERSION 0.7
FIELDS x y z noise intensity gray
SIZE 4 4 4 4 2 1
TYPE F F F F U U
COUNT 1 1 1 1 1 1
WIDTH 910
HEIGHT 1
VIEWPOINT 0 0 0 1 0 0 0
POINTS 910
DATA ascii
-0.10965052 0.16149801 0.42785653 0.002228793 350 62
-0.10739497 0.16126072 0.42785859 0.0021877282 357 64
-0.10535154 0.16133884 0.42868593 0.0022698329 336 58
-0.10339101 0.16154964 0.42985538 0.0022752262 339 59
-0.10075842 0.16069736 0.42818159 0.0021963282 361 65
-0.098750576 0.16082643 0.42910725 0.0021308917 380 70
-0.096591778 0.16070996 0.42936456 0.0021802494 365 66
-0.094408505 0.16054675 0.42948249 0.0021661292 365 66
-0.092035681 0.16004647 0.42868268 0.0022496937 345 61
-0.089734592 0.15965076 0.42814586 0.0022026801 358 64
-0.087526783 0.1594062 0.4279981 0.0021344495 374 68
-0.085667752 0.1598004 0.42955151 0.0021461942 364 66
-0.083590902 0.15979773 0.43002495 0.0022168083 376 69
-0.081399068 0.15956955 0.42987633 0.0023158346 374 68
-0.07919696 0.15930878 0.42962417 0.0022089535 359 64
-0.077003166 0.15905119 0.42936474 0.0023452693 331 57
-0.074873701 0.15891592 0.42942017 0.0022931048 352 63
-0.072538368 0.15832366 0.42822462 0.0022014896 367 67
-0.070346154 0.15801834 0.42778885 0.0021436671 374 68
-0.068473525 0.15843409 0.42929164 0.0021708291 363 66
-0.066342182 0.15825848 0.42917883 0.0023271167 370 67
-0.064283207 0.1582498 0.42950466 0.0021390233 371 68
-0.062159754 0.15807654 0.42937005 0.0022325169 345 61
-0.060077183 0.15799899 0.42948154 0.0021518592 374 68
-0.058064323 0.15810575 0.43008116 0.0021767863 356 64
-0.055863306 0.15768923 0.42924383 0.00223877 348 62
-0.053831305 0.15773624 0.4296549 0.0022289476 355 63
-0.051806256 0.15780815 0.43012157 0.0022770262 336 58
-0.049682621 0.15757334 0.42973962 0.0022174607 349 62
-0.047605135 0.15747096 0.42970625 0.0021781099 357 64
-0.045515522 0.1573175 0.42952123 0.0023715266 349 62
-0.043365296 0.15693028 0.4286854 0.0023569092 341 60
-0.041318085 0.15689602 0.4288018 0.0021987446 355 63
-0.039304167 0.1569912 0.42926064 0.0024255766 348 62
-0.037252229 0.15693663 0.42929894 0.0021762203 358 64
-0.03519211 0.15683927 0.42920899 0.002278917 342 60
-0.033090148 0.156532 0.42853341 0.0022407447 355 63
-0.031107383 0.15678528 0.42938167 0.0022939872 372 68
-0.029003585 0.1564213 0.42852882 0.0022005774 357 64
-0.026970986 0.15641537 0.42864621 0.0021763952 359 64
-0.024902442 0.15618308 0.42813286 0.0021970677 364 66
-0.022867912 0.15614182 0.4281328 0.0021927012 366 66
-0.020836538 0.15611616 0.4281655 0.0021672763 366 66
-0.018866705 0.15659578 0.42957434 0.0023008527 374 68
-0.016841402 0.15667528 0.42987606 0.002269495 367 67
-0.014807377 0.15668429 0.42997479 0.0022307269 380 70
-0.012707453 0.1558878 0.42785296 0.0021059706 391 73
-0.010698576 0.15611798 0.42853916 0.0020609528 393 73
-0.0086834058 0.15634249 0.42920047 0.0021414373 386 72
-0.0066484534 0.1562392 0.42895252 0.0021893894 372 68
-0.0046145646 0.1560811 0.42854446 0.0021514264 359 64
-0.0025902451 0.15625256 0.42903188 0.0021534648 366 66
-0.00056245871 0.15669894 0.43026489 0.0021495246 371 68
0.0014725549 0.15668057 0.43021232 0.0022374406 368 67
0.0034986162 0.15628362 0.42911088 0.0021377397 374 68
0.0055271522 0.15624811 0.42899254 0.0021276758 377 69
0.0075479979 0.15607265 0.42848054 0.002060622 390 73
0.0095421569 0.1555365 0.42696896 0.0021181221 407 77
0.011568081 0.15561499 0.42713544 0.002090727 387 72
0.01358104 0.15552169 0.42682076 0.0020593221 386 72
0.015596447 0.15547691 0.42662987 0.0022152846 397 75
0.017662518 0.1558896 0.4276844 0.0020304746 404 76
0.019734072 0.15626082 0.428615 0.0019568244 415 79
0.021780871 0.15638502 0.42885792 0.0020012558 407 77
0.023860328 0.15670256 0.42962077 0.0019889202 404 76
0.025910085 0.15679047 0.4297438 0.002065395 389 72
0.027897656 0.15651667 0.42886519 0.0020168086 404 76
0.02988372 0.15627214 0.42805713 0.0021911978 398 75
0.031878635 0.15610211 0.42744294 0.0021214883 392 73
0.033889133 0.15602413 0.42707068 0.0020374451 402 76
0.035900593 0.15595911 0.4267233 0.0019600913 421 81
0.037971474 0.15614544 0.42705253 0.0019248208 432 84
0.040075723 0.15644307 0.42767474 0.0020636704 412 79
0.042118698 0.15648438 0.4275845 0.0019916634 419 80
0.044114787 0.15635566 0.42701855 0.0020250843 418 80
0.04616411 0.15641868 0.42696467 0.0021634933 403 76
0.048311219 0.15679373 0.42775023 0.0021917582 404 76
0.050377611 0.15688708 0.42775455 0.0020182463 401 76
0.052450515 0.15699267 0.42777991 0.0020173274 397 75
0.054526228 0.15709846 0.42779312 0.0021524576 392 73
0.056779083 0.15768854 0.42911133 0.0020647892 396 74
0.058827352 0.15768917 0.42881152 0.0021723823 376 69
0.060674053 0.1571676 0.42707989 0.0021413306 387 72
0.06273476 0.15721631 0.42688581 0.0020258736 396 74
0.064854532 0.1574053 0.42705885 0.0020048632 403 76
0.067036577 0.15772922 0.42758337 0.002125338 387 72
0.069121838 0.15781301 0.42744237 0.0019811646 414 79
0.071147189 0.15775912 0.42691466 0.0020061466 403 76
0.073221825 0.15781449 0.42666864 0.002004683 410 78
0.075376175 0.15803394 0.42685151 0.0019916201 432 84
0.077652052 0.15848979 0.42765701 0.0020899912 418 80
0.079918042 0.15890247 0.42832935 0.0020421818 395 74
0.081913799 0.15877056 0.42751855 0.0018916463 444 87
0.084016681 0.1588477 0.42725644 0.0020334902 435 85
0.086219236 0.15910505 0.42746374 0.0019043972 440 86
0.088254943 0.15904967 0.42681587 0.001941284 450 89
0.090788983 0.15987435 0.42851296 0.0020430081 437 85
0.092888243 0.15991367 0.42808813 0.0018885373 438 85
0.094949834 0.15988782 0.42747474 0.0020374528 445 87
0.096901119 0.15968131 0.42636552 0.0020195667 441 86
0.099071376 0.15983674 0.42620957 0.0020196033 433 84
0.10116458 0.15986401 0.42569831 0.001887038 443 87
0.10315979 0.15973845 0.42476809 0.0019226081 446 88
0.10592082 0.16078033 0.42692685 0.0019235992 445 87
0.10838298 0.161337 0.42778 0.0018583547 451 89
0.11057304 0.16147518 0.42751044 0.0018782394 451 89
0.11250247 0.16123474 0.42622942 0.0020540194 444 87
0.11448304 0.161075 0.42515483 0.00209706 432 84
0.11686345 0.16147348 0.42554554 0.0020039841 445 87
0.11924903 0.16186494 0.42590854 0.0018997092 449 88
0.12113321 0.16157399 0.42447114 0.0018823941 440 86
0.12317974 0.16150586 0.42361793 0.0019706434 436 85
0.12590137 0.16231032 0.42504933 0.001911804 433 84
0.12822063 0.16257809 0.42507187 0.0019526267 422 81
0.1306369 0.16295823 0.42538851 0.0020280341 409 78
0.13283128 0.16305383 0.42496592 0.0020210333 394 74
0.13483149 0.16291186 0.42393208 0.0019759876 400 75
0.13718842 0.16319863 0.42402378 0.0020791921 409 78
0.13964714 0.16359589 0.42441303 0.0019322041 428 83
0.14195272 0.16380453 0.42432633 0.0020442002 442 87
0.1441842 0.16392277 0.42402315 0.002002734 400 75
0.14651474 0.16414857 0.42401865 0.0019976711 418 80
0.14919096 0.16474962 0.42500535 0.0020140784 396 74
0.15142931 0.16485696 0.42474374 0.002052278 390 73
0.15395907 0.16527413 0.42530948 0.002093591 380 70
0.1562967 0.16547646 0.42535409 0.0021650714 361 65
0.15830733 0.16533172 0.42454278 0.0021576004 367 67
0.16035624 0.16523035 0.42388237 0.0022520327 356 64
0.16267101 0.16540198 0.42396358 0.0022472516 350 62
0.16486342 0.16544631 0.42376164 0.0024529377 341 60
0.16747084 0.16590062 0.42465454 0.0024633359 332 57
0.16922535 0.16550922 0.42342994 0.002416244 339 59
0.17166589 0.1657902 0.42397469 0.0023722369 314 52
0.17371835 0.16569404 0.423605 0.0024644155 311 52
0.17592488 0.16574542 0.42366365 0.0025343834 300 49
0.17802916 0.16570038 0.42352772 0.0027612469 285 45
0.17999046 0.1655249 0.42311081 0.0026461324 275 42
0.18215933 0.16554222 0.42323932 0.0026260535 270 41
0.18430892 0.16554181 0.42337507 0.0027213483 270 41
0.18663915 0.16570179 0.42397353 0.0028878625 266 40
0.1886154 0.1655474 0.42381981 0.0029026573 246 34
0.19040741 0.16523667 0.42331648 0.0030240244 253 36
0.19240639 0.16511045 0.42333585 0.0029793561 229 30
0.19505666 0.16553973 0.42483017 0.0031753101 226 29
0.19661517 0.16504322 0.42399728 0.0033464201 216 26
0.19859132 0.16490422 0.42412901 0.0032839568 201 22
0.20088704 0.1650307 0.42499039 0.0033266735 196 21
0.20307668 0.16506828 0.42566913 0.0033443288 190 19
0.20472349 0.16466847 0.42526305 0.0034519068 191 20
0.20638733 0.16429044 0.42495349 0.0037416387 172 15
0.20755139 0.16352642 0.42368233 0.003575817 175 15
0.2097616 0.16359377 0.42460287 0.0038284471 160 11
0.2109445 0.16286659 0.42349708 0.0041352431 154 10
0.21309219 0.16289137 0.42438111 0.0046621226 139 6
0.21393593 0.16192868 0.42272389 0.0042650877 144 7
0.21546268 0.16149667 0.42247954 0.0047334246 141 6
0.21747115 0.1614306 0.42322281 0.0043671904 141 6
0.21916963 0.16113783 0.42340091 0.0047495617 125 2
nan nan nan 0 113 0
nan nan nan 0 119 1
nan nan nan 0 117 0
nan nan nan 0 117 0
nan nan nan 0 113 0
nan nan nan 0 124 2
nan nan nan 0 115 0
-0.23057573 0.16161318 0.42624474 0.0049008578 122 1
-0.22898099 0.16195083 0.42627069 0.0049511055 123 2
-0.22617565 0.16143055 0.42395502 0.0049720276 118 0
-0.22621652 0.16295092 0.42694938 0.0047851657 123 2
-0.22426075 0.16304795 0.42618951 0.0045247269 133 4
-0.22402014 0.16440555 0.42871886 0.0043521067 138 6
-0.22263482 0.16494089 0.42910761 0.0048139677 124 2
-0.22116484 0.16542318 0.42937472 0.0053307023 129 3
-0.21988474 0.16605818 0.43005893 0.0046618236 129 3
-0.21693145 0.16542967 0.42750138 0.0045286422 138 6
-0.2151974 0.16572767 0.42737249 0.0045447615 136 5
-0.2134077 0.16598836 0.42717883 0.0044742497 132 4
-0.21120462 0.16592953 0.42619768 0.0044318861 143 7
-0.20839013 0.16538426 0.42400712 0.0041006794 154 10
-0.2070864 0.16603909 0.42493105 0.0044676475 148 8
-0.20883223 0.16917805 0.43223545 0.0039758408 155 10
-0.20597206 0.16861232 0.43010518 0.0039185397 163 12
-0.20341897 0.16828862 0.42863834 0.003955971 166 13
-0.20068949 0.16781053 0.42682487 0.0038201592 167 13
-0.19843921 0.16772707 0.42606199 0.0036271065 185 18
-0.19618702 0.16764015 0.4253366 0.0035473222 182 17
-0.19442317 0.16797324 0.42572302 0.0034880259 194 21
-0.19304961 0.16865475 0.42703789 0.0036776301 191 20
-0.19136868 0.16908012 0.42775071 0.003767516 190 19
-0.18943998 0.16929382 0.42797673 0.0034381372 195 21
-0.18719821 0.16922948 0.42755023 0.0032618102 203 23
-0.18536703 0.16953912 0.42811972 0.0033912682 201 22
-0.18360999 0.16992477 0.42893204 0.0032464478 202 23
-0.18117204 0.16968191 0.4282099 0.0036112703 213 26
-0.1789178 0.16960733 0.4279646 0.0029428967 234 31
-0.17667064 0.16953768 0.42778376 0.0031979147 217 27
-0.17451037 0.16955072 0.42786312 0.003256002 227 29
-0.1723481 0.16956215 0.42798916 0.002982443 227 29
-0.17013247 0.16952071 0.42803162 0.0029495223 249 35
-0.16802458 0.16958688 0.42839491 0.0029684387 259 38
-0.16545683 0.16918461 0.42762181 0.00260333 280 43
-0.16252914 0.16839868 0.42592272 0.0026439917 271 41
-0.16002895 0.16804053 0.42534724 0.0027985699 280 43
-0.15764078 0.16779183 0.42508912 0.0023937772 314 52
-0.15576442 0.16808851 0.42625213 0.0025016291 299 48
-0.15414031 0.1686696 0.42817542 0.0024647813 301 49
-0.15191491 0.16859986 0.42848226 0.0025263831 301 49
-0.14851891 0.16721021 0.42546186 0.0024606206 320 54
-0.14642559 0.16726793 0.42614886 0.0026681458 294 47
-0.14459004 0.16762622 0.42762879 0.0024975832 309 51
-0.14243494 0.16761927 0.42820102 0.0024293421 308 51
-0.13988748 0.16714333 0.42759344 0.0025961753 321 54
-0.1376207 0.16699313 0.42783412 0.0024447511 319 54
-0.13533524 0.16681515 0.42801678 0.0024157718 321 54
-0.13284278 0.16637224 0.42752907 0.0025400361 316 53
-0.13065332 0.16630051 0.42800221 0.0024000772 320 54
-0.12832201 0.16604285 0.42800227 0.002408688 319 54
-0.12646563 0.16640145 0.42959556 0.0023652019 321 54
-0.12439376 0.16648391 0.43047991 0.00256049 325 55
-0.12194732 0.16605923 0.43005183 0.0023414895 325 55
-0.11940332 0.16548419 0.42922869 0.0024620909 324 55
-0.11698601 0.16506712 0.42880785 0.0024403757 312 52
-0.11447125 0.16449466 0.42797458 0.0023231769 320 54
-0.11203445 0.16401485 0.42737189 0.0021657215 362 65
-0.10968771 0.16365102 0.42706066 0.0022263711 349 62
-0.10739563 0.16335614 0.42691806 0.0022686855 337 59
-0.1052266 0.16324045 0.42723274 0.0023179862 330 57
-0.10339708 0.16365746 0.42893216 0.0023290552 331 57
-0.10130152 0.16366187 0.42954066 0.002350196 344 60
-0.098774798 0.16295518 0.4282684 0.0023257944 335 58
-0.096574679 0.16276844 0.42834696 0.002401886 344 60
-0.094382323 0.16258679 0.42842492 0.0021884704 353 63
-0.092076309 0.16219673 0.42793849 0.002304157 353 63
-0.089797266 0.16183724 0.42751682 0.002402948 351 62
-0.087628715 0.16166461 0.42757329 0.0022990846 335 58
-0.085516818 0.16159064 0.42787617 0.0023110148 358 64
-0.083431244 0.16156396 0.4282898 0.0022169759 353 63
-0.081248358 0.16134274 0.42817292 0.0022225243 355 63
-0.079090677 0.1611613 0.42814624 0.0022308 342 60
-0.077051558 0.16121817 0.42873815 0.002308554 333 58
-0.074966326 0.16117905 0.42906091 0.0023173152 349 62
-0.072886914 0.16115057 0.42939758 0.0022318212 343 60
-0.070749603 0.16098872 0.42936447 0.002325925 359 64
-0.068717621 0.16106395 0.42994955 0.0022174388 340 59
-0.066598468 0.16093324 0.42997098 0.0022087088 350 62
-0.064381212 0.16054954 0.42930174 0.0022815063 340 59
-0.062161203 0.16013335 0.42853037 0.0023145403 342 60
-0.060110319 0.16013934 0.42887467 0.0022309991 348 62
-0.058014724 0.16002241 0.42887643 0.0022992119 335 58
-0.056016941 0.16017659 0.42959186 0.0024046814 337 59
-0.053868353 0.15989488 0.42912525 0.0022770944 342 60
-0.051865038 0.16003914 0.4297891 0.0022131791 343 60
-0.049781851 0.15993868 0.42978325 0.0022944952 343 60
-0.047756638 0.16002384 0.430264 0.0022683223 333 58
-0.045549281 0.15947893 0.42903781 0.002319372 321 54
-0.043350581 0.15891454 0.42774582 0.0024474498 329 56
-0.04126516 0.15873019 0.42746401 0.0022038524 360 65
-0.039213818 0.15866463 0.42749023 0.0022083842 361 65
-0.037203211 0.15876572 0.42795435 0.0022738921 331 57
-0.035192106 0.15887626 0.42843285 0.0025154941 338 59
-0.03308925 0.15856071 0.42775115 0.0022206388 352 63
-0.03113227 0.15894863 0.42895642 0.0023403596 349 62
-0.029051948 0.1587171 0.42847937 0.0021421055 367 67
-0.026991853 0.15856948 0.42821789 0.0022728057 336 58
-0.024974544 0.15866965 0.42861506 0.002388323 344 60
-0.022918012 0.15851627 0.42831695 0.0022006389 352 63
-0.02083897 0.15816222 0.42746601 0.00233255 373 68
-0.018831249 0.15833151 0.42801923 0.0023417776 371 68
-0.016837452 0.15867288 0.42902794 0.002142139 366 66
-0.014778365 0.1584083 0.42838827 0.0020902611 384 71
-0.012760971 0.15857747 0.42891172 0.0021788834 383 71
-0.010723775 0.15851808 0.42880708 0.0020996456 383 71
-0.0086846743 0.15839618 0.42852348 0.0022870624 365 66
-0.0066515594 0.15834235 0.42841437 0.0022523499 389 72
-0.0046267407 0.15852545 0.42893666 0.0021217237 376 69
-0.0025956382 0.15861151 0.42918661 0.0023507874 373 68
-0.0005622207 0.15866695 0.42934412 0.002227209 365 66
0.0014718316 0.15863757 0.42926249 0.002237166 343 60
0.0035035496 0.15853664 0.42897758 0.0022403339 355 63
0.0055332314 0.15845153 0.42872575 0.0023923586 355 63
0.0075507485 0.15815732 0.42789859 0.0022163098 375 69
0.0095646121 0.15792735 0.42723569 0.002193077 386 72
0.011581513 0.15781914 0.42689261 0.0021047804 370 67
0.013680186 0.15869169 0.42919225 0.0022478104 368 67
0.015613054 0.15766394 0.42634279 0.0021283329 368 67
0.017638821 0.1577024 0.42636693 0.0021011436 387 72
0.019728038 0.15824191 0.42773548 0.0021002118 382 71
0.021779666 0.15840738 0.4280825 0.0019977032 408 77
0.02374946 0.1580002 0.42687201 0.0020640516 387 72
0.025889358 0.15869978 0.42864114 0.0020120442 397 75
0.027902855 0.15857898 0.42818359 0.00206871 394 74
0.029901087 0.1583938 0.42754191 0.002125209 396 74
0.031951573 0.15849133 0.42765284 0.0021899482 380 70
0.033997245 0.15855475 0.42766073 0.0022146676 389 72
0.03594505 0.15818034 0.4264771 0.0020266906 406 77
0.038033161 0.1584304 0.42696631 0.0020989664 417 80
0.040136233 0.15871421 0.42753455 0.0020970176 386 72
0.042188674 0.15878011 0.42750394 0.0020173045 410 78
0.044167224 0.15857466 0.42673138 0.0019951598 411 78
0.046184398 0.15851988 0.42635301 0.002000917 407 77
0.048247725 0.15862142 0.42638299 0.001984772 411 78
0.050415087 0.15904294 0.4272604 0.0020632339 383 71
0.052573182 0.15940359 0.42796057 0.0020225311 414 79
0.05467936 0.15958574 0.42816821 0.0020305146 390 73
0.056726355 0.15958825 0.42788088 0.0020819146 384 71
0.058065608 0.15766878 0.42243129 0.0021019995 384 71
0.060829826 0.15961762 0.42733276 0.0022488271 379 70
0.062899299 0.1596759 0.42715555 0.0021845831 402 76
0.065232344 0.16037853 0.4286871 0.0020154396 402 76
0.06728404 0.16036764 0.42829645 0.0020458014 400 75
0.069252118 0.16016398 0.42737788 0.0020779474 425 82
0.071236521 0.16000873 0.42657557 0.0020322374 394 74
0.073313974 0.16006534 0.42632434 0.0022430592 391 73
0.075517893 0.16038744 0.42676541 0.0021179924 403 76
0.077958263 0.16118135 0.42844489 0.0020956649 435 85
0.08003968 0.16121125 0.42807716 0.0020268466 404 76
0.082056835 0.1611135 0.42735651 0.002156649 395 74
0.084170014 0.16120446 0.42712235 0.0020538592 417 80
0.086422831 0.16155207 0.42755288 0.0018951377 438 85
0.088848807 0.16219951 0.42875978 0.0019091256 444 87
0.090797693 0.16196632 0.42762372 0.0018692504 443 87
0.092922866 0.16205099 0.42731375 0.0019678026 437 85
0.094888151 0.1618592 0.42626178 0.0020488775 423 81
0.097074829 0.1620452 0.42619163 0.0019540095 425 82
0.099252425 0.16220854 0.42604828 0.0019479542 437 85
0.10150528 0.16248567 0.42619002 0.0020069731 430 83
0.1036074 0.16251522 0.42566979 0.0020762214 407 77
0.1063543 0.16353506 0.42772856 0.0019597467 428 83
0.10849743 0.16360499 0.42728871 0.0019384198 431 84
0.11073384 0.16381031 0.42719221 0.0020996118 425 82
0.11277721 0.16372769 0.4263362 0.0019572973 419 80
0.11466624 0.16342811 0.42490983 0.0019347665 448 88
0.11685543 0.16355945 0.42459884 0.0019314997 420 81
0.11913019 0.16380379 0.4245756 0.0019213307 434 84
0.12123945 0.16381603 0.4239471 0.0020873288 423 81
0.12339488 0.16388921 0.42347497 0.0019905355 422 81
0.12570173 0.16415766 0.42350727 0.002105786 415 79
0.12804788 0.16446778 0.42364779 0.0020313426 393 73
0.13025817 0.16459614 0.42332381 0.0020176626 419 80
0.13279423 0.1651255 0.42403609 0.0020025223 405 77
0.13541391 0.16574061 0.42497438 0.0019939537 413 79
0.13822383 0.16656592 0.42645898 0.00202338 399 75
0.14032348 0.16652325 0.42573383 0.0021641522 394 74
0.14246193 0.16652724 0.42514652 0.0020109224 400 75
0.14452817 0.16644794 0.42436802 0.0021590441 398 75
0.14676259 0.16656181 0.424106 0.002049187 398 75
0.14922096 0.16692293 0.42449892 0.002115889 398 75
0.15192431 0.16754399 0.42557973 0.0021035168 371 68
0.15408437 0.16755694 0.42514661 0.0022995323 366 66
0.1563924 0.16772825 0.42515022 0.0021777614 353 63
0.15846239 0.16764307 0.42454129 0.0023046546 358 64
0.16042475 0.16744784 0.42369449 0.0022161887 349 62
0.16256924 0.16744533 0.42337814 0.0022747538 328 56
0.1651874 0.16792443 0.42432299 0.0023554766 319 54
0.16720471 0.16778825 0.42375872 0.0023752404 320 54
0.16976613 0.16819462 0.42461202 0.0023952413 310 51
0.17188834 0.16816106 0.42440334 0.0024817239 297 48
0.17359269 0.16772464 0.42322814 0.0024961221 296 48
0.17545784 0.16745237 0.42251796 0.0025687364 286 45
0.17799678 0.16782193 0.42347848 0.0026208735 275 42
0.18057467 0.16821896 0.42455998 0.0028656104 267 40
0.18239959 0.16791341 0.42391992 0.0026669255 266 40
0.18424165 0.16763063 0.42338824 0.0028028311 245 34
0.18657471 0.16779596 0.42403924 0.0028558127 250 35
0.18867488 0.1677504 0.42420819 0.0028345035 250 35
0.19017424 0.16717775 0.42309299 0.002933077 237 32
0.19203795 0.16693459 0.42285907 0.0030807329 217 27
0.19444051 0.16716005 0.42386028 0.0032061564 206 24
0.19694768 0.1674695 0.42512327 0.0034570599 194 21
0.19750054 0.16612844 0.42223954 0.0037573127 202 23
0.2005136 0.16686332 0.42467517 0.0036741844 187 19
0.20237328 0.16663301 0.42469999 0.003935569 187 19
0.20424595 0.16641806 0.42480519 0.003636518 173 15
0.20564373 0.16582461 0.42398232 0.0040127966 174 15
0.20845287 0.16636978 0.4261108 0.0037468059 166 13
0.20865051 0.16484071 0.42296109 0.003923004 157 11
0.21092272 0.16496484 0.42408434 0.00423948 148 8
0.21137857 0.16368003 0.4216159 0.0045137797 140 6
0.213054 0.16335557 0.42164764 0.0043863365 140 6
0.21500672 0.16324799 0.42226997 0.0045542424 134 5
0.21674611 0.16298202 0.42251191 0.0049387552 142 7
nan nan nan 0 120 1
nan nan nan 0 97 0
nan nan nan 0 112 0
nan nan nan 0 110 0
nan nan nan 0 121 1
-0.23652263 0.16349906 0.42700064 0.0051485705 125 2
-0.23429571 0.16338944 0.42683965 0.0048608105 120 1
-0.23218516 0.16335976 0.42648658 0.0050909664 120 1
-0.23023461 0.16344312 0.42613798 0.0051559769 127 3
-0.22825925 0.16351022 0.42555046 0.0047636284 131 4
-0.226399 0.16366176 0.42505828 0.0052799741 116 0
-0.22242591 0.16227464 0.42050734 0.0048119067 123 2
-0.22471885 0.16547577 0.42780164 0.0047872295 126 2
-0.22380865 0.16635627 0.42906275 0.0050863251 124 2
-0.22167823 0.16633788 0.42800727 0.0046858578 127 3
-0.21952188 0.16629948 0.42691794 0.0046089906 130 3
-0.21703412 0.16600685 0.42520151 0.0048190849 130 3
-0.2152115 0.16622224 0.42481437 0.004969243 136 5
-0.21328601 0.16636167 0.42426163 0.0043901256 146 8
-0.21285546 0.1676815 0.42674392 0.0043574683 142 7
-0.21133327 0.16815932 0.42710814 0.0040653446 155 10
-0.2092862 0.16822498 0.42645839 0.0047103055 147 8
-0.20765062 0.16862614 0.42669401 0.0042581959 144 7
-0.20651142 0.16944291 0.42801398 0.0042604585 173 15
-0.2059793 0.17078014 0.43067908 0.0040332102 151 9
-0.20313419 0.17020769 0.42856589 0.00396907 157 11
-0.20077527 0.17003469 0.42750356 0.0038956366 164 13
-0.19699016 0.16863705 0.42341068 0.0036909487 172 15
-0.19545826 0.16915882 0.42418408 0.0037611749 174 15
-0.19397616 0.16973573 0.4251374 0.0037178197 175 15
-0.19245274 0.17028899 0.42607459 0.0036284793 175 15
-0.19072849 0.17067505 0.42663842 0.0034401787 185 18
-0.18849175 0.17060615 0.42611229 0.0033751454 200 22
-0.18635258 0.17062496 0.42585438 0.0034355426 205 23
-0.18530884 0.17165893 0.42817816 0.003400739 192 20
-0.18298198 0.17151476 0.42761227 0.0033862025 206 24
-0.18093282 0.17163055 0.42774513 0.0032099774 212 25
-0.17886633 0.1717325 0.42789432 0.0031938239 218 27
-0.17692932 0.1719628 0.42841405 0.0031934944 219 27
-0.17465633 0.17186822 0.42817512 0.0033042931 227 29
-0.17206432 0.1714534 0.42718855 0.0031065838 219 27
-0.16982511 0.17138398 0.42711192 0.003128353 231 30
-0.16767558 0.17140445 0.42730781 0.0029082415 240 33
-0.16556729 0.1714682 0.42765924 0.0028833111 265 39
-0.16318342 0.17124437 0.42733929 0.0026841382 265 39
-0.16050759 0.17070408 0.42627278 0.0029237291 256 37
-0.15856254 0.17093682 0.42717874 0.002802605 268 40
-0.15593901 0.17043446 0.42628765 0.0026143317 283 44
-0.15462624 0.1713707 0.42903399 0.0026817883 268 40
-0.152585 0.17151476 0.42983565 0.0025612325 290 46
-0.14896892 0.1698672 0.42617676 0.002627983 281 44
-0.14678983 0.16983396 0.4265939 0.0027191499 286 45
-0.14503293 0.17029546 0.42828295 0.0026790416 294 47
-0.14280058 0.17020421 0.42860818 0.0026937309 292 47
-0.14029086 0.16977447 0.42810166 0.0027471643 280 43
-0.13785455 0.1694216 0.42780587 0.002597292 284 44
-0.13542172 0.16906191 0.42750713 0.0024956528 296 48
-0.13297738 0.16867608 0.42715368 0.0025470476 314 52
-0.13038792 0.16809058 0.42630234 0.0025856358 313 52
-0.12848468 0.16838495 0.42769051 0.0025943599 315 53
-0.12672046 0.16887452 0.42958409 0.0024064323 318 54
-0.12443013 0.16866776 0.42971176 0.002346433 319 54
-0.12194709 0.16818799 0.42914349 0.002564467 322 55
-0.11950927 0.16775464 0.4286904 0.0024347338 318 54
-0.11725938 0.16757417 0.42887989 0.0024454617 304 50
-0.11489625 0.16722226 0.42862529 0.0024566597 334 58
-0.11247475 0.16677058 0.42810714 0.0023995901 346 61
-0.10996135 0.16616274 0.42717814 0.0022751864 345 61
-0.10746321 0.16555472 0.42623693 0.002360838 330 57
-0.10551145 0.16578096 0.42743391 0.002308507 335 58
-0.10369981 0.16624105 0.42922693 0.0023315682 321 54
-0.10154327 0.16615582 0.42960337 0.0024571761 330 57
-0.099067971 0.16553436 0.42857993 0.0024031999 326 56
-0.09660086 0.16490002 0.42750713 0.0022162013 347 61
-0.094560519 0.16498227 0.42827818 0.0022042848 358 64
-0.092296056 0.16466834 0.4280076 0.0022950612 332 57
-0.089952283 0.16419517 0.4273077 0.002368798 362 65
-0.087743305 0.16395146 0.42718938 0.0023306143 355 63
-0.085727543 0.16406573 0.42799008 0.0022147486 354 63
-0.083464041 0.16369979 0.4275237 0.0023015391 341 60
-0.081179373 0.16327262 0.4268814 0.0023742444 328 56
-0.079124495 0.16329738 0.42740569 0.0023090462 336 58
-0.077179015 0.16355529 0.42852709 0.0023863462 324 55
-0.075131923 0.1636062 0.42909303 0.0022685216 344 60
-0.07285922 0.16315472 0.42832649 0.0023541492 340 59
-0.07082022 0.16321555 0.42889002 0.0023178947 339 59
-0.068818882 0.16336939 0.42968467 0.0024075485 329 56
-0.066675238 0.16318449 0.42957473 0.002308964 324 55
-0.064389221 0.16262822 0.42847171 0.0022699314 343 60
-0.06214074 0.16213308 0.42751417 0.0024333438 347 61
-0.060039017 0.16200012 0.42749697 0.0023346415 335 58
-0.058106113 0.16232942 0.42868689 0.0023812375 328 56
-0.05600388 0.16219243 0.42863271 0.0023230431 353 63
-0.053990901 0.16231334 0.42924726 0.0022982452 352 63
-0.051848445 0.16203918 0.42880401 0.0023053768 351 62
-0.049834691 0.16216123 0.42939645 0.0022633588 341 60
-0.047802061 0.16222972 0.42983502 0.0021944714 355 63
-0.045560196 0.16156237 0.42831075 0.0023551255 321 54
-0.043360952 0.16099052 0.42702594 0.0023199171 335 58
-0.041203089 0.16052349 0.42600578 0.0022786362 337 59
-0.039154772 0.16045694 0.42603615 0.0021993173 351 62
-0.03720874 0.16082519 0.42720979 0.0023609521 326 56
-0.035183597 0.16087437 0.42752501 0.0022707356 340 59
-0.033229973 0.16127664 0.42876792 0.0022595287 339 59
-0.03120508 0.1613631 0.42916057 0.0023772218 340 59
-0.029138008 0.16122824 0.42895362 0.0021694105 361 65
-0.027040236 0.16089043 0.42819548 0.0022642692 349 62
-0.024993068 0.16082321 0.42814636 0.0023222633 329 56
-0.022940375 0.16070534 0.42795169 0.0022133002 351 62
-0.020893078 0.16060603 0.42779577 0.0022714089 345 61
-0.018857162 0.16058218 0.42783049 0.0021053213 379 70
-0.016809819 0.16044354 0.42754892 0.0021826627 362 65
-0.014810116 0.16078399 0.42853391 0.0021679359 358 64
-0.012797402 0.1610692 0.42936182 0.0021513754 373 68
-0.010755527 0.16102585 0.42930394 0.0021550267 360 65
-0.0087038446 0.16078115 0.42869902 0.0021860958 361 65
-0.0066683786 0.160778 0.42872816 0.0021246495 394 74
-0.0046424479 0.16110303 0.42962244 0.0021431546 369 67
-0.0026031155 0.16110787 0.42965302 0.0022020801 351 62
-0.00056248455 0.1607767 0.42877749 0.0023685382 354 63
0.0014715224 0.16063775 0.42840469 0.0022499645 364 66
0.0035043051 0.16060391 0.42830235 0.0022377088 350 62
0.0055326521 0.16046627 0.42791328 0.0021818159 360 65
0.0075615156 0.16041352 0.42774072 0.0021113579 375 69
0.0095901648 0.16037953 0.42760822 0.002361899 342 60
0.011639194 0.16063865 0.42824715 0.0020896986 387 72
0.013710379 0.16108105 0.42936435 0.0021530869 365 66
0.015768833 0.16127867 0.42981881 0.0021314723 369 67
0.017667413 0.15998326 0.42628446 0.0021276374 378 70
0.019697804 0.16002515 0.42630386 0.0021226758 380 70
0.021748776 0.16021082 0.42669591 0.0021986924 382 71
0.023817191 0.16048236 0.427306 0.0021369369 371 68
0.025862798 0.16056962 0.4274146 0.0020730868 391 73
0.027827295 0.16017728 0.42623612 0.0020561044 393 73
0.029906424 0.16045322 0.42682549 0.002118926 378 70
0.032076843 0.16115275 0.4285298 0.0021741923 373 68
0.034000475 0.1606029 0.42690066 0.002019203 398 75
0.036076345 0.1607936 0.42722923 0.0022688056 379 70
0.038073715 0.16063276 0.42661253 0.0019847986 415 79
0.040198628 0.16099906 0.42738405 0.0020941424 412 79
0.042260751 0.16109066 0.42741421 0.0020062968 413 79
0.044279646 0.1610166 0.42699319 0.0020044318 411 78
0.046254296 0.16079529 0.42617005 0.0020397929 409 78
0.048356842 0.16101848 0.42651311 0.0020219847 413 79
0.050540138 0.16148163 0.42747843 0.0020234964 411 78
0.052833028 0.16224533 0.42922488 0.0020473956 399 75
0.05481964 0.16204649 0.42841145 0.002058655 389 72
0.056658387 0.16144072 0.42651078 0.0021481984 367 67
0.058703929 0.16144583 0.42621228 0.0021156492 373 68
0.060873203 0.1617794 0.42676729 0.0020549572 394 74
0.062996849 0.161974 0.42694131 0.0021704268 410 78
0.065263294 0.16251186 0.42800528 0.0021285757 392 73
0.067363396 0.16261531 0.4279103 0.0021871664 400 75
0.069296256 0.16232088 0.42675525 0.0020705478 393 73
0.071430907 0.16250247 0.42683813 0.002089272 383 71
0.073588662 0.162725 0.42701375 0.0021238525 406 77
0.075830616 0.16311651 0.42761758 0.0020481737 395 74
0.078041054 0.16342127 0.42797825 0.0021163295 393 73
0.080087461 0.16337568 0.4274067 0.0020965349 387 72
0.082095951 0.16325699 0.42663056 0.0020619314 403 76
0.084243827 0.16341449 0.42656234 0.0020895367 402 76
0.086646385 0.16404665 0.42771706 0.0019788747 416 80
0.088824518 0.16423424 0.42769665 0.0020883905 412 79
0.09093532 0.16429156 0.42732301 0.0020023526 420 81
0.092847399 0.1639954 0.42601758 0.0019899197 413 79
0.095004164 0.16413487 0.42583174 0.0019830072 418 80
0.097323537 0.16454332 0.42632961 0.0020290248 434 84
0.099563107 0.16480255 0.42642674 0.0019960699 433 84
0.10158932 0.16470523 0.42558968 0.001953457 422 81
0.10407878 0.16534777 0.42665181 0.0020116013 402 76
0.10628977 0.16553129 0.42651683 0.0019787019 413 79
0.10863107 0.16590674 0.4268654 0.0019365009 436 85
0.11078536 0.16598774 0.42644703 0.0019336052 433 84
0.11290371 0.1660129 0.42587799 0.0020074719 410 78
0.11491474 0.16588219 0.42490414 0.0019540426 417 80
0.11686949 0.16567643 0.42373553 0.0020560212 425 82
0.1192999 0.16614033 0.42427611 0.0020823311 422 81
0.12160351 0.16641462 0.42432895 0.0019678795 421 81
0.12362124 0.16629499 0.42337802 0.0020411271 403 76
0.1259127 0.16654143 0.42336166 0.0020113743 425 82
0.12811048 0.16665789 0.42301893 0.0020153886 400 75
0.13040832 0.16689865 0.42299786 0.0020017687 405 77
0.13285735 0.16732211 0.42344731 0.0019971095 408 77
0.13582604 0.16837651 0.4255006 0.0020290792 400 75
0.13841014 0.16892894 0.42629471 0.0021839868 393 73
0.14060396 0.16899543 0.42587835 0.002028889 395 74
0.14271778 0.16896525 0.425239 0.0020959727 375 69
0.14483407 0.16893883 0.42463276 0.002206028 360 65
0.14699356 0.16896282 0.42417946 0.0021633219 361 65
0.1493929 0.16925791 0.42443466 0.0021866048 359 64
0.15197833 0.16975245 0.42521963 0.0022148469 344 60
0.15442553 0.170081 0.42562097 0.0023591567 328 56
0.15637575 0.16986066 0.42468518 0.0024549039 342 60
0.15856354 0.16990083 0.42444032 0.0024592793 333 58
0.16085027 0.17004457 0.42449501 0.0025401202 326 56
0.16267407 0.16970158 0.42337802 0.0023445049 328 56
0.16530219 0.17019564 0.42439407 0.0024475818 294 47
0.16751568 0.17025559 0.42437345 0.0025565964 300 49
0.16950808 0.17009215 0.42384371 0.0025908751 306 50
0.17169733 0.17012784 0.42385888 0.0025416021 285 45
0.17408325 0.17035514 0.4244009 0.0027454724 278 43
0.17528759 0.16943474 0.42213356 0.0028009778 256 37
0.17826478 0.17022955 0.42418978 0.0027859474 253 36
0.18071222 0.17050554 0.4250043 0.0028142172 253 36
0.18312502 0.17074268 0.42577294 0.0028078472 248 35
0.18496473 0.17044619 0.42526108 0.0029865599 244 34
0.18660678 0.16997652 0.42436579 0.0030008624 231 30
0.18877462 0.16999103 0.42472765 0.0032895699 232 31
0.19077808 0.16985883 0.42477122 0.0033573136 220 27
0.19200994 0.16905026 0.42316863 0.0031649624 216 26
0.19375537 0.1687067 0.42277363 0.0034514519 188 19
0.19550125 0.16837099 0.42244196 0.0033954845 200 22
0.19672687 0.16759931 0.42105711 0.0033373761 199 22
0.19856146 0.16735736 0.42104292 0.003602488 191 20
0.20241433 0.16880366 0.42532262 0.0037771524 190 19
0.2039506 0.16830802 0.42475405 0.0038262459 176 16
0.20547041 0.16780916 0.42421314 0.0037238055 171 14
0.20624414 0.16671744 0.42220515 0.0038878603 164 13
0.20972073 0.16781053 0.42576757 0.0041806777 151 9
0.21011806 0.16644251 0.42312041 0.0042852354 141 6
0.21158482 0.16594039 0.42269984 0.0044235461 135 5
0.21224865 0.1648246 0.42074072 0.0050208736 139 6
0.21479692 0.1651797 0.42256355 0.0044007464 141 6
0.21723311 0.16544259 0.42418328 0.0048320983 131 4
nan nan nan 0 129 3
nan nan nan 0 103 0
nan nan nan 0 104 0
nan nan nan 0 119 1
nan nan nan 0 121 1
-0.23626181 0.16538624 0.42614806 0.0048050373 125 2
-0.23383695 0.16513385 0.42596528 0.0047128429 122 1
-0.2318794 0.16520987 0.42615554 0.0052951709 129 3
-0.2304779 0.16568707 0.42701718 0.0055301236 118 0
-0.2285541 0.16579401 0.42666513 0.0051980293 128 3
-0.22613984 0.16554384 0.42522344 0.0051669222 119 1
-0.22408667 0.16555588 0.42435142 0.0048925593 121 1
-0.22456361 0.16745481 0.42824683 0.0046652728 127 3
-0.22334138 0.16811045 0.42892218 0.0055478718 118 0
-0.22134295 0.16818878 0.4281162 0.0052752667 129 3
-0.21906835 0.16805679 0.4267849 0.0046424353 134 5
-0.21619266 0.1674566 0.424288 0.0045991098 138 6
-0.21405523 0.1674221 0.42325243 0.0046250634 134 5
-0.21257789 0.16790833 0.42355886 0.0046183541 133 4
-0.21151647 0.16873604 0.42475009 0.0046211253 142 7
-0.21123289 0.17020719 0.42758146 0.00422341 148 8
-0.21015315 0.17106023 0.42888263 0.0043082563 140 6
-0.20819657 0.17120974 0.42845061 0.0042152484 150 9
-0.2062296 0.17135373 0.42804021 0.0041848887 151 9
-0.2040914 0.17135698 0.42731565 0.0046949466 150 9
-0.20232637 0.1716769 0.42741856 0.0041153841 147 8
-0.20016184 0.17166111 0.42672482 0.0043437113 163 12
-0.19846284 0.17204852 0.42707354 0.0036388745 170 14
-0.19514179 0.17102286 0.42395908 0.0039785127 163 12
-0.19390002 0.17181696 0.42540023 0.0038160277 167 13
-0.19258186 0.17256039 0.42675579 0.0036161498 172 15
-0.19019249 0.17234994 0.42579654 0.0036901587 177 16
-0.18726087 0.17163767 0.42364615 0.0033629823 195 21
-0.18660684 0.17302065 0.42671338 0.0031442754 215 26
-0.18477289 0.17332923 0.42717555 0.0035702158 203 23
-0.18322399 0.1739157 0.42837006 0.0032707066 202 23
-0.18057668 0.17346112 0.42704943 0.0031010329 217 27
-0.1785087 0.17355877 0.42713839 0.0034996353 199 22
-0.17651166 0.17372862 0.42745453 0.0031945645 214 26
-0.1744418 0.17383014 0.42765206 0.0035346614 205 23
-0.1720867 0.17364642 0.42719728 0.0031313701 215 26
-0.16965555 0.17338027 0.42658862 0.0031541891 229 30
-0.16779257 0.17369537 0.42745823 0.0029711013 232 31
-0.16562921 0.17370375 0.42762062 0.0028772727 244 34
-0.16335775 0.17359746 0.42754683 0.0028839423 248 35
-0.16101605 0.17341265 0.42732415 0.002871732 246 34
-0.15861888 0.17316227 0.42698243 0.0027535867 257 37
-0.15644898 0.17315646 0.42728475 0.0028026968 271 41
-0.15370812 0.17250969 0.42604351 0.0028556015 267 40
-0.15190901 0.17291652 0.42744106 0.0026283783 270 41
-0.14979711 0.17297389 0.42801067 0.0026986217 267 40
-0.14711718 0.17236744 0.42696872 0.0026789964 268 40
-0.14499712 0.17240867 0.42755938 0.0028206685 279 43
-0.14295293 0.17254271 0.428408 0.0026713409 272 41
-0.14067419 0.17239344 0.42857763 0.0029633108 264 39
-0.13807645 0.17184249 0.42776826 0.0028549386 278 43
-0.13557601 0.17139712 0.42723745 0.0026129896 312 52
-0.13294013 0.17076352 0.42625025 0.0024398228 304 50
-0.13052464 0.17039692 0.4259398 0.0024303286 308 51
-0.12842567 0.17043823 0.42665908 0.0026365379 313 52
-0.12662093 0.17087801 0.42838651 0.002461541 303 50
-0.12381282 0.16995557 0.42670363 0.0022907807 334 58
-0.12164339 0.16989294 0.42718038 0.0024495213 302 49
-0.12008373 0.17069483 0.42983598 0.0023984297 315 53
-0.11732222 0.16978645 0.42818487 0.0023309095 335 58
-0.11499361 0.16948263 0.42805281 0.0023642231 333 58
-0.11298458 0.16964726 0.42910022 0.0023294112 324 55
-0.11031815 0.1688122 0.4276123 0.0023600929 325 55
-0.10808901 0.16862679 0.42776057 0.002508533 315 53
-0.10604875 0.16873452 0.42864528 0.0024894984 326 56
-0.10386108 0.16860732 0.42892516 0.0024056514 338 59
-0.10149097 0.16817254 0.42841157 0.0023703435 325 55
-0.099329233 0.16807196 0.42873764 0.0023117121 332 57
-0.097197413 0.16801874 0.4291735 0.0025279203 333 58
-0.094948739 0.16775671 0.4290638 0.0022978992 348 62
-0.092730187 0.16753726 0.42904976 0.00244942 325 55
-0.090030491 0.1664183 0.42671546 0.0022570633 340 59
-0.087987855 0.16648969 0.42741767 0.0023956995 333 58
-0.085735872 0.16615881 0.42707345 0.0022342277 351 62
-0.083490163 0.16582397 0.42670399 0.0023238685 327 56
-0.081217654 0.16541748 0.42613468 0.0022914265 334 58
-0.07924103 0.16560814 0.42708963 0.0023604417 326 56
-0.077405699 0.16611221 0.42884135 0.0024750202 336 58
-0.074997343 0.16538051 0.42738843 0.0022519424 349 62
-0.072731927 0.16493146 0.42664918 0.002554005 328 56
-0.070811115 0.16526045 0.42790866 0.0024917691 323 55
-0.068909928 0.16565636 0.42932966 0.0022776593 340 59
-0.066735424 0.16539943 0.42904541 0.0023219839 331 57
-0.06439662 0.16470586 0.42761278 0.0022718625 336 58
-0.062207453 0.16436179 0.42707187 0.0023629605 341 60
-0.060218938 0.16454253 0.427881 0.0023311898 346 61
-0.058119114 0.16442113 0.4278914 0.0024813765 321 54
-0.056188535 0.16478719 0.42915776 0.0023801429 327 56
-0.053998098 0.16439001 0.42842358 0.0022574472 342 60
-0.051883038 0.16419993 0.42821515 0.0023547623 316 53
-0.049818356 0.16416024 0.42838591 0.0024096109 349 62
-0.047745422 0.16408874 0.42846107 0.0023246668 334 58
-0.045696184 0.16409594 0.42872927 0.0023391279 340 59
-0.043396864 0.16316354 0.42652914 0.0023299707 332 57
-0.041198917 0.16253911 0.42511979 0.0022882503 337 59
-0.039186157 0.16261843 0.42553854 0.0025178189 329 56
-0.037356518 0.16350791 0.42806703 0.0024695089 335 58
-0.0353017 0.16345772 0.42812476 0.0023274098 338 59
-0.033294871 0.16363722 0.4287729 0.0024272641 339 59
-0.031356074 0.16419645 0.43040544 0.0022526195 342 60
-0.02923367 0.16380528 0.42953557 0.0023429678 333 58
-0.027127907 0.16345541 0.42876235 0.0023543788 326 56
-0.024995126 0.16287248 0.42736602 0.0024191707 323 55
-0.022940379 0.16273972 0.42713958 0.0022711726 345 61
-0.020931125 0.1629353 0.42776415 0.0022846549 362 65
-0.018936094 0.16329569 0.42881128 0.0023897574 352 63
-0.016920483 0.16354425 0.42955446 0.002303778 356 64
-0.014866211 0.16343608 0.42935029 0.002168597 367 67
-0.012819999 0.16339618 0.42931497 0.0022087025 349 62
-0.010764778 0.16320457 0.42887056 0.0022268933 349 62
-0.008719638 0.16311193 0.42867586 0.0022521713 340 59
-0.0066843941 0.16320434 0.42895728 0.0022907665 366 66
-0.0046502999 0.16341837 0.42954808 0.002258033 366 66
-0.0026042894 0.16322094 0.42904726 0.0022769868 338 59
-0.00056326331 0.16303739 0.42857268 0.0022378003 349 62
0.0014726487 0.16279578 0.42793524 0.0022284621 343 60
0.0035034786 0.16259867 0.4274047 0.0022689637 340 59
0.0055268765 0.16232799 0.4266707 0.0021731989 364 66
0.0075654588 0.16252893 0.4271661 0.0022745982 364 66
0.0096119111 0.16277805 0.42777795 0.0021765504 356 64
0.011656839 0.16291884 0.42809463 0.0023252009 366 66
0.013688727 0.16286258 0.4278833 0.0021133348 376 69
0.015718335 0.16279732 0.4276379 0.0023735566 371 68
0.017721295 0.16250262 0.42677966 0.0021446769 365 66
0.019722378 0.1622531 0.42602986 0.0021514213 377 69
0.02175446 0.16228135 0.42599913 0.0021311149 371 68
0.023806252 0.16243929 0.42629796 0.0023186104 356 64
0.02583822 0.16244778 0.42619371 0.0021006279 379 70
0.027896106 0.16260606 0.42647162 0.0022568658 366 66
0.029913809 0.16252455 0.42610949 0.0021779793 357 64
0.031954769 0.16257174 0.42607391 0.002254613 368 67
0.034041557 0.1628325 0.42658645 0.0020801474 384 71
0.0360872 0.1628781 0.42652369 0.0021520983 388 72
0.038196616 0.1631913 0.42714995 0.0020786026 385 71
0.040280692 0.16336998 0.42741174 0.0020054195 402 76
0.042377651 0.16358115 0.4277463 0.0020704661 401 76
0.044353303 0.16332614 0.42685002 0.002134392 409 78
0.046369907 0.1632378 0.42637771 0.001985633 398 75
0.04847065 0.16344057 0.42665356 0.0020768668 395 74
0.050661214 0.16391759 0.42763177 0.002299828 357 64
0.052844167 0.16433385 0.42843747 0.0020979873 380 70
0.054978605 0.1645737 0.42876953 0.0020812727 385 71
0.056922868 0.16424754 0.42761418 0.0021104726 376 69
0.058831446 0.16384469 0.4262476 0.0021459609 368 67
0.060853776 0.16377509 0.42573583 0.0020633787 388 72
0.062942334 0.16388248 0.42567095 0.002033612 419 80
0.065221556 0.16446386 0.42682245 0.0020222985 398 75
0.067364313 0.16467611 0.42700079 0.0020231348 395 74
0.06941396 0.16465493 0.42655993 0.0021773058 384 71
0.071562931 0.16486378 0.42670107 0.0020247363 403 76
0.073953472 0.16560185 0.42819583 0.0020696388 403 76
0.075993314 0.16553581 0.42759624 0.0021002628 403 76
0.078018971 0.16544323 0.42691469 0.0020539658 393 73
0.08010444 0.16547894 0.42655089 0.0020205511 399 75
0.08216776 0.16546826 0.42605385 0.0021892746 404 76
0.084320575 0.16563393 0.42599714 0.0021677217 389 72
0.086656339 0.16614239 0.42680687 0.0020453376 393 73
0.088798076 0.16626379 0.4266074 0.0019971691 409 78
0.090870358 0.16625254 0.42605457 0.0021804348 400 75
0.092931315 0.16622153 0.42543888 0.0020362644 409 78
0.095206879 0.16656736 0.42577469 0.0020697427 401 76
0.097630858 0.16715246 0.42670774 0.0019473797 426 82
0.09988533 0.1674289 0.42683902 0.0021428452 416 80
0.10185454 0.16722567 0.42573717 0.0020333135 412 79
0.10405537 0.16740327 0.42559534 0.0020217274 409 78
0.10649881 0.16795643 0.42639738 0.002133321 404 76
0.1085895 0.16794267 0.42575076 0.0019528214 431 84
0.11083007 0.16815685 0.4256748 0.0019454056 429 83
0.11308199 0.16837992 0.42561471 0.0020484319 418 80
0.11527611 0.16851038 0.42531544 0.0021816161 398 75
0.1173441 0.16845508 0.42454502 0.0019937111 408 77
0.11958572 0.1686466 0.4243955 0.0019944964 415 79
0.12206833 0.16916542 0.42506829 0.0021924982 400 75
0.12435269 0.16939655 0.42501879 0.0022189973 384 71
0.12650424 0.169442 0.42450765 0.0020744172 414 79
0.12882465 0.16970845 0.42455661 0.0020922343 411 78
0.13095306 0.16971742 0.42397034 0.0020433271 392 73
0.13297302 0.16958778 0.42305055 0.002213791 374 68
0.13546242 0.17005153 0.42362475 0.0021414417 376 69
0.1381309 0.17072228 0.42472818 0.0022066256 368 67
0.14053501 0.17105083 0.4249973 0.0021416035 378 70
0.1427931 0.17119449 0.42482823 0.0021812844 362 65
0.14505842 0.17134245 0.4246946 0.0023071214 343 60
0.14721686 0.17136165 0.42426956 0.0022297965 352 63
0.14923339 0.17121753 0.42347115 0.0022942456 359 64
0.15186024 0.17176779 0.42442253 0.0024240431 344 60
0.15441948 0.17222732 0.42518306 0.0024229104 318 54
0.15656249 0.17221636 0.42481917 0.0025043658 321 54
0.15858251 0.17207225 0.42416713 0.0023304636 331 57
0.16082451 0.17216961 0.42415243 0.0023677645 314 52
0.16353221 0.1727564 0.42538616 0.0026194823 293 47
0.16552864 0.17258628 0.42480084 0.0025936614 291 46
0.16758104 0.17247812 0.42441487 0.0027389168 287 45
0.16923565 0.17196855 0.42308879 0.0025983443 296 48
0.17056569 0.17114604 0.42104122 0.0025292181 294 47
0.17260633 0.17104812 0.4208248 0.0028535496 258 38
0.17562269 0.17190765 0.42301309 0.0030062851 251 36
0.17774051 0.17187752 0.42306176 0.0028320246 245 34
0.18037914 0.17234573 0.42438668 0.0030896205 245 34
0.18265525 0.17246057 0.42489123 0.0030189261 243 34
0.18469028 0.1723478 0.42488363 0.0029168169 238 32
0.18646809 0.17200035 0.4243452 0.0031659491 233 31
0.18878955 0.17215657 0.42509642 0.0030138446 227 29
0.19059472 0.17184377 0.42473605 0.003203165 205 23
0.19194701 0.1711342 0.42343825 0.0034102169 196 21
0.19426259 0.17128961 0.42432421 0.0033161442 198 22
0.19607024 0.17099865 0.42414799 0.003718372 188 19
0.19715166 0.17008746 0.42247206 0.0039094202 179 17
0.19832161 0.16927123 0.42106766 0.0035661594 183 18
0.20044197 0.16927491 0.42174 0.0036225889 177 16
0.20371664 0.17024311 0.42485881 0.0037548649 163 12
0.20513202 0.16965361 0.42413002 0.0039569801 153 10
0.2070038 0.16944976 0.42439899 0.0039872532 158 11
0.20817213 0.16868004 0.42328203 0.0043256041 140 6
0.21028739 0.16868538 0.42414078 0.0049568554 136 5
0.21100441 0.16758008 0.42223465 0.0046682502 136 5
0.21243745 0.16705962 0.42182496 0.0045512901 136 5
nan nan nan 0 130 3
nan nan nan 0 128 3
nan nan nan 0 116 0
nan nan nan 0 101 0
nan nan nan 0 110 0
nan nan nan 0 112 0
nan nan nan 0 117 0
nan nan nan 0 117 0
-0.23358123 0.16701531 0.42522368 0.0056020981 116 0
-0.2316801 0.16713136 0.42583695 0.0055067125 126 2
-0.23062849 0.16786788 0.42759433 0.0052024024 115 0
-0.22898804 0.16818528 0.42795438 0.004839689 124 2
-0.22578667 0.16735151 0.42515787 0.0053273845 116 0
-0.2250911 0.1683768 0.42693341 0.005416627 115 0
-0.22435245 0.16938867 0.4285742 0.0050807772 123 2
nan nan nan 0 114 0
-0.22056153 0.16969009 0.42736813 0.0051514357 120 1
-0.21972314 0.17066619 0.42882699 0.0048181154 126 2
-0.21818504 0.17111245 0.42895862 0.0051131328 127 3
-0.21501422 0.17027448 0.42589328 0.0055007301 118 0
-0.21300702 0.17035051 0.42514354 0.0049411338 125 2
-0.21145976 0.17079957 0.4253504 0.004943395 134 5
-0.21064284 0.17185353 0.42708659 0.0043405541 142 7
-0.21044719 0.17344096 0.43016765 0.0043709376 141 6
-0.20847261 0.17357986 0.42968181 0.0047560581 148 8
-0.20572859 0.17307431 0.42763773 0.0048085935 139 6
-0.2035087 0.1730037 0.4267076 0.0042730747 143 7
-0.20160751 0.17320542 0.42648602 0.0040356279 156 10
-0.20048442 0.17408714 0.42797321 0.0040666773 164 13
-0.19745463 0.17331432 0.42543232 0.0040649083 167 13
-0.19628552 0.17417568 0.42694345 0.003961328 157 11
-0.19474298 0.17472109 0.42771742 0.0038796139 169 14
-0.19253503 0.17467505 0.42708492 0.0036274171 179 17
-0.19067076 0.17494325 0.42726442 0.0034195888 192 20
-0.18876812 0.17518207 0.4274157 0.0033583529 197 21
-0.18656863 0.17514768 0.42694578 0.0033286477 197 21
-0.18493971 0.17565443 0.42784059 0.0034645984 197 21
-0.18352537 0.17637941 0.42931214 0.0032691811 200 22
-0.18100195 0.17604314 0.42824784 0.0034969561 202 23
-0.17811096 0.17533684 0.42633298 0.0033126457 196 21
-0.17570166 0.17509319 0.42559245 0.0033498525 198 22
-0.1739392 0.17549604 0.42647171 0.0032390673 207 24
-0.17214294 0.17587459 0.42733988 0.0031622828 216 26
-0.17008467 0.17599165 0.42762086 0.002997722 227 29
-0.16756573 0.17562895 0.42678377 0.0029972652 227 29
-0.16513039 0.1753455 0.42618585 0.003119254 218 27
-0.16308592 0.17547508 0.42663774 0.0030196391 234 31
-0.16103612 0.17560232 0.42712906 0.0029191738 230 30
-0.15876557 0.17548905 0.42707896 0.0027852878 252 36
-0.15661876 0.17551129 0.42740044 0.002950293 250 35
-0.1544359 0.17549321 0.42766407 0.0028406952 245 34
-0.15160327 0.17472574 0.42613822 0.0026789813 269 40
-0.14942358 0.1746995 0.42645466 0.0027225269 273 42
-0.14761046 0.17510734 0.42786556 0.0027374052 256 37
-0.14505945 0.17463894 0.42716667 0.0028203619 269 40
-0.14297888 0.17473131 0.42786762 0.0025415011 289 46
-0.14070037 0.17458095 0.42800039 0.0026660613 277 43
-0.13828413 0.17425233 0.42771867 0.0027627281 288 46
-0.13611937 0.17423524 0.428222 0.0026340133 272 41
-0.13349169 0.17361553 0.42726085 0.0024667995 300 49
-0.13072832 0.17279625 0.42581987 0.002438097 306 50
-0.12859727 0.17279944 0.42641664 0.0024412137 307 51
-0.12655108 0.17291868 0.4273113 0.002425808 307 51
-0.12438273 0.17287222 0.42780563 0.0024676074 307 51
-0.1219038 0.17238499 0.42721388 0.0026005439 298 48
-0.11997566 0.17267309 0.42854741 0.0024793306 294 47
-0.11758221 0.17228985 0.4282169 0.0024283805 302 49
-0.1151231 0.17179455 0.42760545 0.0023876987 320 54
-0.1129647 0.17173776 0.42808247 0.0024191872 314 52
-0.11090123 0.17182587 0.42891815 0.0024258003 308 51
-0.10846012 0.17132092 0.42826781 0.0026398692 300 49
-0.10613459 0.17098212 0.42802453 0.0024783858 301 49
-0.10380882 0.17062913 0.42773664 0.002448306 302 49
-0.10151566 0.17031625 0.42753938 0.0025392114 324 55
-0.099416584 0.17032263 0.4281339 0.0024655252 298 48
-0.097397633 0.17046954 0.42907289 0.0023459031 330 57
-0.095107548 0.17013788 0.42879644 0.0022675607 339 59
-0.092687376 0.16955328 0.42786878 0.0022596365 338 59
-0.090687998 0.16972922 0.42884761 0.0024164307 348 62
-0.088297121 0.16916344 0.42793939 0.0023027253 328 56
-0.085899398 0.16855681 0.42691207 0.0023884426 325 55
-0.083625115 0.16816826 0.42642152 0.002399367 317 53
-0.081492797 0.16805272 0.42660904 0.0024252154 318 54
