# .PCD v0.7 - Point Cloud Data file format
VERSION 0.7
FIELDS x y z noise intensity gray
SIZE 4 4 4 4 2 1
TYPE F F F F U U
COUNT 1 1 1 1 1 1
WIDTH 898
HEIGHT 1
VIEWPOINT 0 0 0 1 0 0 0
POINTS 898
DATA ascii
-0.0006589939 0.17405534 0.50723982 0.0019824661 421 61
0.0017204216 0.1735438 0.50574678 0.0018883304 439 66
0.0040884814 0.17314491 0.50457239 0.0018968594 456 70
0.0064919186 0.17398706 0.50700468 0.0019251385 457 70
0.0088993432 0.17445506 0.50833672 0.0018803363 446 67
0.01127087 0.17417017 0.50746483 0.0019760691 434 64
0.013595506 0.17338678 0.50513107 0.0019003883 439 66
0.015968155 0.17335773 0.50498503 0.0018896444 466 72
0.018357968 0.17349839 0.50532335 0.0019413864 452 69
0.020738509 0.17352922 0.50533152 0.0018560926 455 70
0.023176063 0.1739817 0.50655699 0.0018329766 471 74
0.025587033 0.17416883 0.50699919 0.0017543541 494 80
0.027974727 0.17417911 0.50691593 0.0017948215 486 78
0.030354623 0.17414305 0.50668722 0.0018750223 450 68
0.032799434 0.17445754 0.50746733 0.001918454 461 71
0.035216779 0.17459308 0.50771558 0.0019197105 464 72
0.037640534 0.17474121 0.50798905 0.0018456407 457 70
0.04000305 0.17460431 0.50742245 0.0018598392 459 71
0.042409267 0.17466281 0.50741231 0.0018692404 458 70
0.044798441 0.17464867 0.50717926 0.0019913674 452 69
0.047309268 0.17508614 0.50824529 0.0019043201 439 66
0.049736362 0.17518646 0.50831968 0.0019377402 429 63
0.05216071 0.17526834 0.50832784 0.0020730949 442 66
0.054529317 0.17516395 0.50778317 0.0020095897 449 68
0.056926388 0.17515594 0.507505 0.0020681717 452 69
0.059364803 0.17527065 0.50756907 0.001885218 454 69
0.061914828 0.17569315 0.50851011 0.0018644488 459 71
0.064461388 0.17607455 0.50931704 0.0018796537 445 67
0.066756792 0.17576717 0.5081175 0.0020672609 439 66
0.069237709 0.1759526 0.50832832 0.0019487694 427 62
0.071792513 0.17630707 0.50901186 0.0019277405 428 63
0.074225083 0.176348 0.50877446 0.0018170297 474 75
0.076749004 0.17659657 0.50912023 0.0018849238 441 66
0.079151444 0.17655896 0.50862491 0.0019053877 445 67
0.08158116 0.1765826 0.50829041 0.0018093016 476 75
0.08402925 0.17664355 0.50804669 0.0017511846 504 82
0.086668402 0.17709143 0.50889838 0.0017443764 494 80
0.089118347 0.17713889 0.50858128 0.0018077631 480 76
0.092003144 0.17802526 0.51065338 0.0018189227 464 72
0.094484225 0.17810482 0.51039129 0.0018375714 463 72
0.096764877 0.17781207 0.50904536 0.0020569528 455 70
0.099000566 0.17745312 0.50749409 0.0018184632 476 75
0.10151502 0.17759906 0.50736964 0.0018949214 468 73
0.10412766 0.17790593 0.50768536 0.0019059363 465 72
0.10692786 0.17851187 0.50883347 0.0018775385 490 79
0.10961089 0.17889947 0.50933754 0.0017683228 487 78
0.11230665 0.17929046 0.5098303 0.0018156921 466 72
0.11467221 0.17914884 0.50878918 0.0017610691 491 79
0.11731701 0.17944026 0.50895905 0.0017592448 488 78
0.12022242 0.18011017 0.51018065 0.001835378 481 76
0.12290871 0.18043146 0.51039296 0.0019976755 472 74
0.12543221 0.1805058 0.50988728 0.0018128699 473 74
0.12826613 0.18101536 0.51059133 0.0017569965 517 86
0.13091393 0.18124788 0.51049381 0.0017352434 502 82
0.13338903 0.18123715 0.50969392 0.0019190506 508 83
0.13599975 0.18140766 0.50938749 0.0017467602 496 80
0.13903673 0.18213047 0.51061302 0.0017715312 488 78
0.14167921 0.18232012 0.51032609 0.0018991666 490 79
0.14444762 0.18266241 0.51045144 0.0020144351 473 74
0.14720093 0.18297431 0.51047748 0.0017898738 477 75
0.14993392 0.18325087 0.51039261 0.0017061293 516 85
0.15239199 0.18318792 0.50935322 0.0018014064 506 83
0.15516569 0.18350026 0.50935 0.0017029739 508 83
0.1585371 0.18449822 0.51124001 0.0018467748 503 82
0.16129194 0.18475857 0.51107877 0.0017460781 484 77
0.1639879 0.18494447 0.51071072 0.0017684734 494 80
0.16725035 0.1857539 0.51206398 0.0018760323 472 74
0.17001599 0.18599555 0.51185435 0.001762651 488 78
0.17277433 0.18622218 0.511612 0.0017698809 482 77
0.17538068 0.1862808 0.51092094 0.0018571991 463 72
0.17803557 0.18638854 0.51038176 0.0018312333 464 72
0.18091476 0.18672475 0.51048803 0.0019567567 465 72
0.18374199 0.1869987 0.5104472 0.0018750294 445 67
0.18671559 0.18741202 0.51081371 0.0018861849 435 65
0.19007923 0.18820032 0.51223159 0.0019237837 436 65
0.19278756 0.18832739 0.51188415 0.0018977467 432 64
0.19537586 0.1883354 0.51125473 0.0019402077 439 66
0.19788513 0.18826796 0.51046658 0.0019752746 409 58
0.20079742 0.18858083 0.51075816 0.0021266544 423 61
0.20384943 0.18901525 0.51142991 0.0020224922 405 57
0.20758612 0.19006567 0.51382083 0.0021416463 369 48
0.20945458 0.18940072 0.51163262 0.0021664321 365 47
0.2119028 0.18926989 0.51095033 0.0021862604 355 44
0.21504371 0.18975341 0.51198995 0.0025453821 330 38
0.21789926 0.1899766 0.51239175 0.0025747141 306 32
0.22050308 0.18997765 0.51226121 0.0027999231 295 29
0.22290261 0.18980473 0.5117296 0.0024570439 298 29
0.2253745 0.1896967 0.51144165 0.0024563218 295 29
0.22775789 0.18951748 0.51103067 0.0024721846 292 28
0.23014723 0.18934721 0.51071233 0.0028220897 281 25
0.23243155 0.18909527 0.51024181 0.0025644619 284 26
0.23501226 0.18908738 0.51049733 0.0028542124 249 17
0.23784976 0.189284 0.51137215 0.0029291764 238 14
0.24065134 0.18944812 0.51222605 0.0033142236 235 13
0.243213 0.18942186 0.51263028 0.0031566194 228 12
0.24555188 0.18922451 0.51263434 0.0032031646 210 7
0.24806431 0.18916361 0.51306933 0.003475311 218 9
0.250756 0.18923923 0.51393509 0.0036523757 201 5
0.252563 0.1886525 0.51305896 0.0032095828 208 6
0.25477627 0.18837804 0.51308548 0.0033923921 192 2
0.25674579 0.18793067 0.51269323 0.0034136511 198 4
0.25914106 0.18780074 0.51321775 0.003804134 184 0
0.26192307 0.18795088 0.51455927 0.0038756733 180 0
0.2626262 0.18662083 0.51189202 0.0039934963 172 0
0.26380292 0.18564972 0.51024497 0.0038681545 166 0
0.26534241 0.18495005 0.50938016 0.0038532703 160 0
-0.28540513 0.1785523 0.49735481 0.0043019359 146 0
-0.2802892 0.17684694 0.49317145 0.0044359406 147 0
-0.27733761 0.17648958 0.49215543 0.0040673595 157 0
-0.2761856 0.1772811 0.49389806 0.0041995151 148 0
-0.27408478 0.17747214 0.49365285 0.0043059452 144 0
-0.27231815 0.17788488 0.49381801 0.0044083628 163 0
-0.27106825 0.17864545 0.49481991 0.0039356165 157 0
-0.26926643 0.17905274 0.49477142 0.0039520445 158 0
-0.26738656 0.17941503 0.49456793 0.0046524797 161 0
-0.26542145 0.17972623 0.49421847 0.003935955 165 0
-0.26374221 0.18023854 0.4944323 0.0039592385 159 0
-0.26189825 0.18064679 0.49438018 0.003905793 161 0
-0.25990421 0.18095821 0.49409059 0.0040017478 168 0
-0.25756049 0.18102977 0.49317992 0.0038984851 167 0
-0.25734451 0.1826126 0.49641538 0.0039280322 157 0
-0.25394648 0.1819462 0.49357265 0.0040728888 169 0
-0.25199842 0.18231578 0.49358547 0.0043242173 173 0
-0.25029719 0.18287298 0.49414629 0.0038046981 167 0
-0.24866997 0.18349594 0.49492568 0.0034646117 189 2
-0.24758705 0.18453713 0.49687377 0.0040710242 188 1
-0.24408661 0.1837793 0.49402702 0.003764081 204 5
-0.24230647 0.18431446 0.49470896 0.0031694542 213 8
-0.24062788 0.18493877 0.49567938 0.0033548693 197 4
-0.23872209 0.18539974 0.49626336 0.0037340741 199 4
-0.23601118 0.18523857 0.4952381 0.0032204178 215 8
-0.2339319 0.18557502 0.4956013 0.0031173041 219 9
-0.23197027 0.1860131 0.49629375 0.0033225664 232 13
-0.22940147 0.18596855 0.49575883 0.0030866463 224 11
-0.22675666 0.18586077 0.49511826 0.0027608944 253 18
-0.22390611 0.18557997 0.49408114 0.0030595502 244 16
-0.22250041 0.18650396 0.49631485 0.0030636543 242 15
-0.22033519 0.18680519 0.49695516 0.0029523361 253 18
-0.21644747 0.18563607 0.49374989 0.0025970591 287 27
-0.21452254 0.18614267 0.49506733 0.0026889313 278 24
-0.2127202 0.18676895 0.49676841 0.0025191363 293 28
-0.21053535 0.18707034 0.49767053 0.0025026298 286 26
-0.20772675 0.18681815 0.4971641 0.0023593639 309 32
-0.2048438 0.18649203 0.49652314 0.0023627128 318 35
-0.20177053 0.18598236 0.49545369 0.0023161231 321 35
-0.19965255 0.18635149 0.49678448 0.0025512455 316 34
-0.19762693 0.18681733 0.49843183 0.0023169287 328 37
-0.19527681 0.18698452 0.49933839 0.0024220522 337 39
-0.19233106 0.1865783 0.49876505 0.0022503666 350 43
-0.1897438 0.18651368 0.49915192 0.0022627858 354 44
-0.18687722 0.18616903 0.49883357 0.0021701206 356 44
-0.18387927 0.18568233 0.49817342 0.0024098712 360 45
-0.18112324 0.18542981 0.49817684 0.0024512925 350 43
-0.17853189 0.18534119 0.49865329 0.0021581836 374 49
-0.17619677 0.18551983 0.49987954 0.0022312675 380 50
-0.1731389 0.18493167 0.49906412 0.0020113431 407 57
-0.170292 0.1845549 0.49883795 0.0021683516 377 50
-0.16756462 0.18429837 0.49895287 0.0020149746 397 55
-0.16506761 0.18429129 0.49975723 0.0020806228 398 55
-0.16285324 0.18460445 0.50144315 0.0019965761 409 58
-0.16011439 0.18432353 0.50152421 0.0019666685 413 59
-0.15708724 0.18369657 0.50066507 0.0019098069 436 65
-0.15413043 0.18313308 0.49997613 0.001937176 426 62
-0.1515602 0.18301801 0.50050825 0.002062554 417 60
-0.14864856 0.18248002 0.49987856 0.0020136544 404 57
-0.14616384 0.18245681 0.5006516 0.0021472117 388 52
-0.14347675 0.18217586 0.50070953 0.002289017 398 55
-0.14088993 0.18201458 0.501086 0.0021245715 399 55
-0.13815753 0.1816562 0.50090748 0.0021692601 408 58
-0.13537286 0.18121487 0.50048524 0.001983539 411 58
-0.13287619 0.1811499 0.50108773 0.0020272331 431 64
-0.13034521 0.18103483 0.50153708 0.0021563165 419 60
-0.12772317 0.18078652 0.50160122 0.0021476138 410 58
-0.12496345 0.18032978 0.50106895 0.002273103 398 55
-0.12208775 0.17968418 0.49999133 0.0019400921 423 61
-0.11971417 0.17976643 0.5009203 0.0020080726 407 57
-0.11725227 0.17971668 0.50146461 0.0021862381 399 55
-0.11490451 0.17984347 0.50248462 0.0021556502 409 58
-0.11237904 0.17969158 0.50270844 0.0019464056 423 61
-0.10972773 0.17932734 0.50231856 0.00205414 445 67
-0.10709331 0.17897488 0.50194144 0.0019773692 405 57
-0.10453439 0.17873518 0.50186068 0.0021362272 420 61
-0.10198876 0.17850745 0.50179422 0.0019086394 441 66
-0.099662565 0.17866205 0.50278467 0.0019318525 418 60
-0.097200871 0.17857537 0.50307858 0.0019995437 407 57
-0.094790272 0.17858055 0.50361353 0.0020261488 404 57
-0.092271939 0.17837773 0.50354397 0.0019793096 414 59
-0.089781687 0.17821977 0.50358284 0.0019619006 421 61
-0.087234758 0.17793749 0.50325227 0.0021871272 401 56
-0.084777653 0.17782763 0.50339162 0.0020967298 402 56
-0.082214206 0.17748179 0.50284529 0.001942499 419 60
-0.079516038 0.1768156 0.50137281 0.0019413745 430 63
-0.07685449 0.17619203 0.50000238 0.0020000865 407 57
-0.07444711 0.17612994 0.50020814 0.0019682623 417 60
-0.072381184 0.17689829 0.50275832 0.0020408744 397 55
-0.069763236 0.17632386 0.50147772 0.002038511 393 54
-0.067584209 0.17685743 0.50333333 0.0020571863 386 52
-0.065176323 0.17680927 0.50351977 0.0021582406 390 53
-0.062714934 0.17660677 0.50325191 0.0022323891 403 56
-0.060319629 0.17658173 0.50347513 0.0021016099 399 55
-0.058027837 0.17687011 0.50457889 0.0021908954 397 55
-0.055639327 0.17687578 0.50486296 0.0020947135 380 50
-0.053293128 0.17702253 0.50553656 0.0020206128 402 56
-0.05083793 0.17680402 0.50515413 0.002279256 387 52
-0.048417248 0.17668988 0.5050565 0.0020989741 398 55
-0.04590388 0.17620812 0.50389487 0.0021926609 408 58
-0.043607842 0.17655353 0.50508606 0.0020240489 394 54
-0.041069835 0.17590262 0.50341451 0.0020012895 413 59
-0.038750574 0.17616612 0.50434768 0.0023160791 380 50
-0.036346924 0.17605536 0.50419796 0.0021618465 408 58
-0.03395924 0.17601186 0.50422907 0.0019984995 413 59
-0.031515606 0.17564999 0.50333643 0.0019607197 411 58
-0.029159117 0.17575441 0.50376868 0.002030099 420 61
-0.026798155 0.17584798 0.50415897 0.0019896678 412 59
-0.02447859 0.17625785 0.5054456 0.0020353871 409 58
-0.022088448 0.1761931 0.50536066 0.0020973338 421 61
-0.019678615 0.17593671 0.5047152 0.0019932608 416 60
-0.017336298 0.17629641 0.50582677 0.001946423 420 61
-0.014920226 0.1759012 0.50476182 0.0021644444 412 59
-0.012542492 0.1758938 0.50479919 0.0019299671 426 62
-0.01014136 0.17547809 0.50365448 0.0019241044 422 61
-0.0077722864 0.17553267 0.50384927 0.0019712169 412 59
-0.0054129357 0.1759512 0.50507867 0.0020437229 396 55
-0.0030475843 0.17667773 0.50718224 0.0020195586 396 55
-0.00065989711 0.17668165 0.50720143 0.0022232733 417 60
0.0017218627 0.17606862 0.50543934 0.0019040357 436 65
0.0041080755 0.1763581 0.50625789 0.0020934285 421 61
0.006497819 0.17653091 0.50673139 0.0019090215 439 66
0.0088866623 0.17659302 0.50687701 0.0018600795 458 70
0.011277106 0.17665389 0.50700879 0.0018690953 447 68
0.013612367 0.17598009 0.50502199 0.0018615301 455 70
0.0160546 0.17668399 0.50697839 0.0020025419 430 63
0.018434625 0.17660965 0.5066911 0.0021351541 418 60
0.020824829 0.17663866 0.50668985 0.0019233803 451 69
0.023231424 0.17678645 0.50701863 0.001919802 434 64
0.025652602 0.17700729 0.50754601 0.0018738273 448 68
0.028015219 0.17682084 0.50689471 0.001874357 448 68
0.030403104 0.17681068 0.50673789 0.0018703003 455 70
0.032831337 0.17701954 0.50719744 0.0020861528 455 70
0.03527119 0.17725839 0.50773138 0.0019537092 442 66
0.037699752 0.17741375 0.5080142 0.0018828851 452 69
0.040104512 0.17744523 0.50793046 0.001885055 450 68
0.042479452 0.17734861 0.50746846 0.0018930937 436 65
0.044830773 0.17716904 0.50675708 0.0020297871 446 67
0.047280882 0.17737825 0.50714558 0.0020084102 443 67
0.049767286 0.17769688 0.50783378 0.0020237823 474 75
0.052183159 0.17774591 0.50773823 0.0019077415 430 63
0.054589491 0.17775956 0.50752866 0.0018902222 440 66
0.057116628 0.17814887 0.50837779 0.0019440781 455 70
0.05954938 0.17822419 0.50831676 0.002014322 471 74
0.061861064 0.17794542 0.50723237 0.0018536296 462 71
0.064482391 0.17854485 0.50863665 0.0019390015 422 61
0.067006409 0.17884132 0.50916219 0.0020003296 409 58
0.069457181 0.17892848 0.50907636 0.0020048644 398 55
0.072104588 0.17949927 0.51035047 0.0019745096 414 59
0.074549802 0.17954595 0.51011801 0.0020226699 432 64
0.076935932 0.17945187 0.50947016 0.0019637409 433 64
0.079401366 0.17954287 0.50933212 0.0018557878 453 69
0.081973888 0.17986345 0.50982845 0.001887274 449 68
0.084393784 0.17984028 0.50933343 0.0017785473 484 77
0.086587898 0.17935079 0.50750244 0.0018505557 482 77
0.089233465 0.17979757 0.50830406 0.0017567331 494 80
0.092140354 0.18073328 0.51046723 0.0018334666 455 70
0.094578266 0.18072446 0.50994307 0.0018099535 474 75
0.097058028 0.18079408 0.50962245 0.0019019971 447 68
0.09942317 0.18065202 0.50868773 0.0018037237 468 73
0.10171764 0.18039142 0.5074026 0.0018043239 471 74
0.10450301 0.18099324 0.5085243 0.0019569714 486 78
0.10711107 0.18126746 0.50870478 0.0017804297 495 80
0.10977665 0.18162459 0.50909787 0.0017703344 493 79
0.11242955 0.18194555 0.50936913 0.0019929509 457 70
0.114826 0.18184666 0.50844634 0.0017696739 491 79
0.11773273 0.1825431 0.50972718 0.0018994014 482 77
0.12049616 0.18299332 0.51029867 0.0019125842 492 79
0.12298251 0.18301313 0.50965047 0.0018693482 474 75
0.12570439 0.1833757 0.50993848 0.0018258762 468 73
0.1285307 0.18387367 0.51058292 0.0019875739 459 71
0.1312328 0.18417841 0.51067144 0.0019657589 473 74
0.1336948 0.18414114 0.50979537 0.0018995535 478 76
0.13627805 0.18426916 0.50936198 0.0019478512 487 78
0.13902748 0.18461327 0.50951052 0.001765091 487 78
0.14199629 0.18523145 0.51039881 0.0018412082 460 71
0.14475098 0.18555368 0.51045644 0.0018217807 465 72
0.14752439 0.18588851 0.51053649 0.001816474 468 73
0.150325 0.18624587 0.51066732 0.0018105652 472 74
0.15288775 0.18630162 0.50996339 0.0019499206 466 72
0.15555196 0.18647717 0.50958276 0.0017535483 490 79
0.15859282 0.18709147 0.51039588 0.0018637321 478 76
0.16158989 0.18763565 0.51101375 0.0018329165 463 72
0.1646525 0.18823794 0.51178843 0.0019059337 473 74
0.16756663 0.18865469 0.51206112 0.0018053675 478 76
0.17036387 0.18892938 0.51195532 0.0019298089 469 73
0.17273423 0.18872954 0.51057708 0.0017877795 474 75
0.17543118 0.18888713 0.51018322 0.0018425814 457 70
0.17836684 0.18929355 0.51047999 0.0018476053 450 68
0.18112327 0.18950094 0.51026237 0.0018639824 450 68
0.18389249 0.18971576 0.51009172 0.0018440736 448 68
0.18739462 0.1906704 0.51193857 0.0018686507 447 68
0.19031726 0.19101748 0.51218605 0.0020051964 423 61
0.19279021 0.19091001 0.51125437 0.0020015626 429 63
0.19512428 0.19066967 0.51001245 0.002158433 407 57
0.19778985 0.19075525 0.5096907 0.0020772156 404 57
0.20076178 0.19113036 0.51019251 0.0021694594 380 50
0.20411119 0.19185072 0.51166755 0.0022263234 359 45
0.20698898 0.19211523 0.51198208 0.0021712703 353 44
0.2102605 0.19273417 0.51329947 0.0022347504 340 40
0.21182038 0.19178817 0.51051152 0.0022434297 349 43
0.21478571 0.19212219 0.51119554 0.0024978805 330 38
0.21832341 0.19295408 0.51326865 0.0024412298 308 32
0.22137162 0.19333883 0.51421827 0.0026585585 298 29
0.22338554 0.19282183 0.51283681 0.002547553 291 28
0.22570787 0.19257991 0.51225471 0.0025178592 284 26
0.227943 0.19226994 0.51155889 0.0027090998 284 26
0.23001377 0.19182986 0.51058376 0.0027470691 286 26
0.23241331 0.19167076 0.51042241 0.0026029265 279 25
0.23492856 0.19160952 0.51058745 0.0027811804 259 19
0.23754209 0.19162892 0.51103216 0.0028037005 251 17
0.24031663 0.19177637 0.51188278 0.00322114 230 12
0.2433389 0.19211626 0.51331115 0.0033238041 220 9
0.24583638 0.19203903 0.51368719 0.0036458538 211 7
0.24854794 0.19212891 0.51457024 0.0034751282 222 10
0.25101542 0.19203021 0.5150066 0.0032509312 211 7
0.25267595 0.19132249 0.51386344 0.0036557154 197 4
0.25449303 0.19074646 0.51312339 0.0034151403 184 0
0.25604719 0.18998687 0.5119372 0.0034387396 185 1
0.25835723 0.1897977 0.51233494 0.0035123681 181 0
0.26069075 0.1896293 0.51283646 0.0039573787 178 0
0.26260713 0.18916371 0.51257867 0.0042800196 168 0
0.26379707 0.18818887 0.51097906 0.0046756095 158 0
0.26531714 0.18746591 0.5100978 0.0043560024 158 0
-0.28175861 0.17865324 0.49029112 0.0046133795 134 0
-0.28098607 0.17968257 0.49411428 0.0042913673 141 0
-0.27839577 0.17955723 0.49410608 0.0043399944 148 0
-0.27614912 0.17965323 0.49417588 0.0041700844 147 0
-0.27416503 0.17992327 0.49433219 0.0043975771 135 0
-0.27205455 0.18011437 0.4940021 0.0048447722 151 0
-0.27076474 0.18085703 0.49500939 0.0043757511 153 0
-0.26908448 0.1813499 0.4952268 0.0040085488 153 0
-0.2664443 0.18119895 0.49363482 0.0040845191 153 0
-0.26457837 0.18157654 0.4934656 0.0041627055 146 0
-0.26316184 0.18227239 0.49415979 0.0042301542 146 0
-0.26123556 0.18262486 0.49393538 0.0042788796 152 0
-0.25886402 0.18266974 0.49290413 0.0039612693 163 0
-0.25669459 0.18285947 0.49229538 0.0040008733 162 0
-0.25493932 0.1833507 0.49253088 0.0043026763 159 0
-0.25320134 0.183864 0.49285913 0.0039887498 154 0
-0.25152746 0.18443434 0.49337575 0.0038984248 162 0
-0.25021628 0.1852845 0.49467647 0.0044369856 163 0
-0.24932656 0.18646683 0.49689868 0.0036302691 176 0
-0.24716763 0.18671422 0.49666932 0.0039106617 173 0
-0.24439102 0.18649527 0.49524805 0.0035891675 182 0
-0.24222244 0.18674058 0.49510953 0.0039405357 182 0
-0.24070485 0.18749809 0.49637681 0.003433903 205 6
-0.23853856 0.18776087 0.49638397 0.0034200279 212 7
-0.23616865 0.18786724 0.49603131 0.0032905776 199 4
-0.233766 0.18794961 0.49567121 0.0033271471 195 3
-0.23179601 0.18838535 0.49629965 0.0036088051 207 6
-0.22981533 0.18882187 0.49698719 0.0030384352 223 10
-0.22642642 0.18809822 0.49468234 0.0028762012 249 17
-0.22383721 0.18803011 0.49416476 0.0032059164 239 14
-0.22163621 0.18829028 0.49457201 0.0034329102 227 11
-0.21960831 0.18870515 0.49544811 0.0028497789 247 16
-0.21789034 0.18939906 0.49711961 0.0029780548 232 13
-0.21574773 0.18973576 0.49791723 0.0027927894 257 19
-0.21308754 0.18961993 0.49759164 0.0026714073 269 22
-0.21078999 0.18982783 0.49817988 0.0027814 279 25
-0.20814131 0.18972078 0.49800506 0.0025100491 291 28
-0.20541655 0.18954085 0.49770153 0.0024970807 315 34
-0.20230733 0.18899727 0.49650371 0.0026836579 294 28
-0.20012432 0.18931621 0.49763116 0.0026643707 295 29
-0.19919369 0.19084315 0.50199527 0.0026751666 298 29
-0.19477208 0.18902171 0.49760669 0.0023351172 322 36
-0.1918252 0.18860246 0.49695745 0.0024654861 354 44
-0.18921481 0.18850727 0.4972111 0.0022652396 351 43
-0.18685554 0.1886631 0.49817395 0.0022796539 335 39
-0.18430623 0.18862869 0.49867871 0.0022860987 342 41
-0.18165569 0.18848827 0.49894291 0.0021864686 355 44
-0.179138 0.18848372 0.49960285 0.0021122147 368 47
-0.17647019 0.18831882 0.49987033 0.0021493167 366 47
-0.17356481 0.18789198 0.49946949 0.0022324917 371 48
-0.17047076 0.18724541 0.49850592 0.0022655297 380 50
-0.16775459 0.18700084 0.49863079 0.0020580974 388 52
-0.16531435 0.18706112 0.49958587 0.0022121388 377 50
-0.16283649 0.18708004 0.50044578 0.0022041609 388 52
-0.16025093 0.18697387 0.50098211 0.0020321785 389 53
-0.15743251 0.18658835 0.50077599 0.0020223765 401 56
-0.15488215 0.18651329 0.50140655 0.0019874421 410 58
-0.15151523 0.18543641 0.49934122 0.0022804977 393 54
-0.14914685 0.1855661 0.50052077 0.0020283631 404 57
-0.14626615 0.18505204 0.49995992 0.0019740374 409 58
-0.1437794 0.18502732 0.50071412 0.0020594664 396 55
-0.14111634 0.18477085 0.50083357 0.0020150228 404 57
-0.1383515 0.18436967 0.50054967 0.0021271701 409 58
-0.13572085 0.184136 0.5007081 0.0023249432 395 54
-0.13309585 0.18390155 0.50085121 0.0020960039 401 56
-0.13072956 0.18402247 0.50194955 0.001956156 417 60
-0.12818901 0.18389802 0.50236499 0.0020200254 392 54
-0.12544765 0.183475 0.5019486 0.0020247877 391 53
-0.1226862 0.18300523 0.50138557 0.0022286032 394 54
-0.12068386 0.18367167 0.5039205 0.0021356805 365 47
-0.11809212 0.18345013 0.50400478 0.0021176196 370 48
-0.11528955 0.18288475 0.50312477 0.0020301752 390 53
-0.11261323 0.18249956 0.50272 0.0020427555 409 58
-0.10992314 0.18207453 0.50218552 0.0018975862 441 66
-0.10734238 0.18181549 0.50208896 0.0021480336 414 59
-0.10483499 0.18167162 0.50229192 0.0022166679 414 59
-0.10235761 0.18157421 0.50260484 0.0020573821 383 51
-0.099867083 0.18144816 0.50282031 0.0020967021 416 60
-0.097407781 0.18137401 0.50316155 0.0020096903 401 56
-0.094787039 0.18098782 0.50261831 0.0019872475 412 59
-0.092299521 0.18084246 0.50272524 0.0021377872 407 57
-0.089839026 0.18074368 0.50294381 0.0020068544 400 56
-0.087400772 0.18068543 0.50325787 0.002225941 405 57
-0.084910698 0.18051372 0.5032385 0.0020081308 400 56
-0.082481757 0.18046574 0.50354707 0.0020314432 398 55
-0.079672702 0.17955823 0.50143868 0.0021269359 421 61
-0.076996759 0.17890377 0.5000174 0.0020200268 401 56
-0.074633069 0.17895618 0.50055468 0.0020468982 397 55
-0.072275832 0.179028 0.50113094 0.0020237514 405 57
-0.070093445 0.17955264 0.50296098 0.0019963083 411 58
-0.067822255 0.17987894 0.5042218 0.0021345406 367 47
-0.065576829 0.18029994 0.50573468 0.0022041039 372 48
-0.062896512 0.17951177 0.50384092 0.0020763949 390 53
-0.06061101 0.17983262 0.5050447 0.0021698556 362 46
-0.05820255 0.17980014 0.50524241 0.0021265997 370 48
-0.055894475 0.18008824 0.50632775 0.0021733174 360 45
-0.053279996 0.1793707 0.50457156 0.0021649387 393 54
-0.050869949 0.17930628 0.50463814 0.002052214 395 54
-0.048430525 0.17912687 0.50436771 0.0022029597 413 59
-0.046077717 0.17926581 0.5049808 0.0021333788 400 56
-0.043441277 0.17825609 0.50234461 0.0020917167 400 56
-0.041145865 0.17860988 0.50353771 0.0020374148 386 52
-0.038732652 0.17846432 0.50331134 0.0022160374 392 54
-0.036364753 0.17852218 0.50364643 0.0020757059 384 51
-0.034014083 0.17867869 0.50424826 0.0022918419 388 52
-0.03164975 0.17878157 0.50468737 0.0020166109 401 56
-0.029188585 0.17830963 0.50349218 0.0020578816 430 63
-0.026816193 0.17834444 0.50371611 0.0019783808 410 58
-0.024473516 0.17860286 0.50456065 0.0020757616 392 54
-0.022116026 0.17879725 0.50521356 0.0019616105 420 61
-0.019713543 0.1786309 0.50483632 0.0020058793 411 58
-0.017279383 0.17809235 0.50339597 0.0019100748 452 69
-0.014984957 0.17905186 0.50617951 0.0019733578 420 61
-0.012550919 0.1783907 0.50437081 0.0019366745 438 65
-0.010168674 0.1783286 0.5042451 0.0019566722 425 62
-0.0077860435 0.17821978 0.50397682 0.0022767722 383 51
-0.0054169293 0.17846066 0.50468683 0.0020200636 391 53
-0.0030468891 0.17902458 0.50630009 0.0020571349 386 52
-0.00065991492 0.17907424 0.50644863 0.0019347706 424 62
0.0017277648 0.17905979 0.50640547 0.0019335676 427 62
0.004114212 0.17900845 0.50624758 0.0020294052 400 56
0.0065021352 0.17903547 0.50630075 0.0019461621 421 61
0.0088854795 0.17895578 0.50604159 0.001917511 437 65
0.01127427 0.17899628 0.50611186 0.0019093947 431 64
0.01363153 0.17860948 0.50496364 0.0019162324 438 65
0.016052378 0.179047 0.50613511 0.0019242245 430 63
0.01848978 0.17953196 0.50742966 0.0019476656 418 60
0.020874692 0.17945449 0.50712359 0.0020769392 449 68
0.023354696 0.1801264 0.50892383 0.0020315729 426 62
0.025680766 0.17959644 0.50731742 0.0018251693 463 72
0.028123347 0.1799022 0.50806046 0.0019717708 416 60
0.030551491 0.18007481 0.508416 0.0021583471 426 62
0.032878183 0.17966785 0.50712389 0.0019005928 439 66
0.035306133 0.17983194 0.50743216 0.0019630906 417 60
0.037744198 0.18002342 0.50780553 0.0020581193 439 66
0.040159672 0.18009067 0.50781643 0.0020028984 435 65
0.042502593 0.17984335 0.50692832 0.0020807281 437 65
0.044968378 0.18011455 0.50748944 0.0020371072 445 67
0.047353659 0.18005215 0.50709778 0.0018828164 444 67
0.049802188 0.18022467 0.50735492 0.0019651705 430 63
0.052228488 0.18030454 0.50733781 0.0019028491 454 69
0.054730345 0.18062676 0.50798893 0.0020605456 429 63
0.057345875 0.18128115 0.50955933 0.0019000932 450 68
0.059759002 0.18126868 0.50924045 0.0019194878 447 68
0.062112492 0.18108328 0.50842214 0.0021409907 421 61
0.064689711 0.1815396 0.50939089 0.0019585993 428 63
0.06716162 0.18167815 0.50945234 0.0019926243 420 61
0.069606602 0.18173674 0.50927448 0.0019872489 419 60
0.072129615 0.18198825 0.50962156 0.0021189218 417 60
0.074675336 0.18227884 0.51006168 0.0019581928 426 62
0.077140629 0.18236099 0.509902 0.0020281593 428 63
0.079766385 0.18280585 0.51073956 0.001988021 445 67
0.082214497 0.18282928 0.51038241 0.0018785974 459 71
0.084638454 0.18279919 0.50985968 0.0018563436 482 77
0.087090775 0.1828303 0.50949085 0.0019803797 464 72
0.089702502 0.18318531 0.51000684 0.0018184369 469 73
0.091962479 0.18282217 0.50850648 0.0019723768 458 70
0.094751231 0.18350184 0.50988853 0.0018528727 459 71
0.097068779 0.1832577 0.50868505 0.0018555487 452 69
0.099790126 0.18376921 0.50956059 0.0019414407 463 72
0.10280949 0.18479183 0.51183122 0.0018549199 456 70
0.10485648 0.18405971 0.50922298 0.0019477131 473 74
0.10727973 0.1840065 0.50847769 0.0018347462 500 81
0.1098389 0.18418352 0.50835061 0.0017877056 488 78
0.11259805 0.18468085 0.50908756 0.0018538024 482 77
0.11549142 0.18537228 0.51033795 0.0019513287 477 75
0.11822866 0.18578939 0.51081169 0.0020026437 465 72
0.12081135 0.18595152 0.51056534 0.0017713296 493 79
0.1231853 0.18579231 0.50941986 0.0018621903 482 77
0.12579726 0.18599124 0.50924009 0.0019735517 464 72
0.12885176 0.18682416 0.5107764 0.0019145873 461 71
0.13154028 0.18710488 0.51078361 0.0018547559 458 70
0.13409932 0.18719439 0.51025319 0.0017547504 486 78
0.1365986 0.18719877 0.5094772 0.0018167781 475 75
0.13929756 0.18747172 0.50941896 0.0018018562 473 74
0.14253303 0.18844438 0.51124597 0.0018743101 471 74
0.14510711 0.18852401 0.51063639 0.0018662076 456 70
0.14780608 0.18876047 0.51044261 0.0018274951 461 71
0.15065292 0.18917467 0.51072103 0.0018880953 452 69
0.15351067 0.18958871 0.51099157 0.0020022746 437 65
0.15608402 0.18964377 0.5102911 0.0018565829 451 69
0.1587252 0.18977821 0.50980461 0.0019733284 452 69
0.16193542 0.1905781 0.51110536 0.0019894321 441 66
0.16513717 0.19134349 0.51231337 0.0020432104 446 67
0.1680916 0.19180332 0.51270789 0.0018028583 466 72
0.17024913 0.19135371 0.51068461 0.0017532771 496 80
0.17265779 0.19119546 0.50945818 0.0018202303 472 74
0.17595829 0.19201507 0.51085496 0.001893439 438 65
0.17876317 0.19227804 0.51079041 0.0018834507 445 67
0.18140091 0.19235635 0.51026165 0.0020773115 440 66
0.18427925 0.19268407 0.51042479 0.0021403427 409 58
0.187325 0.19317542 0.51105398 0.0019774614 409 58
0.19029574 0.19357713 0.51148224 0.0019577483 415 59
0.19278371 0.19348355 0.51064372 0.0020288259 394 54
0.19505033 0.19317323 0.50928074 0.0020344472 389 53
0.19778396 0.19332746 0.50919265 0.0020583558 388 52
0.20114926 0.19408725 0.51075006 0.0021423281 368 47
0.20419848 0.19452663 0.51151729 0.0022506507 379 50
0.20742814 0.1951247 0.51275826 0.0022209666 349 43
0.21028087 0.19535781 0.51309925 0.002222104 350 43
0.21277052 0.19525199 0.51261228 0.0023183594 322 36
0.21615145 0.19595675 0.51431698 0.0024375529 301 30
0.21861796 0.19582558 0.51389229 0.0026884759 279 25
0.22038744 0.19508053 0.5119229 0.0025141551 291 28
0.22339621 0.19543704 0.51291037 0.0025784329 273 23
0.22561185 0.1950995 0.51214266 0.0027939572 284 26
0.22769587 0.19465707 0.51116538 0.0026220584 275 24
0.22994117 0.19436099 0.51063728 0.0027215963 259 19
0.23235121 0.19420919 0.51055247 0.0028133052 251 17
0.23492645 0.19419728 0.51089931 0.0031791914 233 13
0.23727944 0.19400395 0.51083148 0.0031573768 232 13
0.23998579 0.19410056 0.51158887 0.0030113545 221 10
0.24318162 0.19458675 0.51343524 0.0031086421 210 7
0.24557748 0.19442938 0.5136438 0.0033727661 220 9
0.2476334 0.19400893 0.51321334 0.0039515705 200 4
0.25009871 0.19391459 0.51369977 0.0037080785 204 5
0.25219721 0.19354071 0.51349854 0.0039517316 188 1
0.2539393 0.19290365 0.51264757 0.0034287486 190 2
0.25582421 0.19238676 0.51216203 0.0037083505 181 0
0.2579698 0.19207427 0.51226604 0.0036558527 172 0
0.26010323 0.1917589 0.51240677 0.0038609039 166 0
0.26203114 0.19129963 0.51220512 0.0039870604 156 0
0.26355991 0.19056068 0.51129186 0.0040882681 155 0
0.26611993 0.19057432 0.51243591 0.0048725861 154 0
-0.28644207 0.18404464 0.49741134 0.0051854481 119 0
-0.28159288 0.18247171 0.4946219 0.0045490954 130 0
-0.27918202 0.18246534 0.49535257 0.0049408763 145 0
-0.27808583 0.18332553 0.4978227 0.0042560278 145 0
-0.27568573 0.18333368 0.4975 0.0044297427 134 0
-0.27296531 0.18312708 0.49625057 0.0045063747 136 0
-0.27102888 0.18344741 0.49619812 0.0052173315 141 0
-0.26875845 0.18354544 0.49539939 0.0047067152 135 0
-0.26615089 0.18341291 0.49389899 0.0048084115 143 0
-0.26496881 0.18426925 0.4950206 0.004635897 146 0
-0.26271319 0.18438797 0.49414641 0.0044504902 145 0
-0.2605927 0.18460461 0.49354309 0.0048260484 142 0
-0.25836825 0.18475102 0.49277154 0.0042622406 142 0
-0.25647581 0.18513985 0.49267265 0.00421884 150 0
-0.25448325 0.18546318 0.49242887 0.0042728982 140 0
-0.25278866 0.18601201 0.49281597 0.004024412 157 0
-0.25090027 0.18642761 0.49288407 0.0045417342 152 0
-0.24972755 0.18738841 0.49442756 0.0049640737 151 0
-0.2488237 0.18857214 0.49659163 0.0043479153 161 0
-0.24626851 0.18851563 0.495529 0.0044075041 167 0
-0.24406588 0.18873061 0.49522579 0.0039932267 176 0
-0.24206008 0.18910378 0.49538335 0.003401977 196 3
-0.2403878 0.18974796 0.49629658 0.0037813792 192 2
-0.23835313 0.19011658 0.49653646 0.0033408958 193 3
-0.23632558 0.1904988 0.49686223 0.0033947036 199 4
-0.23399787 0.19064467 0.49662426 0.0032158184 211 7
-0.23206344 0.19111757 0.4972924 0.003079711 225 11
-0.22960639 0.19116572 0.49691147 0.003065076 216 8
-0.22690585 0.19100995 0.49605933 0.0032478459 230 12
-0.22440797 0.1910232 0.49570629 0.0032211384 226 11
-0.22182013 0.19095933 0.49521405 0.0032501973 219 9
-0.21942765 0.19106409 0.49522054 0.0029763998 228 12
-0.21758246 0.19165334 0.49654424 0.0029272209 235 13
-0.21475145 0.19137791 0.49569014 0.002859544 252 18
-0.21293078 0.19200698 0.49724159 0.0027481557 260 20
-0.21053165 0.19212328 0.49752802 0.0030253788 267 22
-0.20813996 0.19224928 0.49790239 0.0029024433 280 25
-0.20542981 0.19208062 0.49757558 0.0028529817 281 25
-0.20279667 0.19198067 0.49748766 0.0028696361 276 24
-0.20015837 0.19187325 0.49744019 0.0027600457 278 24
-0.19819151 0.19241492 0.4991343 0.002936543 279 25
-0.19573346 0.1924876 0.49966928 0.0027433611 289 27
-0.1919169 0.19120869 0.4967474 0.0026921888 319 35
-0.18918078 0.19098651 0.49661914 0.0024633366 328 37
-0.18706357 0.19139163 0.49817109 0.0023273821 322 36
-0.18475769 0.19161211 0.49928987 0.0023647342 341 40
-0.18223552 0.1916113 0.49987516 0.002348637 361 46
-0.1795453 0.19143124 0.50003147 0.0022831887 378 50
-0.17656328 0.19093059 0.49938366 0.0021850963 355 44
-0.17361709 0.19045472 0.49882919 0.0022409118 357 45
-0.17070358 0.19000129 0.49835858 0.0021419271 362 46
-0.16788793 0.18964496 0.49816406 0.0021167444 375 49
-0.16554572 0.18982072 0.49938783 0.0022227024 346 42
-0.16282588 0.18956226 0.49948651 0.0021260546 385 52
-0.16027541 0.189496 0.50010473 0.002040277 395 54
-0.15774712 0.18945423 0.50079817 0.0020176817 396 55
-0.15380533 0.18768626 0.49692905 0.0020130801 403 56
-0.1526016 0.18925634 0.50190222 0.002066524 381 51
-0.14924917 0.18816949 0.49983406 0.0020390428 387 52
-0.14656176 0.18789856 0.49992734 0.0021394226 377 50
-0.14414169 0.18796696 0.50092018 0.0021026109 382 51
-0.14119615 0.18734057 0.50005478 0.0023284627 389 53
-0.13850681 0.18703784 0.50004315 0.0022610859 380 50
-0.13603693 0.18702587 0.5007996 0.002100917 376 49
-0.13373908 0.18725438 0.50219142 0.0020663941 376 49
-0.13084954 0.1866474 0.50133026 0.001996015 414 59
-0.12835073 0.18658525 0.50191766 0.0019646124 415 59
-0.12572113 0.18632682 0.50196284 0.0020024157 405 57
-0.12303331 0.18597014 0.50172704 0.0021944954 393 54
-0.12058073 0.18596172 0.5024147 0.0020368034 396 55
-0.11813016 0.18595617 0.50309479 0.0020533814 394 54
-0.1154967 0.18565635 0.50296175 0.002036884 397 55
-0.11251085 0.18476494 0.5012055 0.0020475509 397 55
-0.10990526 0.18447234 0.50105292 0.0020452295 417 60
-0.10745659 0.1844359 0.50157821 0.0019800314 410 58
-0.10500548 0.18439347 0.50206983 0.0020255912 400 56
-0.10261636 0.18446049 0.50284255 0.002301326 375 49
-0.1002624 0.18459548 0.50378388 0.0021594923 396 55
-0.097565018 0.18408917 0.50295681 0.0021572057 409 58
-0.095199846 0.18419985 0.50379711 0.0019708765 425 62
-0.092437506 0.18352783 0.50247771 0.0019722201 410 58
-0.090046637 0.183577 0.50311428 0.002214859 393 54
-0.087652415 0.1836219 0.50372243 0.0021358014 386 52
-0.085264765 0.18368348 0.50436002 0.0022107968 381 51
-0.082728721 0.18341967 0.50408721 0.0021196995 375 49
-0.080018938 0.18274322 0.50266147 0.0020106384 404 57
-0.077340357 0.18209828 0.50130337 0.0020765807 393 54
-0.074794278 0.1817341 0.50070006 0.002091994 383 51
-0.07260029 0.18222962 0.50244999 0.002030517 410 58
-0.070329472 0.18255952 0.50372964 0.0021576104 410 58
-0.067869037 0.18240319 0.50365269 0.0020295556 396 55
-0.065395162 0.18219793 0.50342518 0.0022186106 368 47
-0.063092083 0.18247104 0.50450474 0.0021494026 385 52
-0.060688227 0.18246272 0.50479227 0.0021108822 379 50
-0.05828204 0.18244646 0.50504339 0.0021202981 374 49
-0.055756751 0.18203992 0.50419968 0.0021234541 377 50
-0.053357285 0.18202613 0.50442928 0.0020612462 395 54
-0.050896399 0.18179166 0.50403357 0.0020566413 403 56
-0.048492316 0.18174696 0.50415027 0.002199197 393 54
-0.045971643 0.18123798 0.50296533 0.002027574 397 55
-0.043772299 0.18200941 0.5053212 0.00206112 393 54
-0.041328356 0.18179424 0.50492591 0.0020171846 399 55
-0.038800642 0.18116145 0.50335741 0.0020588876 390 53
-0.036402393 0.18108989 0.5033353 0.0020765611 384 51
-0.034094218 0.18148778 0.50460637 0.0021584304 358 45
-0.031707928 0.1814985 0.50478905 0.0021457803 416 60
-0.029284477 0.18128088 0.50432509 0.0019929302 417 60
-0.026854066 0.18097776 0.50361115 0.0022565047 388 52
-0.02448466 0.18106683 0.50397694 0.0020946132 398 55
-0.022123447 0.18124215 0.50457168 0.002115408 409 58
-0.019679785 0.18070284 0.50316536 0.0021198776 408 58
-0.017323328 0.18092605 0.5038712 0.0021851785 401 56
-0.014998318 0.18160114 0.50582474 0.0020962786 402 56
-0.012622188 0.18179584 0.50642961 0.0019992059 401 56
-0.01020433 0.1813401 0.50521147 0.0019991829 404 57
-0.0077983779 0.1808823 0.50397664 0.0020505174 393 54
-0.005429009 0.18124357 0.50501299 0.0019736129 409 58
-0.0030483294 0.1814975 0.50573957 0.0022358119 396 55
-0.00066092925 0.18174098 0.50642639 0.0020154226 404 57
0.0017308728 0.18177378 0.50651544 0.0020296534 398 55
0.0041288566 0.18204109 0.50724709 0.0020364379 392 54
0.0065065203 0.18154512 0.50584126 0.0020517558 416 60
0.0088917986 0.18147096 0.50559992 0.001985372 415 59
0.011285027 0.18155611 0.50579154 0.001964228 419 60
0.013699338 0.1818914 0.50666916 0.0020078148 426 62
0.016096734 0.18193579 0.50672531 0.0022273071 411 58
0.018496396 0.18199098 0.50680041 0.0021800769 423 61
0.020933049 0.18235575 0.50772625 0.0021689518 428 63
0.023296138 0.18207058 0.50683141 0.0019389288 432 64
0.025754733 0.1825154 0.50795704 0.0019711179 439 66
0.028174236 0.18263091 0.50815451 0.00185684 445 67
0.030676555 0.18322293 0.50966555 0.0019364833 418 60
0.033166245 0.18365873 0.51072949 0.0019264203 428 63
0.035392646 0.18267637 0.50783825 0.0019473272 423 61
0.037795138 0.18267009 0.50764918 0.0018960031 439 66
0.040261183 0.18295331 0.50825226 0.0019133704 434 64
0.042779297 0.18342786 0.50937361 0.0019390716 425 62
0.045083422 0.18298317 0.50792956 0.0019368402 456 70
0.047473438 0.1829145 0.5075171 0.0020603337 439 66
0.04982857 0.18272457 0.50675547 0.0021574951 428 63
0.052349977 0.18313375 0.50764179 0.0018381847 463 72
0.054896049 0.18358943 0.50864244 0.0020659564 421 61
0.057561051 0.18438768 0.51057637 0.0019476773 412 59
0.059953265 0.18428287 0.50999486 0.0020963815 441 66
0.062250923 0.18390682 0.50864923 0.0020375757 436 65
0.064753741 0.18414241 0.50898093 0.0021588586 413 59
0.067236386 0.18430564 0.50909728 0.0021042973 415 59
0.069666795 0.1843193 0.50878513 0.0019982227 430 63
0.072129592 0.18441488 0.50868374 0.0019257474 433 64
0.074690908 0.18474793 0.50922102 0.0021673215 425 62
0.077492349 0.18563519 0.5112676 0.0019643833 413 59
0.079995692 0.18577594 0.51123989 0.0019262423 425 62
0.082353629 0.1855807 0.51027161 0.0019693654 438 65
0.084839106 0.1856758 0.51008528 0.0020168687 445 67
0.087476261 0.18608826 0.51075292 0.0020487122 425 62
0.089714617 0.185653 0.50907701 0.0018942395 442 66
0.092265278 0.18586995 0.50917327 0.0019111122 441 66
0.095108815 0.18665047 0.51079333 0.0019009056 437 65
0.09739203 0.18631971 0.50935376 0.0020689815 437 65
0.10020236 0.18698889 0.51062942 0.0018641488 446 67
0.10278431 0.18721004 0.51066142 0.0018444272 452 69
0.10517679 0.18708377 0.50972807 0.00180364 472 74
0.10753755 0.18690819 0.50864387 0.0019286571 490 79
0.1103052 0.18743183 0.50944406 0.0018133508 463 72
0.11322059 0.18817811 0.5108279 0.0019514968 457 70
0.11587601 0.1884696 0.51095659 0.0018488789 453 69
0.11847784 0.18866354 0.51080227 0.0019626829 443 67
0.12102757 0.18876828 0.51038921 0.0018468548 455 70
0.12366073 0.18899632 0.51029223 0.0017912405 482 77
0.12623191 0.18912248 0.50990373 0.0018634599 451 69
0.1292602 0.18991539 0.5112946 0.0017916103 488 78
0.1319868 0.19024338 0.51141566 0.0019874291 454 69
0.13446154 0.19020286 0.51053214 0.0020285097 462 71
0.13702273 0.19028391 0.50996304 0.0019864826 463 72
0.13986194 0.1907412 0.51038963 0.0020180549 450 68
0.14269713 0.19117698 0.51074594 0.0019741298 466 72
0.14531416 0.19131042 0.51028478 0.002119845 440 66
0.14780992 0.19128242 0.50938696 0.0018992466 437 65
0.15099132 0.19212776 0.51080793 0.0018349182 460 71
0.15413933 0.19290349 0.51203549 0.0018808121 448 68
0.15609266 0.19218318 0.50929302 0.0018485526 455 70
0.15904926 0.19270137 0.50983721 0.0019392718 430 63
0.162139 0.19336207 0.51075995 0.0019205441 424 62
0.16563173 0.19447556 0.51288092 0.0019265988 424 62
0.16826506 0.19456142 0.51229954 0.0018338435 458 70
0.17036195 0.19403374 0.51012081 0.0017966329 479 76
0.17340446 0.19458279 0.51079232 0.0019854452 449 68
0.17622274 0.19486786 0.51079094 0.0020810738 427 62
0.17918207 0.19529851 0.51119542 0.0019407321 418 60
0.18224083 0.19582382 0.51187497 0.0019933335 413 59
0.18509471 0.19611739 0.51198041 0.001979192 403 56
0.1876588 0.19610007 0.51131135 0.0022641944 382 51
0.19028692 0.1961492 0.51085728 0.0021617641 385 52
0.19281468 0.19609499 0.51017898 0.0021112005 380 50
0.19557545 0.19627605 0.51016074 0.0021106538 370 48
0.19860148 0.19671509 0.51086277 0.0022290142 375 49
0.20168313 0.19719726 0.51172906 0.0021940926 352 43
0.2045583 0.19746783 0.51210153 0.0021703958 362 46
0.2074866 0.19778225 0.5126456 0.0022017378 351 43
0.21009314 0.19778602 0.51244479 0.0022933716 327 37
0.21266951 0.1977616 0.51223326 0.0023801343 314 34
0.21501012 0.19752118 0.51152599 0.0024036516 302 30
0.21736553 0.19729997 0.51093245 0.0025179498 285 26
0.21991321 0.1972564 0.51086378 0.0025840781 281 25
0.2223997 0.19715963 0.51072222 0.0026098303 274 23
0.22530471 0.19743183 0.51160127 0.0025929825 273 23
0.22806667 0.1975739 0.51220804 0.0026845047 267 22
0.23026773 0.19723234 0.51162475 0.002969048 252 18
0.23288581 0.19725162 0.5120402 0.0029118045 233 13
0.23512641 0.19695424 0.51169556 0.0030400595 223 10
0.23740003 0.19669072 0.51149863 0.0030893593 226 11
0.24035724 0.19699317 0.51283354 0.0030644913 228 12
0.24292527 0.19697356 0.51338965 0.003388179 208 6
0.24506982 0.19661464 0.51311725 0.0032916334 204 5
0.24678797 0.1959247 0.51203293 0.0035281456 201 5
0.24905039 0.19567664 0.5121541 0.0034702669 193 3
0.25122887 0.19536841 0.51216781 0.0035545132 176 0
0.2531848 0.19489509 0.51179624 0.0035848015 181 0
0.25555274 0.19474521 0.51232028 0.003821467 174 0
0.25784925 0.19454448 0.51275641 0.00378348 165 0
0.25958776 0.19393077 0.5121457 0.0040850551 152 0
0.26111555 0.19317314 0.51119173 0.0042097657 147 0
0.26337644 0.19296725 0.5117346 0.0045257043 147 0
0.2675961 0.19418667 0.51610333 0.0042671729 148 0
nan nan nan 0 122 0
nan nan nan 0 128 0
-0.27962774 0.18516153 0.49572897 0.0044375537 136 0
-0.27787611 0.18559781 0.49742064 0.0044474532 138 0
-0.27639201 0.186222 0.49905184 0.0045256661 134 0
-0.27383158 0.18612559 0.49832267 0.0049058781 135 0
nan nan nan 0 137 0
-0.26875871 0.18596084 0.49614096 0.0043816343 138 0
-0.26736614 0.18667489 0.49695408 0.0049612657 141 0
-0.26497003 0.18669489 0.49585158 0.0043263813 137 0
-0.26231033 0.18652783 0.49422729 0.0053238305 137 0
-0.25958547 0.18631087 0.49247199 0.0043951217 145 0
-0.25860918 0.18735665 0.49406338 0.0042149564 146 0
-0.25662968 0.1876886 0.49378815 0.0040439959 155 0
-0.25460342 0.18799239 0.49346542 0.0041083936 151 0
-0.25258645 0.18830897 0.49320728 0.0041264789 149 0
-0.25053304 0.18860431 0.49292749 0.0044958461 154 0
-0.24917676 0.18943548 0.4940815 0.0041370359 146 0
-0.24722892 0.18982901 0.49412924 0.0039901221 159 0
-0.2450071 0.190018 0.49368462 0.0038762889 165 0
-0.24298762 0.19036932 0.49370405 0.003846871 167 0
-0.24138078 0.19105448 0.49463069 0.0041270512 186 1
-0.23984583 0.1918114 0.49578488 0.003532557 205 6
-0.2380975 0.19241174 0.49657825 0.0037668068 186 1
-0.23609258 0.19281526 0.49691105 0.0034799431 195 3
-0.23388742 0.19306214 0.4968904 0.0032514168 204 5
-0.23163179 0.19327231 0.49682778 0.0037089153 199 4
-0.22936028 0.19347361 0.49679676 0.003208813 208 6
-0.22673649 0.19337897 0.4960621 0.0030552959 224 11
-0.22442763 0.19355381 0.49607643 0.0036762787 222 10
-0.22173874 0.19340111 0.49531013 0.0030878694 221 10
-0.21944037 0.19358951 0.49547699 0.0029384424 234 13
-0.21740457 0.19401653 0.49631447 0.0029976272 230 12
-0.21474271 0.19388832 0.49579224 0.0029071779 246 16
-0.21157382 0.19329385 0.49413994 0.0030887187 246 16
-0.21010245 0.19425458 0.49652472 0.002894439 252 18
-0.20782521 0.19448452 0.49710292 0.0027183513 258 19
-0.20506674 0.19426423 0.49659148 0.00275482 281 25
-0.202122 0.19385982 0.49566963 0.0027915486 273 23
-0.20004037 0.19428346 0.49692452 0.002794557 268 22
-0.19812211 0.19487861 0.49867731 0.0026929523 268 22
-0.19534715 0.1946356 0.49834254 0.0024826033 292 28
-0.19200002 0.19380867 0.4965657 0.0026143044 302 30
-0.18967505 0.19400525 0.49746263 0.0023779883 316 34
-0.18738343 0.19424167 0.49851266 0.0024345231 304 31
-0.18522285 0.19462226 0.49998152 0.0023009018 334 39
-0.18258327 0.19450311 0.50021172 0.0023400618 337 39
-0.17960802 0.19401802 0.49954039 0.002306988 339 40
-0.17664801 0.1935358 0.49891156 0.0023684017 335 39
-0.17383067 0.19319825 0.49868739 0.0022205906 335 39
-0.17135628 0.19323754 0.49946603 0.0021018626 380 50
-0.16856389 0.19291408 0.49933359 0.0023889383 357 45
-0.16549797 0.19226305 0.49837366 0.0022247476 349 43
-0.16294475 0.19219688 0.49894756 0.0021210785 364 46
-0.1601418 0.19182944 0.49875501 0.0021310921 364 46
-0.15758954 0.19175546 0.49933752 0.0023252713 371 48
-0.15546393 0.19220661 0.50129998 0.0022081845 345 41
-0.15242566 0.19152568 0.50031674 0.0020600061 387 52
-0.14943911 0.1908882 0.49944669 0.00208618 383 51
-0.14702758 0.19097617 0.50047505 0.0021513365 364 46
-0.1447811 0.19128518 0.50208426 0.0021146999 368 47
-0.14144126 0.19013521 0.49985844 0.0021960477 354 44
-0.13881585 0.18992183 0.50008512 0.0021749572 360 45
-0.1364581 0.19007358 0.50126696 0.0021459949 369 48
-0.1336474 0.18958835 0.50075984 0.0020373201 400 56
-0.13100773 0.18933207 0.50084537 0.0020396702 403 56
-0.12843157 0.18915957 0.5011403 0.0020399326 389 53
-0.12563854 0.18865468 0.50054044 0.0020386747 398 55
-0.12346872 0.18908408 0.50240654 0.0020960763 382 51
-0.12048871 0.188265 0.50094026 0.0020431986 403 56
-0.11806735 0.18830298 0.50173742 0.0020874951 381 51
-0.11564364 0.18833868 0.50251377 0.0021246234 371 48
-0.11270094 0.18751249 0.50097215 0.0020480093 396 55
-0.11005142 0.18714836 0.5006451 0.0019813306 419 60
-0.10771232 0.18730755 0.50170112 0.002072332 407 57
-0.1052497 0.18725435 0.50217223 0.0021168562 386 52
-0.10275555 0.18714127 0.50246543 0.0021069916 384 51
-0.10040142 0.18728384 0.5034284 0.0020677049 398 55
-0.09824121 0.18780419 0.50539196 0.0021816096 401 56
-0.095319927 0.18685912 0.50339377 0.002208957 406 57
-0.092846848 0.18676624 0.50367147 0.0021700792 395 54
-0.090344258 0.18660742 0.50375384 0.0021222034 386 52
-0.087775126 0.18629859 0.5034132 0.0021992207 381 51
-0.085329816 0.18624254 0.50373799 0.0021861296 363 46
-0.082927287 0.1862793 0.5042972 0.0021367487 377 50
-0.080383725 0.18599193 0.5039621 0.0020537882 385 52
-0.077764511 0.1855063 0.50307178 0.0022121093 398 55
-0.075206354 0.18513995 0.502487 0.0020568946 387 52
-0.072819628 0.18518534 0.50300336 0.0020194934 406 57
-0.070486806 0.18537562 0.5038982 0.0021056775 371 48
-0.067908563 0.18491103 0.50299722 0.0020194119 402 56
-0.065484211 0.18484683 0.50316918 0.0020961266 380 50
-0.063174836 0.18511462 0.50423038 0.0021506252 362 46
-0.060804907 0.18521914 0.50483286 0.0020885135 379 50
-0.058284212 0.18485415 0.50414079 0.0021269899 373 49
-0.055783898 0.18452515 0.50353163 0.0020932916 385 52
-0.053368084 0.18445869 0.50362432 0.002199064 395 54
-0.051057141 0.18476553 0.50472277 0.0021817738 397 55
-0.048669852 0.18481268 0.50509894 0.0020984053 379 50
-0.046154018 0.18435133 0.50407135 0.0022135095 383 51
-0.043826956 0.18463472 0.50506681 0.0021025201 375 49
-0.041451823 0.18473668 0.50555354 0.0021481724 370 48
-0.038908474 0.18405543 0.50388354 0.0021415809 377 50
-0.036452688 0.18372631 0.50316405 0.0022503189 396 55
-0.034145758 0.18415393 0.50450456 0.0020809988 389 53
-0.031737953 0.18406092 0.50440699 0.0019857287 405 57
-0.029287213 0.18368347 0.50351757 0.0021234709 388 52
-0.026967745 0.18413542 0.50488979 0.0021741232 376 49
-0.024655307 0.18472798 0.5066365 0.002013223 397 55
-0.022127109 0.1836575 0.50381017 0.0021848686 400 56
-0.019781144 0.18402363 0.50491285 0.0021294181 400 56
-0.017358204 0.18367589 0.50404543 0.002142628 405 57
-0.015026963 0.18434224 0.50594962 0.0020293915 406 57
-0.012639649 0.18444291 0.50629026 0.0019906475 416 60
-0.010210893 0.18384451 0.5047006 0.0019319182 435 65
-0.0078445785 0.18434823 0.50612545 0.0021715092 398 55
-0.005438393 0.18394592 0.50505161 0.001986024 416 60
-0.0030558684 0.18434058 0.50615484 0.0020420973 396 55
-0.00066166336 0.18433699 0.50615358 0.0019776705 420 61
0.0017354522 0.18465298 0.50701874 0.0021424838 386 52
