# .PCD v0.7 - Point Cloud Data file format
VERSION 0.7
FIELDS x y z noise intensity gray
SIZE 4 4 4 4 2 1
TYPE F F F F U U
COUNT 1 1 1 1 1 1
WIDTH 847
HEIGHT 1
VIEWPOINT 0 0 0 1 0 0 0
POINTS 847
DATA ascii
0.037432179 -0.048778135 0.39206287 0.0012135386 914 196
0.039198622 -0.048728641 0.39167094 0.0012736013 889 189
0.040875521 -0.048577093 0.3904568 0.0012176735 918 197
0.04247953 -0.048355341 0.38867629 0.0012190737 913 196
0.044164281 -0.048239723 0.38774636 0.0012114032 943 204
0.04587999 -0.048165601 0.38714731 0.0011776815 958 208
0.047329742 -0.047828257 0.38442963 0.0011845666 945 205
0.049358014 -0.04807879 0.38643375 0.0013019585 836 174
0.051153425 -0.048092939 0.3865343 0.0013106185 802 165
0.052863963 -0.048029024 0.38600352 0.0013462387 764 154
0.054854117 -0.048215054 0.3874771 0.00144757 685 132
0.057449609 -0.048904646 0.39299244 0.001650414 557 96
0.061111908 -0.050432481 0.40523726 0.0019308212 439 62
0.062949449 -0.050408471 0.40500614 0.0015631234 608 110
0.064857848 -0.050440963 0.40522286 0.0014998968 639 119
0.066696107 -0.050418604 0.40499246 0.001527595 654 123
0.068537198 -0.050399546 0.40478182 0.0015408669 626 115
0.070405826 -0.050401222 0.40473044 0.0014976277 643 120
0.072225846 -0.050368909 0.40439844 0.0014770605 662 125
0.074000545 -0.050307404 0.40382415 0.001572989 645 120
0.075926952 -0.050349526 0.40407321 0.0014807802 655 123
0.077804975 -0.050358314 0.40404564 0.0015286308 632 117
0.079775184 -0.050424963 0.40447268 0.0015340575 625 115
0.081517786 -0.050347988 0.40373781 0.0015761133 608 110
0.083474755 -0.050403889 0.40405813 0.0015458079 611 111
0.085412726 -0.050446127 0.40425777 0.0015377585 615 112
0.087431453 -0.050533228 0.40480527 0.0015075288 639 119
0.08940091 -0.050588798 0.40508783 0.001551786 625 115
0.09114933 -0.050519586 0.40435898 0.0014942874 653 123
0.092855312 -0.050430104 0.40345556 0.0014630615 675 129
0.094703011 -0.050419599 0.403171 0.0016037342 635 118
0.096642666 -0.050457519 0.40325975 0.0015457685 643 120
0.098705113 -0.050556879 0.40382463 0.0015004835 643 120
0.10089878 -0.050718512 0.40487066 0.001475663 652 122
0.10288066 -0.050769724 0.40501872 0.0015011609 647 121
0.10463653 -0.050709561 0.40426236 0.0015098274 632 117
0.10650284 -0.05070411 0.4039259 0.0015284434 640 119
0.10863902 -0.050825085 0.40457875 0.0015247592 629 116
0.11043472 -0.050785378 0.40393442 0.0015226896 615 112
0.11209264 -0.05068469 0.4027878 0.0015662033 597 107
0.11415951 -0.050769199 0.40309423 0.0015202867 639 119
0.11624163 -0.050857641 0.40341136 0.0015256716 626 115
0.11837144 -0.050963789 0.40384749 0.0015057549 646 121
0.12043986 -0.051040594 0.40402922 0.0014559522 686 132
0.12257942 -0.0511447 0.40440443 0.0014789493 657 124
0.12467518 -0.051227648 0.40458915 0.0015580725 642 120
0.12673742 -0.051294547 0.40462354 0.001441662 684 131
0.12887526 -0.051389601 0.40485582 0.0014451264 678 130
0.13115261 -0.051536724 0.40547258 0.0015262823 656 123
0.13321146 -0.051594995 0.40536448 0.0015314507 620 113
0.13554974 -0.051758304 0.40605506 0.0015221387 633 117
0.13754578 -0.051788215 0.40567225 0.0015854375 657 124
0.13942906 -0.051775433 0.40493 0.0014454506 681 131
0.14126362 -0.051745139 0.40402615 0.0014530255 679 130
0.14346132 -0.051846907 0.40412721 0.0014548717 680 130
0.14554201 -0.051904246 0.40385428 0.0014254475 696 135
0.14808552 -0.052122995 0.40480781 0.0015237676 677 129
0.15014383 -0.052167542 0.4043791 0.0014496867 676 129
0.1523367 -0.052257113 0.40427202 0.0015256644 640 119
0.15479882 -0.052435629 0.40482393 0.0015023912 659 124
0.15712368 -0.052563824 0.40495786 0.001475328 718 141
0.15936293 -0.052660577 0.4048222 0.0014902891 703 137
0.16152538 -0.05272992 0.40445012 0.0013915411 733 145
0.16468011 -0.053117678 0.4064908 0.0014576559 680 130
0.16678707 -0.053162303 0.40587789 0.0014437155 685 132
0.16898136 -0.053233396 0.40544674 0.0014914995 647 121
0.1718026 -0.053498086 0.40646785 0.0015193091 634 117
0.17429973 -0.053656962 0.40666381 0.0015106522 643 120
0.17750569 -0.054028004 0.40844741 0.0015819597 633 117
0.1795215 -0.054032568 0.40744674 0.001541044 618 113
0.18171197 -0.05408901 0.40683344 0.0016698926 575 101
0.18392673 -0.05415139 0.40626454 0.0016564949 579 102
0.18725951 -0.054538026 0.40812692 0.001613168 569 99
0.18950532 -0.054603223 0.40758812 0.0016848912 554 95
0.19253165 -0.054889563 0.40871233 0.0017009452 520 85
0.19463947 -0.054910786 0.40788215 0.0018292101 511 83
0.19695482 -0.054989524 0.40750948 0.0017461778 505 81
0.19923326 -0.055056456 0.40708578 0.0018183182 485 75
0.20165384 -0.055160899 0.40698257 0.0018397341 477 73
0.20437324 -0.055344176 0.40750945 0.0018581656 461 69
0.20644444 -0.055350024 0.40678647 0.0020342392 447 65
0.20961919 -0.055648718 0.4082776 0.002055485 399 51
0.21220089 -0.05578569 0.40864855 0.0020774016 419 57
0.21439308 -0.05581861 0.40833211 0.0020665366 395 50
0.2175118 -0.056089826 0.40983725 0.0021776666 356 39
-0.23151903 -0.050903469 0.38799283 0.0025778625 313 27
-0.22952577 -0.050895534 0.38733208 0.0023817848 325 30
-0.22824991 -0.051047899 0.38795683 0.0023851285 339 34
-0.22706601 -0.051223647 0.38882634 0.0022605476 341 35
-0.22525547 -0.051259886 0.38870835 0.0021306695 368 43
-0.22377153 -0.051371738 0.3892391 0.0022639614 381 46
-0.22234425 -0.051498704 0.38996211 0.0022002952 395 50
-0.22023405 -0.05146835 0.38957477 0.0023069256 363 41
-0.21836118 -0.051493421 0.38969043 0.0020131478 411 55
-0.21683125 -0.051600553 0.39051181 0.0020742824 416 56
-0.2146841 -0.051561423 0.39031219 0.0019407186 428 59
-0.21106617 -0.051165044 0.38749263 0.002027655 453 66
-0.20896082 -0.051131308 0.38750297 0.0019275279 477 73
-0.20865022 -0.051540263 0.39095429 0.0017504691 502 80
-0.20646504 -0.05148958 0.39100355 0.0017812054 489 77
-0.20372185 -0.051297404 0.39005506 0.0017152466 535 89
-0.20195068 -0.051348619 0.39103076 0.0016936992 527 87
-0.19996072 -0.051344663 0.39165744 0.0016141364 581 102
-0.19752093 -0.051223971 0.39145714 0.001591851 616 112
-0.19523582 -0.051141366 0.3916043 0.0016585698 607 110
-0.19288586 -0.051039927 0.39165717 0.0015879283 590 105
-0.19011883 -0.050824899 0.39087957 0.0015352131 636 118
-0.18724672 -0.050577022 0.38988063 0.0014434893 679 130
-0.18539533 -0.050602544 0.39101794 0.0014914699 675 129
-0.18310323 -0.050507039 0.39124504 0.0015053427 679 130
-0.18061349 -0.050354384 0.39104444 0.0013614901 743 148
-0.17810658 -0.050193582 0.39078829 0.0013288262 786 160
-0.1756115 -0.050032627 0.390533 0.001381569 779 158
-0.17354351 -0.049991142 0.39120942 0.0013571312 771 156
-0.17136483 -0.049916469 0.3916226 0.001307888 805 165
-0.16860914 -0.049670141 0.39067715 0.0013240431 798 163
-0.16632283 -0.049558017 0.39077124 0.0012923342 828 172
-0.16411376 -0.049466576 0.39101225 0.0012788358 835 174
-0.1621296 -0.049441576 0.39176139 0.001308418 813 168
-0.15987036 -0.049331106 0.39181358 0.0012695245 855 179
-0.15753952 -0.049195621 0.3916434 0.001348648 836 174
-0.15515888 -0.049041107 0.39129588 0.0012761405 834 174
-0.15300463 -0.048955221 0.39146969 0.0013458087 762 153
-0.15117271 -0.048971612 0.39243731 0.0013655558 793 162
-0.14936332 -0.048995815 0.39344454 0.0013894403 784 159
-0.1468153 -0.048775233 0.39245856 0.0013781044 788 161
-0.14437096 -0.048583839 0.39167631 0.0013486816 819 169
-0.14248145 -0.048576597 0.3923507 0.0013007061 815 168
-0.14062773 -0.048581511 0.39309841 0.0013004668 811 167
-0.13890789 -0.048633441 0.39420232 0.0013898963 747 149
-0.1364062 -0.048409313 0.39304143 0.0014081898 773 156
-0.13438781 -0.048352875 0.39321372 0.0013998019 737 146
-0.13236593 -0.048293579 0.39333689 0.0014188433 736 146
-0.13050586 -0.048292469 0.39390925 0.0013518506 760 153
-0.12852041 -0.048244271 0.39407334 0.0013468412 767 155
-0.12668955 -0.048253532 0.39468294 0.0014428864 722 142
-0.12467559 -0.0481923 0.39469266 0.0013578 757 152
-0.12229339 -0.047984723 0.39347875 0.0014257465 730 144
-0.12029699 -0.047924493 0.39344865 0.001376883 771 156
-0.11842031 -0.047910821 0.39377883 0.0013550068 765 154
-0.11653487 -0.047893111 0.39405468 0.0013445375 774 157
-0.11438423 -0.047764108 0.39339352 0.0014391915 731 145
-0.11257041 -0.047773819 0.39385414 0.0013488688 760 153
-0.11106455 -0.047916722 0.39539489 0.0013778022 740 147
-0.10933723 -0.047967289 0.39615655 0.0014467828 722 142
-0.10682533 -0.047669489 0.39402124 0.0014521438 721 142
-0.10512415 -0.04772938 0.39482346 0.001505574 704 137
-0.10323149 -0.047702909 0.39489448 0.0013474489 763 154
-0.10104289 -0.047536258 0.39378753 0.0013025879 806 166
-0.09860763 -0.047245286 0.39163247 0.001398436 729 144
-0.095092185 -0.046416134 0.38499516 0.0015121968 662 125
-0.091370702 -0.045452762 0.37722132 0.0013684791 747 149
-0.089133322 -0.04520449 0.37536287 0.0013614419 762 153
-0.086457454 -0.044719536 0.3715229 0.0012839816 836 174
-0.084489033 -0.044588245 0.37060609 0.0012536607 868 183
-0.082202762 -0.044280302 0.36820748 0.0012002748 933 201
-0.080355644 -0.044200893 0.36769632 0.0011827424 965 210
-0.078344047 -0.044025619 0.36637595 0.0011717824 1014 224
-0.076408364 -0.043886211 0.36534256 0.0011797464 963 210
-0.074718282 -0.043884747 0.36544725 0.0012006789 952 207
-0.072876044 -0.043791793 0.36478016 0.0011281982 1040 231
-0.071297444 -0.043856606 0.3654182 0.0011646478 993 218
-0.069855221 -0.044010483 0.36679 0.0012260176 932 201
-0.068312362 -0.04410702 0.36767614 0.0012163406 940 203
-0.066757724 -0.044200674 0.36853057 0.0012448602 940 203
-0.065057375 -0.044200234 0.36859313 0.0011877558 941 204
-0.062874407 -0.043863069 0.36584011 0.0011819493 1020 226
-0.06129206 -0.043937888 0.3665162 0.0012037859 937 202
-0.060508505 -0.044605799 0.37213409 0.0012985106 820 170
-0.058447231 -0.044343285 0.36998418 0.0013191743 786 160
-0.058346696 -0.045597296 0.38048261 0.0014128059 704 137
-0.056829784 -0.04578783 0.38210267 0.0014456843 692 134
-0.055172604 -0.045873925 0.3828463 0.0014446648 695 134
-0.054644763 -0.046935722 0.39172855 0.0014787888 680 130
-0.05300694 -0.047084101 0.39298338 0.001393207 748 149
-0.051212333 -0.047098786 0.39311826 0.0013200772 819 169
-0.049408488 -0.047105733 0.39318484 0.0012782395 900 192
-0.047382299 -0.046893165 0.39141566 0.0012332639 956 208
-0.045803428 -0.047123991 0.39334434 0.0012254813 963 210
-0.044014942 -0.047149289 0.39355466 0.0011926565 971 212
-0.042194325 -0.04714087 0.39348108 0.001211488 981 215
-0.040403787 -0.047166798 0.39369196 0.0011741299 961 209
-0.038594242 -0.047171947 0.39372751 0.0012063705 922 198
-0.036806758 -0.047205888 0.39400169 0.0011898999 948 206
-0.034920275 -0.047109801 0.39318925 0.0012425807 917 197
-0.033120606 -0.04712671 0.39331889 0.0011771743 985 216
-0.031466074 -0.047364052 0.39528733 0.0011842485 954 207
-0.029742248 -0.047519844 0.39657444 0.0012134124 916 197
-0.027935337 -0.047554601 0.39685094 0.001191257 945 205
-0.026040586 -0.047434218 0.39583263 0.001190762 990 217
-0.024167953 -0.047339026 0.3950246 0.0011249152 1045 233
-0.022434311 -0.047522753 0.39654425 0.0011202433 1073 241
-0.020651298 -0.047625199 0.39738595 0.0011574834 986 216
-0.018818721 -0.047622174 0.39734808 0.0012415509 894 190
-0.016970841 -0.047575586 0.3969475 0.0012535872 916 197
-0.015097366 -0.047437321 0.3957828 0.0012370374 940 203
-0.013272842 -0.047436003 0.39576173 0.0012182483 927 200
-0.011470926 -0.047527928 0.39651963 0.0011987872 936 202
-0.0096611828 -0.04761612 0.39724755 0.0012253402 943 204
-0.0078280456 -0.047603302 0.39713401 0.0011963132 934 202
-0.0059931744 -0.047568895 0.39684162 0.0012336916 945 205
-0.0041617714 -0.047543876 0.39662898 0.0011900272 939 203
-0.0023376301 -0.04762762 0.39732501 0.0012393129 947 205
-0.00050633273 -0.047644004 0.39746055 0.0012476501 870 184
0.0013197815 -0.047428839 0.39566594 0.001255417 906 194
0.0031561367 -0.047617845 0.39724451 0.0012858904 853 179
0.0049624625 -0.047381341 0.39527461 0.0012053979 925 199
0.0067834873 -0.047374528 0.39522234 0.0012070705 924 199
0.0085986331 -0.047338229 0.39492542 0.0012061753 928 200
0.010400814 -0.047255706 0.39424407 0.0011950864 952 207
0.012243076 -0.047352765 0.39506221 0.0012152604 956 208
0.014075652 -0.047392063 0.39539957 0.0012142664 917 197
0.015898831 -0.047394346 0.3954291 0.0013129313 853 179
0.01798304 -0.048094261 0.40128034 0.001284725 831 173
0.019824328 -0.048074555 0.40112826 0.0012242895 935 202
0.021604789 -0.047923278 0.39987901 0.0011838422 953 207
0.023379648 -0.04778434 0.39873299 0.0011574398 983 215
0.025218517 -0.047786932 0.39876837 0.0011923923 989 217
0.027002702 -0.047692593 0.39799488 0.0011742661 983 215
0.028822675 -0.047669452 0.39781544 0.0011983166 926 199
0.030619694 -0.047613371 0.3973608 0.0012292594 920 198
0.032477729 -0.04765315 0.3977057 0.0012039844 927 200
0.034050595 -0.047292612 0.39470887 0.0012291018 942 204
0.035840001 -0.047254138 0.39439878 0.0012224874 903 193
0.037552666 -0.047123075 0.39331475 0.0012255494 894 190
0.039194223 -0.046918955 0.39161938 0.0011871811 939 203
0.04106513 -0.046995275 0.39226303 0.001284857 892 190
0.042714305 -0.046822097 0.39082205 0.0012202483 912 195
0.044205762 -0.046497043 0.38811105 0.0012175563 922 198
0.045888856 -0.046390995 0.38722551 0.0012696201 918 197
0.047629908 -0.046349276 0.38687399 0.0012136716 921 198
0.049508359 -0.046439461 0.38762027 0.0013680957 795 163
0.051149234 -0.04630826 0.38651514 0.0013194842 789 161
0.053029984 -0.04639576 0.3872315 0.0014025611 763 154
0.054927252 -0.046491552 0.3880128 0.0014744636 705 137
0.056989748 -0.046716742 0.38986933 0.001534236 623 114
0.060782488 -0.048303172 0.40307987 0.0020157977 440 63
0.062932424 -0.048528723 0.40492752 0.0016522483 598 107
0.06494157 -0.048635837 0.40578073 0.0014781909 666 126
0.066626839 -0.048501179 0.40461054 0.0015148446 636 118
0.06841103 -0.048443913 0.40407926 0.0015622843 628 116
0.070381671 -0.048518218 0.40463832 0.0014912542 640 119
0.072203919 -0.048489019 0.40432653 0.0015513401 638 118
0.073984548 -0.048434049 0.40379196 0.0015219871 630 116
0.075885184 -0.048458416 0.4039104 0.0015542251 610 111
0.077786483 -0.048482027 0.40401343 0.0015321184 619 113
0.079630725 -0.048469801 0.40380856 0.0015586943 603 109
0.081570834 -0.048515152 0.40407342 0.0016195771 621 114
0.083383866 -0.048484582 0.4036957 0.0015303418 618 113
0.085297987 -0.048512846 0.403797 0.0015621926 657 124
0.087325543 -0.048603036 0.40440214 0.0015057997 644 120
0.089192756 -0.048602074 0.40423679 0.0016451119 618 113
0.091100141 -0.048622593 0.40423784 0.0015324295 650 122
0.092954017 -0.048614301 0.40398651 0.0015323305 661 125
0.09484788 -0.048626836 0.40389499 0.0015033479 642 120
0.096655443 -0.048595499 0.40342531 0.0016091595 612 111
0.09861666 -0.048641134 0.40358028 0.0015128317 634 117
0.10064178 -0.048716009 0.40396243 0.0015481586 658 124
0.10264454 -0.048777509 0.40421772 0.0015314989 628 116
0.10461295 -0.048820786 0.40430531 0.0015284107 615 112
0.10670613 -0.048919734 0.40483668 0.0015613133 638 118
0.10869276 -0.048967246 0.40492445 0.0015186425 662 125
0.11043371 -0.048904344 0.40408167 0.0015412867 627 115
0.11217467 -0.048843559 0.40323904 0.0015537591 607 110
0.11396948 -0.048807837 0.4025853 0.0015562302 624 114
0.11609773 -0.048913762 0.40308017 0.0014828463 681 131
0.1181724 -0.048994072 0.40334269 0.0014798203 670 127
0.12032512 -0.049103726 0.40382478 0.0014436027 690 133
0.1225993 -0.049258802 0.40465704 0.0015698299 640 119
0.12463302 -0.049314007 0.4046455 0.0015116545 632 117
0.12650859 -0.04930592 0.40409207 0.001500856 669 127
0.12879372 -0.049455337 0.40480542 0.0015048259 698 135
0.13118514 -0.049640626 0.40578568 0.001482283 652 122
0.13335155 -0.049736682 0.40600976 0.0015034169 648 121
0.13537866 -0.049778789 0.40576777 0.0015275022 627 115
0.13720874 -0.049748302 0.40490934 0.0014826835 677 129
0.13896158 -0.049691025 0.40380913 0.0014701994 713 140
0.14146024 -0.049898367 0.40483209 0.0014891116 701 136
0.1436937 -0.050007876 0.40503165 0.0015276178 662 125
0.14594164 -0.050119475 0.40521938 0.0014930303 649 122
0.14789777 -0.050129242 0.40455627 0.0015254841 653 123
0.14995073 -0.050171167 0.40412626 0.0014920831 669 127
0.15215161 -0.05026089 0.40405372 0.0014829247 662 125
0.15466098 -0.050448984 0.40474227 0.0014691373 677 129
0.15714566 -0.050624464 0.4052988 0.0014379194 686 132
0.15951662 -0.050759465 0.40550175 0.0015431812 685 132
0.16187415 -0.050886974 0.40561709 0.0014611719 721 142
0.16437913 -0.051057242 0.40604571 0.001458823 674 129
0.16651568 -0.051110398 0.40551808 0.0015331272 662 125
0.16869643 -0.051175728 0.40506607 0.0014710212 672 128
0.1709588 -0.051264029 0.40477619 0.0014657293 672 128
0.17338201 -0.05139799 0.40482828 0.0014970612 642 120
0.17674398 -0.051804084 0.40700203 0.0015673736 652 122
0.1795114 -0.052028816 0.40773055 0.0015832111 621 114
0.18118276 -0.05193441 0.40595177 0.0015530712 607 110
0.18400604 -0.052168641 0.40673977 0.0016175598 589 105
0.1861119 -0.052196622 0.40592018 0.0016522831 564 98
0.19010253 -0.05274697 0.40916264 0.0016833122 534 89
0.19174774 -0.052641787 0.4073287 0.0016468288 550 94
0.19408318 -0.052726317 0.40698674 0.0017299665 517 84
0.19648503 -0.052826952 0.40679607 0.0018167683 516 84
0.1990954 -0.052981019 0.40704945 0.0018142322 479 74
0.2018159 -0.05316098 0.40754035 0.0017995638 481 74
0.2045503 -0.053340949 0.40807676 0.0018676706 459 68
0.20634094 -0.053273685 0.40677813 0.0019291132 460 68
0.21023394 -0.053745199 0.40965253 0.0019945079 411 55
0.21172805 -0.05360024 0.40789416 0.0020369045 406 53
0.21404923 -0.053665441 0.40781212 0.0020837663 393 50
0.21652561 -0.053767927 0.40809202 0.0021931732 366 42
-0.23170479 -0.048985306 0.3881689 0.002355994 322 30
-0.2298491 -0.049007338 0.38775563 0.0023566515 342 35
-0.22841455 -0.049120318 0.38812849 0.0022586121 346 36
-0.22707076 -0.049254932 0.38874111 0.0023029756 335 33
-0.22532555 -0.049304072 0.38875183 0.002191691 354 39
-0.22389777 -0.049424157 0.38939795 0.0021557992 376 45
-0.22170626 -0.049376279 0.3888002 0.0020771897 396 50
-0.21950252 -0.049324807 0.38825646 0.0021176587 368 43
-0.21774225 -0.049372952 0.38858071 0.0020668393 384 47
-0.21587341 -0.049397122 0.38880146 0.0020606599 423 58
-0.21428861 -0.049487349 0.38962832 0.0020535826 423 58
-0.21101001 -0.049184453 0.38744518 0.0020449674 430 60
-0.20902805 -0.049180929 0.38770404 0.0018678133 487 76
-0.20826116 -0.049465932 0.39032301 0.0018388319 506 81
-0.20658077 -0.049537353 0.39134121 0.0018328801 487 76
-0.20363642 -0.049304128 0.3900294 0.0017230442 508 82
-0.20171487 -0.04931641 0.3907316 0.0017846497 544 92
-0.20003012 -0.049387395 0.39196953 0.0016259832 577 101
-0.19677795 -0.049068935 0.3901771 0.00153716 632 117
-0.1946817 -0.04903521 0.39070126 0.0016139192 582 103
-0.19235088 -0.048941124 0.3907938 0.0015399769 640 119
-0.18918201 -0.048629668 0.38918814 0.0015298516 655 123
-0.18753675 -0.048707463 0.39073145 0.0014964314 695 134
-0.18520185 -0.048605897 0.39086652 0.0014054142 731 145
-0.18293288 -0.04851966 0.39114586 0.0013671347 744 148
-0.18024918 -0.048320401 0.39052668 0.0013582101 753 151
-0.17780623 -0.048182052 0.3904053 0.0013535998 759 152
-0.17526335 -0.0480133 0.39003828 0.0013169058 799 164
-0.17302735 -0.047925815 0.39032808 0.0013860464 776 157
-0.17137325 -0.047999348 0.3919265 0.0013175672 787 160
-0.16870864 -0.047788307 0.39119199 0.0014300483 764 154
-0.16618192 -0.047611948 0.39072344 0.00130515 801 164
-0.16406469 -0.047550172 0.39117742 0.0013505024 769 155
-0.16191891 -0.047478572 0.3915323 0.0013269118 784 159
-0.15982355 -0.047420245 0.39197627 0.001290379 831 173
-0.15762262 -0.047328811 0.39212409 0.0013483966 801 164
-0.15508828 -0.047133826 0.39138743 0.0013074338 803 165
-0.15276428 -0.04699875 0.39111975 0.0013440618 778 158
-0.15077375 -0.046964187 0.3916623 0.001379248 785 160
-0.14886633 -0.046954963 0.39239147 0.0013969217 768 155
-0.14669231 -0.046860345 0.39238068 0.0013323933 777 158
-0.14463915 -0.046802379 0.39264953 0.0013649109 770 156
-0.14252613 -0.046723284 0.39271381 0.0013264554 800 164
-0.1404417 -0.046651568 0.39281285 0.0012903545 820 170
-0.13848077 -0.046619501 0.39321899 0.0013426641 773 156
-0.13648255 -0.04657384 0.39348465 0.0013501218 775 157
-0.13438168 -0.046491392 0.39341295 0.001404146 730 144
-0.13232936 -0.046423662 0.39343944 0.001353288 768 155
-0.13015676 -0.046311226 0.39306065 0.0013694527 775 157
-0.12844732 -0.046362706 0.39404881 0.0013820971 736 146
-0.12649465 -0.046326615 0.39426965 0.0014832108 716 140
-0.12447744 -0.046265464 0.39425325 0.0013498792 755 151
-0.12183459 -0.045966424 0.39218369 0.0014439165 754 151
-0.12025309 -0.046064798 0.39348093 0.0013676975 748 149
-0.11845762 -0.046082973 0.39407322 0.0013631122 756 152
-0.11643251 -0.046010982 0.39387313 0.0013824492 754 151
-0.11408827 -0.045808546 0.39253393 0.0013971857 729 144
-0.11238027 -0.045859136 0.3933419 0.0013560958 758 152
-0.11110002 -0.046088852 0.39566958 0.0014453437 727 143
-0.10874087 -0.045871194 0.3941381 0.001404931 719 141
-0.10703988 -0.045928467 0.39494976 0.0014005174 706 138
-0.10498274 -0.045832258 0.3944239 0.0013458919 761 153
-0.10303123 -0.04577956 0.39425465 0.0013143256 802 165
-0.10107662 -0.045723561 0.39403999 0.0013757703 771 156
-0.098880112 -0.045554049 0.39283004 0.0014009993 756 152
-0.096476071 -0.045280773 0.39070782 0.001482849 661 125
-0.091307133 -0.043674517 0.37706009 0.0013964233 741 147
-0.089226216 -0.043511499 0.3758502 0.0013535607 770 156
-0.086677842 -0.043109503 0.37256065 0.0013487135 826 171
-0.084619083 -0.042939648 0.37126249 0.0012677715 883 187
-0.082438879 -0.042699847 0.36934608 0.0012020092 930 201
-0.080549322 -0.042603631 0.36865905 0.0012035661 934 202
-0.0785392 -0.042438108 0.36736056 0.0012065268 1005 222
-0.076533668 -0.042267814 0.36600929 0.0011882265 948 206
-0.074677587 -0.042174228 0.36531156 0.0012086146 934 202
-0.073007494 -0.042183779 0.3654975 0.0011871088 962 210
-0.071530499 -0.042307992 0.36666816 0.0012259509 956 208
-0.069956549 -0.042379487 0.3673737 0.0011468687 1006 222
-0.068177529 -0.042327225 0.3669982 0.0011855043 963 210
-0.066547416 -0.042367093 0.3674137 0.0012034046 916 197
-0.06447304 -0.042118829 0.36532265 0.0011696975 988 217
-0.062793784 -0.042122278 0.36540756 0.0011615566 995 219
-0.061188854 -0.042177159 0.36593202 0.001184996 966 211
-0.059971385 -0.042509794 0.36886051 0.0012692381 859 181
-0.058168378 -0.042434685 0.36824533 0.0012210201 898 192
-0.056772705 -0.042661142 0.37024161 0.001261202 858 180
-0.055452723 -0.042960275 0.37286386 0.0014103948 723 142
-0.053973723 -0.043151401 0.37454402 0.0014577822 711 139
-0.052926313 -0.043711595 0.37942344 0.0015057228 703 137
-0.052036922 -0.044445027 0.38580275 0.00152203 685 132
-0.050815612 -0.044936821 0.3900809 0.0014599835 675 129
-0.049235236 -0.045135509 0.39181113 0.0015090085 693 134
-0.047627278 -0.045323063 0.39344135 0.0013720896 761 153
-0.045815796 -0.045324121 0.39344966 0.0013050052 841 175
-0.04391088 -0.045229033 0.39262059 0.0012408785 896 191
-0.042144615 -0.045274716 0.39301115 0.0011861381 959 209
-0.040359404 -0.045303233 0.39325058 0.0011960388 946 205
-0.038605861 -0.045371652 0.39383459 0.0012032654 946 205
-0.036837328 -0.045428332 0.39431509 0.0012061178 919 197
-0.035064653 -0.045485519 0.39479876 0.0012406651 925 199
-0.033264905 -0.045511927 0.3950142 0.0011862654 952 207
-0.031452999 -0.045523793 0.39510271 0.0011920221 953 207
-0.029769961 -0.045735098 0.39692149 0.0011713419 963 210
-0.027916474 -0.045695063 0.39655867 0.0012059389 970 212
-0.026060989 -0.045645926 0.39611673 0.0011785236 978 214
-0.024140932 -0.04546776 0.39455536 0.0011472269 999 220
-0.022465797 -0.045759451 0.39707157 0.0012163123 993 218
-0.020633394 -0.045754123 0.39701074 0.0011590864 987 217
-0.018754464 -0.04563456 0.39595941 0.0011843361 955 208
-0.016912701 -0.045589399 0.39555457 0.0012337144 942 204
-0.015059153 -0.045497712 0.39474705 0.0012174207 967 211
-0.013260155 -0.045568299 0.3953484 0.0011726726 962 210
-0.011458275 -0.04564989 0.39604646 0.0011903935 945 205
-0.009658291 -0.04577139 0.39709195 0.0011929788 942 204
-0.0078282496 -0.045773961 0.39710701 0.0011930139 939 203
-0.0059903208 -0.04571791 0.396615 0.0012000736 926 199
-0.0041628745 -0.045727752 0.39669612 0.0012212162 921 198
-0.0023307293 -0.045660958 0.39611384 0.0011997081 931 201
-0.00050413515 -0.045613073 0.39569724 0.0012124042 902 193
0.0013200503 -0.045614306 0.39570829 0.001219132 903 193
0.0031344777 -0.04547254 0.39448035 0.0013119814 854 179
0.0049548056 -0.04548905 0.394627 0.0012144049 913 196
0.0067784199 -0.045518763 0.3948898 0.0012292499 913 196
0.0085946945 -0.045497034 0.39470765 0.0012855938 910 195
0.010412253 -0.04548851 0.39464149 0.0012109503 918 197
0.012238637 -0.045515347 0.39488342 0.001224633 900 192
0.014075663 -0.045569688 0.39536524 0.0012462126 899 192
0.015909856 -0.04560345 0.39566967 0.0012524105 868 183
0.017939102 -0.04613186 0.400267 0.001325859 786 160
0.019777581 -0.046116896 0.40015072 0.0012201644 903 193
0.021597648 -0.046065208 0.39971656 0.0011708728 984 216
0.023391889 -0.045970902 0.39891306 0.0011607535 982 215
0.025201324 -0.04591801 0.39846939 0.0011629912 982 215
0.027037034 -0.04591693 0.39847556 0.0011588399 993 218
0.02883717 -0.045859419 0.3979919 0.0011960667 941 204
0.030659754 -0.04584235 0.39785907 0.0011964901 937 202
0.032419741 -0.045738891 0.39697608 0.001192783 939 203
0.034279309 -0.04577947 0.39734259 0.0012269816 899 192
0.036029015 -0.045676652 0.39646354 0.0012793711 864 182
0.037725005 -0.04551895 0.395107 0.0012871622 873 184
0.039308935 -0.045246772 0.39275521 0.0012320215 928 200
0.040962931 -0.045075655 0.39127904 0.0011998495 934 202
0.042665336 -0.044969987 0.39036891 0.0012004817 931 201
0.044293601 -0.04479789 0.38887987 0.0012298769 897 191
0.045896657 -0.044614658 0.38729167 0.0012112418 908 194
0.047457114 -0.044405278 0.38547367 0.0012231823 906 194
0.049144804 -0.044325773 0.38477993 0.001263521 861 181
0.051100411 -0.044485025 0.3861554 0.0013268165 823 170
0.052925676 -0.04452391 0.38648212 0.0013923884 755 151
0.054989699 -0.044754595 0.38846958 0.0013935681 724 143
0.057203706 -0.045088947 0.39135212 0.001530241 631 116
0.059927266 -0.045792229 0.39743134 0.0018318079 510 82
0.062717982 -0.0465036 0.40357453 0.001643935 570 99
0.064655408 -0.046559524 0.40402317 0.001518652 647 121
0.066403061 -0.046479482 0.40328583 0.0015313597 628 116
0.068259947 -0.046478175 0.40322495 0.001475515 665 126
0.070138663 -0.046491418 0.40328333 0.0015720341 659 124
0.072158419 -0.046595044 0.40411791 0.0015135853 642 120
0.074016906 -0.046591938 0.40401885 0.0015580248 627 115
0.075922489 -0.046617903 0.40416342 0.0015128908 645 120
0.077639662 -0.04652971 0.40330955 0.0015431955 636 118
0.079539724 -0.046552684 0.40341005 0.0015402142 614 112
0.081485122 -0.046600532 0.40371633 0.0015334039 613 111
0.083354123 -0.046603531 0.40362364 0.0014834146 654 123
0.085158259 -0.046570919 0.40321198 0.0014727991 665 126
0.0871519 -0.046641134 0.40367919 0.0014889451 658 124
0.089114606 -0.046692185 0.40396857 0.001445997 684 131
0.091024473 -0.04671403 0.40399283 0.0014985445 634 117
0.093100503 -0.046818551 0.40471894 0.001468092 662 125
0.094975658 -0.046819933 0.40453979 0.0014790498 664 126
0.096716851 -0.046756499 0.40378717 0.0015674145 623 114
0.098635048 -0.046779413 0.40376621 0.0015954667 613 111
0.10058761 -0.046817467 0.40386084 0.0015069309 642 120
0.10229088 -0.04674023 0.40294582 0.0015215699 625 115
0.10445283 -0.046871576 0.40381274 0.0015618575 625 115
0.10674275 -0.047054723 0.40510786 0.0015629414 630 116
0.10863894 -0.047060944 0.40486151 0.0015025571 651 122
0.11041958 -0.047017768 0.40417287 0.0015270938 629 116
0.11224693 -0.046995584 0.40364701 0.0015062721 652 122
0.11413905 -0.047000807 0.40333804 0.0015303055 651 122
0.11592513 -0.046962906 0.40264001 0.0015803789 630 116
0.11818126 -0.047113594 0.40353829 0.0015146139 638 118
0.12014557 -0.047145046 0.4033933 0.0015187433 657 124
0.12216206 -0.047195688 0.40339091 0.0014920688 660 125
0.12437755 -0.047320489 0.4039993 0.0014807264 657 124
0.12584928 -0.047162827 0.40217447 0.0014825021 655 123
0.12829426 -0.047369171 0.40343061 0.0014260762 703 137
0.13102746 -0.047674373 0.40549999 0.0014674002 680 130
0.13311677 -0.047739904 0.40550315 0.0015121977 675 129
0.13489667 -0.047694188 0.40453696 0.0014284042 717 141
0.13673879 -0.047671441 0.40374196 0.0014112556 714 140
0.13894983 -0.047776163 0.40400061 0.0014508067 697 135
0.14132991 -0.047935378 0.4046914 0.0014493174 688 132
0.14371918 -0.048093408 0.40534207 0.0014497754 677 129
0.14582041 -0.048152156 0.40512717 0.001531972 646 121
0.1476983 -0.048136566 0.4042604 0.0015519001 664 126
0.14968422 -0.04815615 0.40366313 0.0014276643 694 134
0.15194461 -0.048262406 0.40376455 0.0014495343 668 127
0.15438423 -0.048422214 0.40428415 0.0015254035 673 128
0.15694226 -0.048614752 0.40504599 0.0015218436 648 121
0.15838188 -0.048460368 0.40289223 0.0014357258 699 136
0.16171335 -0.048881564 0.40549535 0.001424293 697 135
0.16379835 -0.04892043 0.40489569 0.0014673724 690 133
0.16637912 -0.049104702 0.40547404 0.0015030032 677 129
0.16845922 -0.049138628 0.40478718 0.0014524329 671 128
0.17067294 -0.049210299 0.40439174 0.0015352995 666 126
0.17288087 -0.049278688 0.40395147 0.0014868898 664 126
0.17549357 -0.04945961 0.40441656 0.0014932444 643 120
0.17820503 -0.049664024 0.40505701 0.001514122 630 116
0.18127067 -0.049961552 0.40644154 0.0015957359 600 108
0.18386899 -0.050125189 0.40672672 0.0016415741 571 100
0.18621209 -0.050216477 0.40642384 0.0015957062 588 104
0.1886654 -0.050335221 0.40634862 0.0016627113 581 102
0.19110771 -0.050448548 0.40624064 0.0016642465 542 91
0.19314386 -0.050453413 0.4052788 0.0018470142 507 82
0.1964277 -0.050780728 0.4069294 0.0017995216 480 74
0.19899638 -0.050918356 0.4070867 0.0018054503 485 75
0.20141996 -0.051016442 0.40696636 0.0019054515 475 73
0.20399483 -0.051150497 0.4071787 0.0019951523 446 64
0.20741691 -0.051492214 0.4090932 0.0020697645 410 54
0.20953074 -0.051505629 0.40845746 0.002122405 411 55
0.21140608 -0.051460728 0.40742925 0.0020080425 411 55
0.21360938 -0.051495757 0.40710896 0.0021214427 382 46
0.21633837 -0.051655628 0.40785295 0.0021621548 379 46
-0.23214981 -0.047116615 0.388787 0.002486082 292 21
-0.23015773 -0.047110617 0.38816172 0.0023173748 331 32
-0.22885391 -0.047246609 0.38877395 0.0022639311 351 38
-0.22718289 -0.047308486 0.38884649 0.0023418746 329 32
-0.22541924 -0.047351994 0.38884246 0.0022541622 344 36
-0.22307725 -0.047273714 0.38791645 0.0021930358 386 48
-0.22135845 -0.047327273 0.38815299 0.0022014144 395 50
-0.2193139 -0.047311526 0.38790354 0.0021839819 395 50
-0.21733461 -0.0473097 0.38785261 0.0020115734 409 54
-0.21488318 -0.047204114 0.38703659 0.0020513902 439 62
-0.21340169 -0.047311626 0.38805401 0.0018532758 458 68
-0.21219696 -0.047483075 0.38968301 0.0019381469 435 61
-0.20954424 -0.047330681 0.38873968 0.0018267763 522 86
-0.20795135 -0.047417056 0.38984078 0.0017552068 520 85
-0.2061754 -0.047462944 0.39069149 0.001762176 530 88
-0.20367514 -0.047341369 0.39024079 0.0018327771 522 86
-0.20143044 -0.047277391 0.3903361 0.0016070192 568 99
-0.19823253 -0.046986226 0.38861907 0.0015486261 603 109
-0.19609721 -0.046943612 0.3890155 0.0014668006 661 125
-0.19441493 -0.047009695 0.39036962 0.0015014305 650 122
-0.19119474 -0.046701472 0.38866106 0.0015293286 628 116
-0.18918332 -0.0466852 0.38941941 0.0014547819 675 129
-0.18715721 -0.046664931 0.39018011 0.0014693607 696 135
-0.18507402 -0.04662985 0.39084542 0.0014084384 714 140
-0.18217747 -0.046386916 0.38978603 0.0014169946 714 140
-0.1798861 -0.046294536 0.39000154 0.0014310847 743 148
-0.17774481 -0.046239186 0.39053687 0.0013832506 793 162
-0.17510223 -0.046050787 0.3899489 0.0012944571 815 168
-0.17293322 -0.045984142 0.39038727 0.0013692264 773 156
-0.17011636 -0.045741804 0.3893238 0.0012980455 825 171
-0.16784103 -0.045641236 0.38945207 0.0012767299 836 174
-0.16573451 -0.045584798 0.38994285 0.0013287051 810 167
-0.16391081 -0.045605734 0.39108092 0.0013289376 793 162
-0.16196093 -0.045591645 0.39190251 0.0013293468 789 161
-0.15986247 -0.045534909 0.39233762 0.001363602 791 161
-0.15737002 -0.045363225 0.39175758 0.0013514562 788 161
-0.1548849 -0.045189522 0.39113179 0.0013437868 785 160
-0.15229411 -0.044980329 0.39016873 0.0013155403 798 163
-0.15051182 -0.045007676 0.39123061 0.0013421085 772 156
-0.14869542 -0.045025405 0.39218548 0.0013983725 733 145
-0.14541879 -0.044595763 0.38921165 0.0013525775 770 156
-0.14474413 -0.044963278 0.39316911 0.0013594044 799 164
-0.14283705 -0.044952579 0.39380002 0.0013593548 775 157
-0.14053187 -0.044814643 0.39328873 0.0013837654 747 149
-0.13845955 -0.044748239 0.39337686 0.0013587393 788 161
-0.13645685 -0.044702847 0.39362305 0.0013264896 796 163
-0.13420314 -0.044572819 0.3930968 0.0013771245 730 144
-0.13218951 -0.044520002 0.39322457 0.0013794203 745 149
-0.12978823 -0.044333272 0.39214242 0.001365005 763 154
-0.12807603 -0.044379916 0.3930991 0.0013238539 804 165
-0.12625566 -0.0443899 0.39370859 0.0013649039 748 149
-0.12378506 -0.044168171 0.39223784 0.0013546691 784 159
-0.12192332 -0.04416028 0.39264137 0.0014561331 745 149
-0.12011629 -0.044172265 0.39320001 0.0014068008 721 142
-0.11840577 -0.044220667 0.39406225 0.0013315005 788 161
-0.11637498 -0.044149097 0.39383441 0.00137601 790 161
-0.11419806 -0.044018902 0.39306179 0.0013565868 759 152
-0.11267661 -0.044141233 0.39452443 0.0014244121 746 149
-0.11083451 -0.044139925 0.39486402 0.0013745547 744 148
-0.10878307 -0.044053812 0.39442569 0.0013808487 734 145
-0.10686058 -0.044017844 0.39441752 0.0013959905 724 143
-0.10487708 -0.043955062 0.39415112 0.0013740273 743 148
-0.1030966 -0.043976635 0.39462402 0.0013581498 752 150
-0.10111797 -0.043912943 0.39431521 0.0014039972 753 151
-0.098907791 -0.043744504 0.39304885 0.0013855568 739 147
-0.095419027 -0.042993627 0.38652912 0.0014522152 672 128
-0.091571786 -0.042049419 0.37824827 0.0013931158 720 141
-0.08865872 -0.041505717 0.37354937 0.0013676257 804 165
-0.086701721 -0.041396871 0.37274832 0.0013253015 817 169
-0.084689043 -0.041256487 0.37164983 0.0012495638 879 186
-0.08251261 -0.041028865 0.36975214 0.0011851705 950 206
-0.080670722 -0.04096147 0.36928612 0.0012441014 910 195
-0.078863442 -0.040909126 0.36894444 0.0011876173 951 206
-0.07675124 -0.040692799 0.36711264 0.0012112012 947 205
-0.07487563 -0.040594965 0.36633906 0.001216582 961 209
-0.073115967 -0.040556934 0.3660953 0.0011758256 967 211
-0.071512848 -0.040605996 0.36662877 0.0012056147 986 216
-0.069956489 -0.040684622 0.36742082 0.0011685588 1004 221
-0.068123832 -0.040602475 0.36675271 0.0011845607 995 219
-0.06632439 -0.040536445 0.36622226 0.0011759285 1023 227
-0.06447506 -0.040435683 0.3653703 0.0011354969 1023 227
-0.062755913 -0.040413342 0.36521998 0.0011522948 1002 221
-0.06111848 -0.040443849 0.36554056 0.0012754172 904 193
-0.05956427 -0.040532716 0.36638263 0.001231152 885 188
-0.058255691 -0.040798794 0.368821 0.001263967 857 180
-0.056622669 -0.040846813 0.36928299 0.0012799485 857 180
-0.055354275 -0.041168995 0.37221858 0.0012812201 827 172
-0.053089593 -0.040747114 0.36842221 0.0013468181 792 162
-0.052175425 -0.041368134 0.374051 0.0013793113 746 149
-0.051272564 -0.042040855 0.38014364 0.0014500187 727 143
-0.049585622 -0.042095523 0.38064387 0.0014418123 705 137
-0.048041981 -0.042280305 0.38231722 0.0014056964 711 139
-0.046440575 -0.042426381 0.3836374 0.0014152835 708 138
-0.04534629 -0.04306563 0.38941416 0.0014482039 679 130
-0.043827415 -0.043337703 0.39186811 0.0014288026 728 144
-0.042105537 -0.043423794 0.39263794 0.0013568011 796 163
-0.040351618 -0.043483082 0.39316338 0.0012811099 855 179
-0.038592927 -0.04354256 0.39368892 0.0012675307 915 196
-0.036806673 -0.043575276 0.39397097 0.0011989255 936 202
-0.035056606 -0.04365645 0.39468989 0.0011842559 951 206
-0.033218533 -0.043630913 0.39444315 0.001156496 983 215
-0.03147338 -0.043731533 0.3953363 0.0011423202 1012 224
-0.029665403 -0.043751858 0.39550304 0.0011558714 995 219
-0.02788011 -0.043810487 0.39601588 0.0011927253 995 219
-0.025958573 -0.043648247 0.39453232 0.001159181 996 219
-0.024099486 -0.043574486 0.39384878 0.0011784169 995 219
-0.022322675 -0.043649588 0.3945111 0.0012400264 938 203
-0.020489886 -0.043618836 0.3942174 0.0011838913 950 206
-0.01873813 -0.043771394 0.39558107 0.0011989479 966 211
-0.016893093 -0.043715447 0.39506128 0.0011963623 929 200
-0.01506146 -0.04368487 0.39477196 0.001194344 943 204
-0.013247552 -0.043704361 0.39493611 0.0012035032 925 199
-0.011473224 -0.043881442 0.39652568 0.0012020468 955 208
-0.009632865 -0.043825228 0.39600846 0.0011941034 946 205
-0.0078183785 -0.043887965 0.39656755 0.001217437 925 199
-0.005994068 -0.043917019 0.39682385 0.0012069553 931 201
-0.0041497652 -0.043760769 0.39540741 0.0012163043 944 204
-0.0023275779 -0.043775622 0.3955386 0.0012212868 934 202
-0.00050471805 -0.043839544 0.39611489 0.001197479 968 211
0.0013180434 -0.043723531 0.3950671 0.0011905038 947 205
0.0031355696 -0.043669216 0.39457834 0.0012170379 915 196
0.0049516023 -0.043641627 0.3943328 0.0011971331 939 203
0.0067761471 -0.04368373 0.39471853 0.0012114532 913 196
0.0085938033 -0.043672994 0.39462838 0.001232531 890 189
0.010417209 -0.043690126 0.39479157 0.0012729765 877 186
0.012242461 -0.043708757 0.39496982 0.0012762421 883 187
0.014074303 -0.043743044 0.39529082 0.001238502 890 189
0.015936125 -0.043851964 0.39628765 0.0013240345 841 175
0.017843688 -0.044051405 0.39810362 0.0013498634 795 163
0.019759161 -0.044231359 0.39974466 0.0012113246 924 199
0.0216027 -0.044233318 0.39977807 0.0012056379 971 212
0.023436632 -0.044216853 0.39964548 0.0011665248 985 216
0.025222847 -0.04411931 0.3987807 0.001190422 953 207
0.027022578 -0.044057056 0.39823514 0.001183679 950 206
0.028821144 -0.04400095 0.39774528 0.0012084488 918 197
0.030647736 -0.043991778 0.39767957 0.0012256373 914 196
0.032470528 -0.043978494 0.39757633 0.0012689565 900 192
0.034226913 -0.043881491 0.39671567 0.001249245 876 185
0.035990946 -0.043803629 0.39602733 0.0012534688 914 196
0.037707362 -0.043678131 0.39490715 0.0012006726 924 199
0.039415572 -0.043555107 0.39380807 0.0012752851 872 184
0.040992156 -0.04330387 0.39154798 0.0011971518 938 203
0.042694531 -0.0432011 0.39062843 0.0012622132 935 202
0.044377852 -0.043088138 0.38961455 0.0012593266 897 191
0.0458089 -0.042748544 0.38654888 0.001229678 957 208
0.04738611 -0.042565651 0.38489747 0.0012253913 955 208
0.049075376 -0.042492986 0.38423964 0.0012303401 903 193
0.050859042 -0.04250427 0.3843376 0.0012633998 852 179
0.053002018 -0.042804971 0.38704896 0.0013422875 786 160
0.054911967 -0.042904038 0.38793281 0.001422353 741 147
0.056843828 -0.043013435 0.3889057 0.0014840334 705 137
0.059543647 -0.043679498 0.3949064 0.0016374993 581 102
0.062662616 -0.044604424 0.4032414 0.0017111338 533 89
0.064589553 -0.044651993 0.40363842 0.001537179 623 114
0.066442929 -0.044647478 0.4035584 0.0015116531 662 125
0.068239704 -0.044606198 0.40313953 0.001564824 642 120
0.070232131 -0.044691619 0.40385866 0.0015839515 631 116
0.07201089 -0.044640172 0.40333357 0.0014720726 664 126
0.07406126 -0.04475544 0.40430683 0.0015639169 646 121
0.075921595 -0.044753041 0.4042086 0.0015120138 653 123
0.077598676 -0.044645321 0.4031505 0.0015174692 647 121
0.079403728 -0.044614542 0.40277833 0.0014797223 672 128
0.081423372 -0.044702988 0.40347272 0.0015001871 644 120
0.083263151 -0.044690941 0.40324974 0.0015983429 651 122
0.085093945 -0.044674698 0.40297848 0.0014516346 682 131
0.087165967 -0.044783093 0.40382001 0.0014630125 667 127
0.088940658 -0.04473738 0.40326011 0.0014750508 674 129
0.09097483 -0.044821389 0.40385732 0.0015119313 642 120
0.093002804 -0.044899024 0.40438381 0.0015121421 643 120
0.094965771 -0.044942833 0.40459213 0.001502098 642 120
0.096730947 -0.04489316 0.40394515 0.001527044 619 113
0.09861809 -0.044900894 0.40380073 0.0015564096 610 111
0.10027429 -0.04480515 0.40271151 0.001497219 653 123
0.10196099 -0.04472629 0.40175968 0.0015837004 625 115
0.10428774 -0.044925984 0.40329358 0.0015478665 611 111
0.10653555 -0.045085225 0.40444586 0.0015262262 627 115
0.10854132 -0.045138299 0.40462753 0.0015327056 646 121
0.11042976 -0.0451416 0.4043451 0.0014795163 656 123
0.11229842 -0.045136839 0.40397245 0.0015204448 646 121
0.11404947 -0.045085747 0.40316689 0.00146637 672 128
0.11623295 -0.045204487 0.40386036 0.0015403376 674 129
0.11809476 -0.045196325 0.40339944 0.0014805276 659 124
0.12005457 -0.045225341 0.40324986 0.0014779835 657 124
0.12195431 -0.04523119 0.40287256 0.001606258 625 115
0.12371638 -0.045186568 0.40202475 0.001562677 658 124
0.12623915 -0.045416962 0.4035998 0.001545377 669 127
0.12851852 -0.045554284 0.40432137 0.0014802049 650 122
0.13039318 -0.045546237 0.40372831 0.0014831108 670 127
0.13266812 -0.045676239 0.40433386 0.0014711547 678 130
0.13467821 -0.045712661 0.40408495 0.0014135792 723 142
0.13669088 -0.045748938 0.40380943 0.0014110991 711 139
0.13881965 -0.045822535 0.40383694 0.0015108672 680 130
0.14119199 -0.045973446 0.40451747 0.0015142334 666 126
0.1434707 -0.046090245 0.40486836 0.0015251299 681 131
0.14556487 -0.046145447 0.40464991 0.0014694788 676 129
0.14753148 -0.046159305 0.40404186 0.0014773853 658 124
0.14944126 -0.046155255 0.40325096 0.0014968248 680 130
0.15184847 -0.046302989 0.40375787 0.0014753048 687 132
0.15413885 -0.046411835 0.40389565 0.0014144282 709 138
0.15651554 -0.046543658 0.40420377 0.0014668192 705 137
0.15900187 -0.046704452 0.40473348 0.0014552509 674 129
0.16111919 -0.046754282 0.40427357 0.0014874635 666 126
0.16381083 -0.046967592 0.4051992 0.0015044971 656 123
0.16597147 -0.047025405 0.40475625 0.0015584709 659 124
0.16862993 -0.047221288 0.40547636 0.001525639 626 115
0.17073502 -0.047259472 0.40481958 0.0014863105 650 122
0.17285107 -0.047299787 0.4041636 0.0014980012 644 120
0.17530355 -0.047430214 0.40426102 0.0015016915 651 122
0.17837395 -0.047723066 0.40572393 0.0015973786 640 119
0.18100257 -0.047892559 0.40612212 0.0016789499 597 107
0.18336141 -0.047987752 0.40588281 0.0015720873 601 108
0.18623108 -0.048213147 0.40674073 0.0015933814 582 103
0.188391 -0.048251938 0.40602729 0.0016445068 558 96
0.19056575 -0.048293669 0.40535095 0.0016752931 534 89
0.19296449 -0.048390701 0.40515637 0.0018339193 516 84
0.19605747 -0.048658028 0.40640715 0.0018488766 501 80
0.19903925 -0.048892573 0.40740818 0.0017755948 489 77
0.20124865 -0.048934542 0.40684035 0.0018106843 479 74
0.20344873 -0.048973445 0.40629396 0.0018202142 476 73
0.20672885 -0.049268965 0.40792623 0.0019497087 422 58
0.20877914 -0.049268458 0.4071646 0.0019927088 418 57
0.21093728 -0.049293164 0.4066793 0.0020294283 416 56
0.21382946 -0.049487282 0.40766278 0.0021341629 384 47
0.21720542 -0.049788576 0.40960249 0.0022066392 373 44
-0.23052463 -0.044837736 0.38594615 0.0024070677 311 26
-0.22975416 -0.045068923 0.38737398 0.0024975671 331 32
-0.22883965 -0.045275595 0.38865554 0.0022686182 341 35
-0.22745341 -0.045391712 0.38922954 0.0024509775 334 33
-0.22473188 -0.045241043 0.38759208 0.0022919795 339 34
-0.22321342 -0.045332052 0.38810444 0.0021330386 376 45
-0.2214589 -0.045376305 0.38829696 0.0020945631 383 47
-0.21941985 -0.045362536 0.38807622 0.0020643498 393 50
-0.21747448 -0.04536806 0.38810563 0.0019771322 418 57
-0.21601579 -0.045476139 0.38909864 0.001918051 452 66
-0.21437182 -0.045546852 0.38985923 0.0018153165 473 72
-0.21252078 -0.045574479 0.39033809 0.0017537699 501 80
-0.20997521 -0.045452278 0.38961878 0.0018326872 521 86
-0.20775042 -0.045397863 0.38956288 0.0017815878 514 84
-0.20590533 -0.045426171 0.39029741 0.0017080639 522 86
-0.2038217 -0.045401882 0.39065745 0.0017827461 523 86
-0.20061982 -0.045125585 0.38891774 0.0016165434 586 104
-0.19829579 -0.045043249 0.38891193 0.0016787025 597 107
-0.19641916 -0.045061912 0.38983873 0.0015809004 627 115
-0.19410568 -0.044979714 0.38994715 0.0015215781 624 114
-0.19197342 -0.044938274 0.39045525 0.0015779962 629 116
-0.18967941 -0.044857722 0.39066315 0.0015538989 636 118
-0.18711939 -0.044711933 0.39033321 0.0014226972 702 136
-0.18467048 -0.044589914 0.39023334 0.0014358656 720 141
-0.18196486 -0.044402666 0.38957766 0.0013823936 731 145
-0.17980635 -0.04434634 0.39008075 0.0013605942 754 151
-0.17765516 -0.044290613 0.39059636 0.0013379937 782 159
-0.1752551 -0.044170946 0.39054868 0.0013480094 811 167
-0.17236359 -0.043923385 0.38936162 0.0012895562 829 172
-0.17034563 -0.043895386 0.39010984 0.0013053613 802 165
-0.16757695 -0.043671105 0.38909975 0.0013327675 835 174
-0.16572201 -0.043682538 0.39017338 0.0013690032 749 150
-0.16370936 -0.043652184 0.39085889 0.0013588666 774 157
-0.161571 -0.043587204 0.39121535 0.0013802473 783 159
-0.15958653 -0.043562703 0.39191425 0.0013204863 791 161
-0.1573762 -0.043475207 0.39202338 0.0013923695 780 158
-0.15407455 -0.043080445 0.38933015 0.0013452705 814 168
-0.1519047 -0.042996321 0.3894116 0.001287248 836 174
-0.15057473 -0.043150786 0.3916316 0.0013098093 820 170
-0.1485844 -0.043117523 0.39212549 0.0013115919 806 166
-0.14653935 -0.043067329 0.39243898 0.001460866 718 141
-0.14464334 -0.043060206 0.39311871 0.0014131409 744 148
-0.14260772 -0.04301079 0.39338604 0.0013770295 745 149
-0.14049394 -0.042936172 0.39339542 0.0013323629 788 161
-0.13850127 -0.042897053 0.39370298 0.0013962755 727 143
-0.13620345 -0.042761069 0.39309394 0.0014570176 746 149
-0.13402295 -0.042658661 0.3927651 0.0013639922 755 151
-0.13211423 -0.042641103 0.3931914 0.0013851192 739 147
-0.13018559 -0.042616516 0.39352834 0.0013742344 743 148
-0.12796544 -0.042494416 0.39293921 0.0013164059 789 161
-0.12601848 -0.042460799 0.39314324 0.0013649664 752 150
-0.12401789 -0.042407844 0.3931444 0.0013350713 777 158
-0.1219733 -0.04233801 0.39296556 0.001399941 746 149
-0.12027382 -0.042387664 0.39387387 0.0013684098 750 150
-0.11835288 -0.042359602 0.39403906 0.001396424 720 141
-0.11632907 -0.042293254 0.3938266 0.0013987866 731 145
-0.11457947 -0.042326063 0.39451706 0.0013790845 731 145
-0.11253613 -0.042249668 0.39416978 0.0014052879 754 151
-0.11064841 -0.042230129 0.39433312 0.001406615 722 142
-0.10868466 -0.042180438 0.39419585 0.0014554856 737 146
-0.10652728 -0.042052582 0.39330906 0.0014150698 738 147
-0.10486712 -0.042119991 0.39423066 0.0013883299 762 153
-0.10301789 -0.042112496 0.39443487 0.0013988966 782 159
-0.10090381 -0.041994497 0.39358723 0.0013622114 745 149
-0.098734982 -0.041848958 0.39246413 0.0014093379 706 138
-0.094883427 -0.040971335 0.38445491 0.0015222928 640 119
-0.091884971 -0.040435556 0.3796317 0.0014156791 703 137
-0.088731162 -0.039809182 0.37393865 0.0013044304 818 169
-0.086562343 -0.039608601 0.37222856 0.0012399534 882 187
-0.08460556 -0.039498866 0.37135854 0.0012353654 884 188
-0.082481116 -0.039304681 0.3696816 0.0011904285 953 207
-0.080664106 -0.03925189 0.36932236 0.0011938409 932 201
-0.078965388 -0.039255623 0.36948395 0.0012389104 889 189
-0.077068515 -0.039158836 0.36868876 0.0012236808 907 194
-0.075061589 -0.039000496 0.36730337 0.0011932639 953 207
-0.073404908 -0.039021023 0.36759281 0.0012066946 923 199
-0.071695119 -0.03901362 0.36761025 0.0011360256 1022 226
-0.069711052 -0.038852997 0.36617503 0.0011464164 1020 226
-0.067991473 -0.038835462 0.36607981 0.0011632279 1018 225
-0.066342026 -0.038858119 0.36635584 0.0011875968 988 217
-0.064579681 -0.038814101 0.36599591 0.0011897205 978 214
-0.062814377 -0.038765896 0.36558953 0.0011403365 1014 224
-0.061128274 -0.038765259 0.36562514 0.0011756798 989 217
-0.05949128 -0.038796619 0.36595649 0.0011944002 933 201
-0.058111839 -0.039002657 0.36793005 0.0012337738 885 188
-0.056306541 -0.038926672 0.36723784 0.0012031788 930 201
-0.054509617 -0.038851954 0.36655244 0.001178495 943 204
-0.052913692 -0.038920294 0.36721215 0.0012836129 880 186
-0.051351052 -0.039018441 0.3681488 0.0012602982 857 180
-0.049790628 -0.03912504 0.36916128 0.0012833548 855 179
