# .PCD v0.7 - Point Cloud Data file format
VERSION 0.7
FIELDS x y z noise intensity gray
SIZE 4 4 4 4 2 1
TYPE F F F F U U
COUNT 1 1 1 1 1 1
WIDTH 861
HEIGHT 1
VIEWPOINT 0 0 0 1 0 0 0
POINTS 861
DATA ascii
0.13852492 -0.14149722 0.48228347 0.0015026454 712 157
0.14090349 -0.14155664 0.48170707 0.001431416 750 168
0.14349174 -0.14182138 0.48180684 0.0014015014 739 165
0.14611316 -0.14210992 0.48196369 0.0013821895 734 164
0.14889547 -0.14254344 0.48258835 0.0013968456 716 159
0.1511855 -0.14249955 0.48157522 0.0013652316 781 177
0.15384269 -0.14279778 0.48169851 0.0013620282 743 166
0.15642311 -0.14301693 0.48153454 0.0013438725 770 174
0.15911715 -0.14333194 0.48167425 0.0013589809 761 172
0.16191873 -0.14373323 0.48208487 0.0014724301 729 162
0.1645254 -0.14395249 0.48186845 0.0013610838 742 166
0.16705902 -0.14410251 0.4814074 0.0013772888 745 167
0.16963179 -0.14428169 0.48103353 0.0015034379 705 155
0.17264292 -0.14482366 0.48185894 0.0015300934 698 153
0.17512363 -0.14491197 0.48116845 0.001422183 687 150
0.17762285 -0.14501305 0.48052001 0.0014807854 674 146
0.18035753 -0.14530115 0.48049337 0.0014497413 669 145
0.1828063 -0.14535441 0.47969648 0.0014782947 652 140
0.18544105 -0.14555228 0.47938821 0.0015385265 648 139
0.18922637 -0.14663672 0.48200905 0.0015517103 604 126
0.19235231 -0.14718941 0.48289385 0.0016475283 611 128
0.19487537 -0.14727278 0.48226237 0.0017392413 575 118
0.19738409 -0.14734341 0.48162088 0.0016477278 542 108
0.19975309 -0.14730929 0.48067454 0.0018323445 529 104
0.20244162 -0.14750881 0.48053265 0.0017448142 535 106
0.20566365 -0.14808777 0.48167074 0.001840962 543 108
0.20802176 -0.14803842 0.48081553 0.0018469691 509 99
0.2101467 -0.14782618 0.47948995 0.0018041106 508 98
0.21362588 -0.14856054 0.48129448 0.0018551149 457 84
0.21705297 -0.14924254 0.48299021 0.0021391127 411 70
0.21974379 -0.14940873 0.48308325 0.0019355149 420 73
0.22220714 -0.14941829 0.48274174 0.0020031708 408 69
0.22453208 -0.14933559 0.4821772 0.0020697329 393 65
0.22718216 -0.14946863 0.48238561 0.0021431446 371 59
0.22933604 -0.14927579 0.48162034 0.0023127273 380 61
0.23195304 -0.14938532 0.48190933 0.0023289006 369 58
0.23453742 -0.14947179 0.48220253 0.0024520403 359 55
0.23762883 -0.14987621 0.48360062 0.0025484026 325 45
0.24014594 -0.14991389 0.48389375 0.0025943695 309 41
0.24207656 -0.14958836 0.48309141 0.0024056975 315 43
0.24373509 -0.14910291 0.48184678 0.0024247011 306 40
0.2455987 -0.14875135 0.48110676 0.0025884251 280 32
0.24747981 -0.14841716 0.48049301 0.0027773385 253 25
0.25119054 -0.14917606 0.48348978 0.0028460652 240 21
0.25341967 -0.14904892 0.48368523 0.0031037205 232 19
0.25402796 -0.14798002 0.48088512 0.0031569591 232 19
-0.27391583 -0.13896561 0.47213414 0.0031057526 219 15
-0.27110946 -0.13871467 0.4700489 0.0034465091 223 16
-0.27143922 -0.14007783 0.47344261 0.0030033696 225 17
-0.26917776 -0.14011581 0.47237501 0.0033307611 202 10
-0.26834026 -0.14090215 0.47385967 0.00407675 152 0
-0.26697716 -0.14142397 0.47448477 0.0036691928 199 9
-0.26537672 -0.14182824 0.47475204 0.0029886868 228 17
-0.26202214 -0.14129387 0.47192469 0.0032830019 246 23
-0.25995851 -0.14145227 0.47146276 0.0029476569 234 19
-0.25837427 -0.14187674 0.4719348 0.0027508752 258 26
-0.25743282 -0.14266536 0.47366345 0.0031895484 257 26
-0.25587749 -0.14312527 0.47434914 0.0032056486 253 25
-0.25315359 -0.14293401 0.47293335 0.0029456986 245 22
-0.24995434 -0.14246823 0.47067308 0.0027501304 279 32
-0.24892189 -0.14324039 0.47256407 0.0025211368 293 36
-0.24730282 -0.14368662 0.47343954 0.0023125575 328 46
-0.24541622 -0.14398466 0.47389132 0.002326878 328 46
-0.24382949 -0.14446625 0.47501445 0.0023573865 327 46
-0.24124673 -0.14436139 0.47428006 0.0022806001 337 49
-0.23838906 -0.14408831 0.47306761 0.0022594978 360 56
-0.23605125 -0.14412704 0.47295466 0.0021242015 367 58
-0.23342606 -0.14398931 0.47233927 0.0022489489 380 61
-0.23129073 -0.14415403 0.47279355 0.0019971551 411 70
-0.22939135 -0.14447081 0.47382462 0.0020205691 402 68
-0.22722821 -0.14462642 0.47440568 0.00206711 412 71
-0.2229142 -0.14340173 0.47053629 0.0019892298 453 82
-0.22076271 -0.14355671 0.47126994 0.0020510878 445 80
-0.21899091 -0.14396469 0.47291106 0.0018618556 447 81
-0.21675143 -0.14407085 0.47363594 0.0019450798 490 93
-0.21387289 -0.14374988 0.47302777 0.0017684967 495 95
-0.2113307 -0.14365025 0.47321543 0.0017516173 503 97
-0.20888966 -0.1436179 0.47368971 0.0017554041 577 118
-0.20639141 -0.14354499 0.47409108 0.0016514905 563 114
-0.20346901 -0.14317191 0.4735561 0.0017905551 530 105
-0.20062506 -0.14284585 0.47322556 0.0015499725 603 126
-0.19771102 -0.14246145 0.47274518 0.0015534423 636 135
-0.19487639 -0.14212562 0.47246408 0.0015037775 646 138
-0.19250901 -0.1421265 0.47333732 0.0015619977 599 125
-0.19025701 -0.14221363 0.47453013 0.0015278268 621 131
-0.18732446 -0.14178784 0.47403607 0.0014310717 692 152
-0.18482445 -0.14168277 0.47463214 0.0014303414 686 150
-0.18230227 -0.14155774 0.47517696 0.0014624464 691 151
-0.17935909 -0.14109826 0.47460723 0.0013984973 733 163
-0.17650639 -0.14069867 0.47424108 0.0014637243 747 167
-0.17414922 -0.14068864 0.47518918 0.0014363771 739 165
-0.17160529 -0.14052548 0.47561914 0.0013768668 770 174
-0.1690543 -0.14035185 0.47600853 0.0013266302 801 183
-0.16582644 -0.13960356 0.47443667 0.0013371716 787 179
-0.16386804 -0.13991788 0.47646442 0.0013272858 778 176
-0.16126546 -0.13968331 0.47661275 0.0013462536 793 181
-0.15757389 -0.13848481 0.4734495 0.0012697295 837 193
-0.15516426 -0.13839404 0.47405013 0.0012463852 857 199
-0.15300788 -0.13852985 0.47541109 0.0013018508 796 182
-0.15070158 -0.13853203 0.47629672 0.0013929928 782 178
-0.148215 -0.13836591 0.47658437 0.0012874728 820 189
-0.14519303 -0.13768685 0.47508058 0.0012685702 841 195
-0.14280617 -0.13759795 0.47558856 0.001321964 830 191
-0.14043909 -0.13752551 0.47613174 0.0013121907 798 182
-0.13806975 -0.1374484 0.47663715 0.0013705837 774 175
-0.13528647 -0.13694969 0.475656 0.001286578 822 189
-0.13289897 -0.13684136 0.47600615 0.0014204794 800 183
-0.13032307 -0.1365319 0.47563305 0.0014016844 774 175
-0.12822674 -0.13672276 0.47698081 0.0013324681 771 174
-0.12612973 -0.1369198 0.47833079 0.0013485235 766 173
-0.12355234 -0.13659303 0.47782901 0.0014170061 761 172
-0.12105586 -0.1363451 0.4775793 0.0013499677 760 171
-0.11854511 -0.13607129 0.47721601 0.0013829251 769 174
-0.11618274 -0.13596046 0.47740203 0.001368155 769 174
-0.1139591 -0.1360108 0.47813377 0.0013669924 802 183
-0.11163478 -0.13594058 0.47842184 0.0013056465 803 184
-0.10912646 -0.13563873 0.47787395 0.0012624592 855 199
-0.10653865 -0.13522324 0.47690392 0.0013868269 813 187
-0.10404515 -0.13491207 0.47628072 0.0011585281 975 233
-0.10163347 -0.1346956 0.47597194 0.0010708573 1155 255
-0.09930557 -0.13458288 0.47601107 0.0010906277 1096 255
-0.096975617 -0.13446215 0.47600392 0.0011325331 1044 253
-0.094439946 -0.13404368 0.47492442 0.0012056023 988 237
-0.092029408 -0.13378686 0.47439927 0.0011692811 973 233
-0.089330293 -0.13308732 0.47228596 0.0012585198 857 199
-0.086655438 -0.13238926 0.47015876 0.0013483037 812 186
-0.083581299 -0.13102877 0.46565878 0.001263138 902 212
-0.081072636 -0.13050555 0.46411553 0.0012608084 895 210
-0.078343049 -0.12958804 0.46115288 0.0012660429 841 195
-0.076136112 -0.12950757 0.4611533 0.0012705206 855 199
-0.073382087 -0.12846461 0.45771134 0.0012942867 808 185
-0.070228979 -0.12663935 0.4514637 0.0012619199 912 215
-0.067732885 -0.12592246 0.44915044 0.0011648171 970 232
-0.065648712 -0.12595001 0.44947976 0.0011428307 997 240
-0.0636122 -0.12607382 0.45014188 0.0011386225 1001 241
-0.061224125 -0.12548552 0.44824991 0.0011344046 1020 246
-0.05909922 -0.12541412 0.44819295 0.001166055 1040 252
-0.057142392 -0.12570719 0.44942886 0.0011556795 1018 246
-0.05512996 -0.12589563 0.45028159 0.0011603062 984 236
-0.053334847 -0.12661485 0.45302472 0.0011886968 933 221
-0.052053042 -0.12866211 0.46051398 0.0012269117 893 210
-0.05001099 -0.12892541 0.46161181 0.0012931172 813 187
-0.048363417 -0.13027494 0.46659198 0.0012508756 854 198
-0.046204153 -0.13030821 0.46685091 0.0011548899 977 234
-0.044049419 -0.13035819 0.46716148 0.001163005 973 233
-0.04181518 -0.13016585 0.4665955 0.0011409578 1007 243
-0.039630871 -0.13011639 0.46653372 0.0011587348 981 235
-0.037430562 -0.13000564 0.46624446 0.0011623621 967 231
-0.03520184 -0.12977652 0.46552318 0.0011709288 979 235
-0.033047732 -0.12981051 0.46573848 0.0011516371 984 236
-0.031001104 -0.130301 0.46758506 0.0011842288 934 222
-0.028808808 -0.13020699 0.46732783 0.0011646849 972 233
-0.026833178 -0.13115671 0.47081047 0.0012382943 872 204
-0.024809713 -0.13202031 0.47397858 0.0013389959 836 193
-0.022742964 -0.13279927 0.47683728 0.0012198826 891 209
-0.020648638 -0.1335678 0.47965306 0.001140543 1044 253
-0.01844728 -0.133746 0.48034328 0.0011245467 1112 255
-0.016221644 -0.13377301 0.48048449 0.0010777973 1146 255
-0.013995119 -0.13380013 0.48062012 0.0010938097 1179 255
-0.011771471 -0.13387024 0.48090437 0.0011063566 1134 255
-0.0095353341 -0.13379788 0.48067126 0.001083767 1149 255
-0.0072975047 -0.13365035 0.48016229 0.001062598 1135 255
-0.0050624693 -0.13344686 0.47944665 0.0011029127 1066 255
-0.0028432475 -0.13366795 0.4802509 0.001176654 1016 245
-0.00061390939 -0.1332926 0.4789066 0.0011616909 971 232
0.0015946092 -0.13222827 0.47508129 0.0011997299 971 232
0.0037583332 -0.13083948 0.47008488 0.0011868987 981 235
0.0059133512 -0.13027869 0.46805805 0.0011360815 1015 245
0.0080674589 -0.13000442 0.46705523 0.001109975 1118 255
0.010199968 -0.12957193 0.46547857 0.0011491976 1053 255
0.01232786 -0.12924215 0.46426556 0.0012023578 958 228
0.014464878 -0.12909192 0.46369201 0.0011809291 950 226
0.016695704 -0.12970938 0.46587026 0.0012819505 825 190
0.018892249 -0.12994948 0.46668705 0.0014098646 759 171
0.021139422 -0.13045263 0.46844238 0.0015073734 644 138
0.023750249 -0.1328968 0.47716036 0.001809129 544 109
0.026160803 -0.13389894 0.48069304 0.0018748092 518 101
0.028458003 -0.13420898 0.48173404 0.001766444 532 105
0.030692665 -0.13420039 0.48162448 0.0013895193 718 159
0.032977402 -0.13439704 0.48224452 0.0013958395 738 165
0.035236597 -0.13447122 0.48241794 0.0013418465 762 172
0.037460633 -0.13441035 0.48209971 0.0013614419 747 167
0.039720867 -0.13447891 0.48223823 0.0013010474 803 184
0.042001132 -0.13460436 0.48257297 0.0013730265 739 165
0.044270337 -0.13468342 0.48273325 0.0013973651 775 176
0.046540868 -0.1347587 0.48287171 0.0013731285 738 165
0.048839349 -0.13490427 0.48325345 0.0013980758 747 167
0.051129263 -0.13501438 0.48349917 0.0013581377 749 168
0.053318013 -0.13485934 0.48278633 0.0014427389 751 169
0.055490654 -0.13467772 0.48196971 0.0014041413 698 153
0.057810973 -0.13485475 0.48242682 0.0014455763 706 156
0.060188826 -0.13514769 0.48328811 0.0013714483 744 167
0.062461987 -0.13519292 0.48325291 0.001495082 722 160
0.064673275 -0.1351057 0.48273373 0.0013709372 741 166
0.066950947 -0.13515842 0.48270366 0.0013802416 751 169
0.069242179 -0.13523416 0.48274434 0.0013745031 733 163
0.071503565 -0.13524869 0.48255461 0.0013598773 748 168
0.07373219 -0.13520223 0.48213542 0.0014233362 733 163
0.076065995 -0.13534571 0.48238072 0.0014308512 759 171
0.078506954 -0.13566609 0.48324293 0.0013968376 720 160
0.080815695 -0.13574639 0.4832359 0.0014197975 689 151
0.082995318 -0.1356114 0.48244885 0.0013491404 765 173
0.085387617 -0.13582185 0.48287645 0.00138297 719 159
0.087407812 -0.13544482 0.48120132 0.0014140687 698 153
0.089976437 -0.13591523 0.48252174 0.0014363575 683 149
0.092283882 -0.13597769 0.48237708 0.0015049471 692 152
0.094568036 -0.13600364 0.48208687 0.001429168 694 152
0.097042195 -0.13629523 0.48272109 0.0013657754 745 167
0.09950006 -0.13655114 0.48321044 0.0015155585 699 154
0.10170247 -0.13645287 0.48242891 0.0013864712 723 161
0.10403232 -0.13652612 0.48223627 0.0014510539 697 153
0.10643313 -0.1366874 0.48233557 0.0014830907 693 152
0.10866904 -0.13663456 0.48166046 0.0014714679 702 154
0.11127291 -0.13703705 0.48257032 0.0015527696 667 144
0.11367901 -0.13718469 0.48256132 0.0014198889 703 155
0.1161508 -0.13740423 0.48278403 0.0014243764 705 155
0.11852241 -0.13749905 0.4825471 0.0015126703 677 147
0.1208379 -0.13752641 0.48205242 0.0014102203 706 156
0.123424 -0.13785498 0.48259142 0.0014551383 714 158
0.12599707 -0.13815729 0.48301423 0.0014082983 704 155
0.12827913 -0.13813534 0.482281 0.0014417964 710 157
0.130713 -0.1382748 0.48208916 0.0015454459 689 151
0.13320535 -0.1384702 0.48206905 0.0013844215 721 160
0.13581555 -0.13877936 0.48242071 0.0014607632 708 156
0.13814352 -0.13879462 0.48172718 0.0013762997 763 172
0.14053889 -0.13887593 0.48124108 0.0014397034 739 165
0.1432856 -0.13929622 0.48190534 0.0013881335 721 160
0.14596941 -0.13964291 0.48228943 0.0013928699 712 157
0.14834394 -0.13968749 0.48160717 0.0014321486 713 158
0.15096395 -0.13995829 0.48168305 0.0013562309 752 169
0.15363555 -0.14026795 0.48186967 0.0014543781 737 165
0.15635714 -0.14061327 0.48215643 0.0013430046 786 179
0.15910129 -0.14096838 0.4824551 0.0013349194 765 173
0.16174936 -0.14122929 0.48241153 0.0014174473 730 163
0.16433737 -0.14143097 0.48214865 0.0013712383 758 171
0.16679412 -0.14151566 0.48147243 0.0014285593 740 165
0.16932103 -0.14165662 0.48097643 0.0013392423 759 171
0.1720053 -0.14192355 0.48089778 0.0013711641 736 164
0.17467508 -0.14217147 0.48074639 0.0013870067 729 162
0.17732871 -0.14239979 0.48052388 0.0013572032 740 165
0.18002297 -0.14265426 0.4803884 0.0015039126 678 148
0.18267263 -0.14286722 0.48011568 0.0015416472 640 137
0.18531564 -0.14306957 0.47981444 0.0015476608 623 132
0.18922822 -0.14423446 0.48274651 0.0015587016 618 130
0.1920774 -0.14456974 0.48291105 0.0016401609 584 120
0.19472644 -0.14474799 0.48257208 0.0016129671 560 113
0.19710909 -0.14472625 0.48159486 0.0017307568 559 113
0.19973856 -0.14488405 0.48124889 0.0017398627 558 113
0.20250726 -0.14513788 0.48125964 0.0016958445 529 104
0.20545474 -0.14551234 0.48171216 0.0018228618 502 97
0.2076816 -0.14537366 0.48051509 0.001960489 501 96
0.21030506 -0.14551258 0.48029101 0.0017546428 499 96
0.21363568 -0.14613204 0.48170963 0.0019886433 479 90
0.21718103 -0.14688277 0.48361978 0.001879459 449 81
0.21990578 -0.14706796 0.48373297 0.0021000835 423 74
0.22224362 -0.14699316 0.48306212 0.0019619702 422 74
0.22484215 -0.14709054 0.48303169 0.002058143 392 65
0.22753076 -0.14724413 0.48326203 0.0021089618 377 61
0.23004898 -0.14728531 0.48320156 0.0022255923 383 62
0.23200646 -0.14697044 0.48205253 0.0021808534 359 55
0.23418467 -0.1468005 0.48145911 0.0022122278 353 54
0.23771869 -0.1474752 0.48371568 0.0023314203 330 47
0.24038465 -0.14760308 0.48425895 0.0023081342 330 47
0.24210906 -0.14715606 0.48299447 0.0023405394 321 44
0.24429904 -0.14699815 0.48275557 0.0024822147 299 38
0.24605222 -0.1465832 0.48174727 0.0028314975 283 33
0.24842298 -0.14654067 0.48203596 0.0027596536 255 25
0.25104603 -0.14664634 0.48288453 0.0028373646 249 23
0.25205669 -0.14581721 0.48072222 0.0031138507 231 18
0.25697175 -0.14724106 0.486058 0.0033885504 218 15
-0.27261877 -0.13600266 0.46927726 0.0031815823 209 12
-0.27304524 -0.1373769 0.47278044 0.003500849 219 15
-0.2716907 -0.13787101 0.47326314 0.0031909887 210 12
-0.27137315 -0.13890447 0.47561789 0.0033312608 201 10
-0.26943555 -0.13911954 0.47519878 0.0039528105 169 0
-0.26756743 -0.13937457 0.47495502 0.0031893912 209 12
-0.26510319 -0.13932088 0.47370353 0.0031148102 238 20
-0.26242152 -0.13915093 0.47210643 0.0028852038 249 23
-0.26047483 -0.13937119 0.47188315 0.0029138138 256 26
-0.25933459 -0.14003088 0.4731946 0.002821886 268 29
-0.25782818 -0.14050323 0.47392106 0.0026577646 269 29
-0.25602096 -0.14081897 0.474172 0.002841098 263 28
-0.25437146 -0.14122817 0.47479397 0.0028918663 264 28
-0.25164548 -0.14104179 0.47347516 0.0025298635 294 37
-0.24929613 -0.14106502 0.47292554 0.0024485644 305 40
-0.24705502 -0.14115047 0.47265139 0.0026501357 306 40
-0.24560907 -0.14169638 0.47398621 0.0023586724 321 44
-0.24414313 -0.1422414 0.4753865 0.0024337599 337 49
-0.2424577 -0.14266814 0.47646272 0.0021290355 370 58
-0.2387777 -0.141918 0.47368509 0.0021066705 380 61
-0.23593064 -0.14165272 0.47260445 0.0022801557 381 62
-0.23352821 -0.14165165 0.47248399 0.0020524811 391 65
-0.23124819 -0.14172558 0.47269246 0.002311446 384 63
-0.22918923 -0.14193799 0.47344217 0.0021871317 384 63
-0.22708368 -0.14212574 0.47418928 0.0020799537 403 68
-0.22422019 -0.14183804 0.47342893 0.0018817682 445 80
-0.22112387 -0.14139523 0.47222731 0.00193385 476 89
-0.21884488 -0.14147109 0.47283313 0.0017973892 482 91
-0.21649218 -0.14150043 0.47335765 0.0018098241 475 89
-0.21357957 -0.14116038 0.47271627 0.0017391295 505 98
-0.21084668 -0.14093275 0.47251689 0.0016649116 540 108
-0.20867483 -0.14107922 0.47363526 0.0016327068 567 115
-0.20613094 -0.14097461 0.47397038 0.0016163239 576 118
-0.20340757 -0.14074339 0.47393295 0.0016012143 571 117
-0.20076509 -0.14056332 0.47411558 0.0015253783 624 132
-0.19755112 -0.13997398 0.47295782 0.0014391292 680 148
-0.19465953 -0.13960153 0.47256646 0.0014273196 695 152
-0.1922071 -0.13953874 0.47325456 0.0014969904 642 137
-0.18987158 -0.13956028 0.47425723 0.001444409 677 147
-0.18745211 -0.13951991 0.47507292 0.0014675872 695 152
-0.18484636 -0.13933808 0.47542396 0.0014275705 684 149
-0.18213165 -0.13906835 0.47548583 0.0013584462 749 168
-0.17898853 -0.13846016 0.47439373 0.0013180878 785 178
-0.17641529 -0.13828249 0.47477612 0.0013869433 721 160
-0.17396636 -0.13819879 0.47548079 0.0014371732 749 168
-0.17150971 -0.13810658 0.47615296 0.0013432135 761 172
-0.1684628 -0.13752994 0.47514489 0.0012687198 833 192
-0.16585819 -0.13730329 0.47533241 0.0013364449 775 176
-0.1635671 -0.13733344 0.47639695 0.0013407997 765 173
-0.16079667 -0.13695616 0.47603321 0.0012855571 816 187
-0.15809953 -0.13663118 0.47583199 0.0012859948 828 191
-0.15500149 -0.13594492 0.47434968 0.0012925682 812 186
-0.15287308 -0.1361012 0.47578624 0.0013471318 834 193
-0.15045302 -0.13599865 0.47629979 0.0013298948 775 176
-0.14771077 -0.13559711 0.47574362 0.0012870129 825 190
-0.14525187 -0.13544711 0.47604629 0.0013097026 792 180
-0.1427099 -0.13521363 0.47603241 0.0013117479 835 193
-0.14039698 -0.13519305 0.47674546 0.0013260602 795 181
-0.13791195 -0.1350033 0.47683913 0.0013613629 827 191
-0.13537082 -0.13475133 0.47668898 0.0013041112 801 183
-0.13258791 -0.1342459 0.47561619 0.0013293595 781 177
-0.13035794 -0.13429247 0.476475 0.0013828337 807 185
-0.12819596 -0.13441196 0.47757167 0.0013940553 767 173
-0.12625007 -0.13476641 0.47948405 0.001385125 742 166
-0.12362125 -0.13439156 0.47877991 0.0013262378 780 177
-0.12099561 -0.13400611 0.47801358 0.0013448521 767 173
-0.11863053 -0.13390003 0.47822073 0.0013342295 795 181
-0.11630429 -0.13383451 0.47855139 0.0013580605 767 173
-0.1139236 -0.13370249 0.47862342 0.001381894 777 176
-0.11145044 -0.13345435 0.47825843 0.0013563106 828 191
-0.10867748 -0.13282952 0.47652099 0.0013429808 798 182
-0.10625739 -0.13261868 0.47624663 0.0012551462 840 194
-0.10384401 -0.13240726 0.47595027 0.0011216319 1026 248
-0.10149943 -0.13227619 0.47592366 0.001082477 1091 255
-0.099166743 -0.13215503 0.47591433 0.0011224323 1041 252
-0.096777357 -0.13195096 0.47558841 0.0012489253 957 228
-0.094236396 -0.1315257 0.47444671 0.0012502705 872 204
-0.091554776 -0.13087876 0.47248617 0.0012725107 839 194
-0.08801198 -0.12893805 0.46583223 0.0012898145 852 198
-0.085861593 -0.12899037 0.46635869 0.0012737869 835 193
-0.083346903 -0.1284838 0.46484894 0.0012857319 818 188
-0.079876631 -0.12643746 0.45774817 0.0012767734 839 194
-0.077422813 -0.12593164 0.45620507 0.0013052193 799 183
-0.074813031 -0.12513621 0.45359716 0.0012771301 902 212
-0.072261363 -0.12439445 0.45116791 0.0011556481 978 234
-0.069844671 -0.12384741 0.44943029 0.0011321336 1015 245
-0.067740306 -0.12383749 0.44962907 0.0011642858 1067 255
-0.065630957 -0.12381751 0.44978014 0.0011115116 1075 255
-0.063496232 -0.12374675 0.44973567 0.0010813975 1092 255
-0.061301358 -0.12354993 0.44922224 0.0010598408 1135 255
-0.059179649 -0.12349186 0.44920263 0.0010732604 1121 255
-0.057046704 -0.12340526 0.44906917 0.0010928253 1082 255
-0.055386718 -0.12437411 0.45276839 0.0011238669 1034 250
-0.05349933 -0.12488876 0.45480677 0.0012055985 977 234
-0.051967014 -0.12630883 0.46013606 0.0012473749 931 221
-0.050069373 -0.12692483 0.46252993 0.0012583048 848 197
-0.048269678 -0.12785557 0.46606389 0.0012001278 916 216
-0.046105348 -0.12786257 0.46622345 0.0012282488 947 225
-0.04385661 -0.12762463 0.46548158 0.0011759873 1009 243
-0.041803174 -0.12795983 0.46682245 0.0011799111 949 226
-0.039569516 -0.12774986 0.46616694 0.0011761485 959 229
-0.037361983 -0.12760484 0.46574104 0.0011564249 973 233
-0.035132866 -0.1273637 0.46495682 0.0010865802 1085 255
-0.033010367 -0.12750283 0.46555403 0.0011197148 1063 255
-0.03089093 -0.12767415 0.46626219 0.0011830948 1015 245
-0.028677877 -0.12745513 0.46553868 0.001221469 942 224
-0.026462631 -0.12718993 0.46463981 0.0012840024 864 201
-0.024623029 -0.12884331 0.47074422 0.0013205337 792 180
-0.022398559 -0.12860861 0.46994522 0.0013030043 806 185
-0.02064795 -0.13133748 0.47997025 0.0012619523 847 196
-0.018441938 -0.13147902 0.48053545 0.0011153528 1046 254
-0.016221566 -0.13154301 0.48081148 0.0010709186 1110 255
-0.013991458 -0.1315359 0.48082194 0.0010454694 1170 255
-0.011774306 -0.13167094 0.48134652 0.0010499794 1158 255
-0.009546523 -0.13172248 0.4815605 0.0010590251 1136 255
-0.0073005902 -0.13147859 0.48068896 0.0010862903 1136 255
-0.0050662309 -0.13132042 0.48012534 0.0010762936 1103 255
-0.0028405241 -0.13131443 0.48011282 0.0010869119 1086 255
-0.00061373028 -0.131033 0.47908795 0.0011921052 1019 246
0.0015975224 -0.13026217 0.47626844 0.0011681095 964 230
0.0037977197 -0.13000731 0.4753302 0.0012127182 964 230
0.0059234928 -0.12832727 0.46917611 0.001118447 1045 254
0.0080687534 -0.1278584 0.4674454 0.0011140761 1060 255
0.010195239 -0.12735352 0.46557772 0.001187577 1025 248
0.012327639 -0.12708603 0.46457285 0.0011496955 988 237
0.014479948 -0.1270728 0.46449226 0.0012118958 904 213
0.016674852 -0.12738843 0.46560818 0.0012934085 818 188
0.018889036 -0.12776209 0.46693057 0.0014067594 749 168
0.021247648 -0.12893532 0.47116882 0.0015867461 675 147
0.023693483 -0.13036966 0.47635448 0.0015872827 583 120
0.026053933 -0.13112959 0.47906885 0.0017144541 559 113
0.028434504 -0.13186336 0.48168075 0.0016801108 537 107
0.030687632 -0.13194226 0.48189372 0.0015449041 602 126
0.032912057 -0.13189541 0.48164076 0.0013431185 764 172
0.035218339 -0.13216169 0.48252448 0.0014838943 707 156
0.037484113 -0.13225323 0.48276302 0.0013768096 733 163
0.039714489 -0.13221656 0.48252624 0.0013594321 747 167
0.041957501 -0.13222364 0.48244181 0.0014195895 739 165
0.044227779 -0.13231158 0.48264474 0.0014385236 745 167
0.046474002 -0.13232253 0.48255879 0.0014371091 736 164
0.048710998 -0.1323074 0.48236957 0.0014176911 756 170
0.05104854 -0.13255471 0.48312849 0.0014538006 714 158
0.053327248 -0.13263483 0.48326898 0.0014528771 740 165
0.055508543 -0.13247599 0.48252985 0.0014042514 715 158
0.057788864 -0.13255665 0.4826538 0.0014495582 710 157
0.060168758 -0.13285109 0.48354611 0.0013936973 722 160
0.062489424 -0.13299827 0.48389173 0.0013733909 738 165
0.064728767 -0.13296813 0.48358166 0.0013528941 768 174
0.067035608 -0.13307403 0.48375556 0.0013640366 760 171
0.069278792 -0.13305077 0.48344865 0.0014831725 709 156
0.07149937 -0.13298692 0.48298296 0.0014752324 723 161
0.073677927 -0.13285121 0.48224491 0.0013852256 726 161
0.075969256 -0.13292086 0.4822402 0.0014542209 750 168
0.078404807 -0.13323157 0.48309663 0.0014468913 731 163
0.080619842 -0.13316065 0.48255584 0.0013792341 773 175
0.08302816 -0.13340418 0.48314062 0.0013890003 721 160
0.085112594 -0.13312817 0.48183006 0.001392276 726 161
0.087896138 -0.13393167 0.484411 0.0014014799 705 155
0.090164952 -0.13393016 0.48406357 0.0014482365 688 150
0.092258282 -0.13367447 0.48278284 0.0015148601 688 150
0.09453316 -0.13368778 0.48245853 0.001417859 705 155
0.097258545 -0.13432263 0.48435941 0.0014221824 698 153
0.099295244 -0.13399908 0.4827868 0.0014355037 689 151
0.10157193 -0.13400662 0.48239091 0.0014840479 703 155
0.10387943 -0.13405359 0.48211941 0.0014218816 733 163
0.10627049 -0.13420409 0.48220158 0.0014330759 702 154
0.10875338 -0.13446178 0.48264909 0.0014719625 733 163
0.11122844 -0.13469945 0.48300415 0.00152204 698 153
0.1135999 -0.13480461 0.48286337 0.0014701623 756 170
0.11590657 -0.13483025 0.48241758 0.0014246954 693 152
0.11828686 -0.13493888 0.4822481 0.0014371462 684 149
0.12069045 -0.13506947 0.48213574 0.0014702947 661 143
0.12332101 -0.13544448 0.48287266 0.0015055182 646 138
0.12583371 -0.13567869 0.48308378 0.0014516034 716 159
0.12807317 -0.1356152 0.48221269 0.0013732654 728 162
0.13041198 -0.13565728 0.48169541 0.0014888563 706 156
0.13308781 -0.13604239 0.48237211 0.0013811042 759 171
0.13571529 -0.1363658 0.48280451 0.0014997574 720 160
0.13808456 -0.13642329 0.48227128 0.0014053158 710 157
0.14034821 -0.13637625 0.48134652 0.0013674824 750 168
0.14306162 -0.13676068 0.48192084 0.0013973671 709 156
0.14577112 -0.13712919 0.48241305 0.0013697791 739 165
0.1483008 -0.13731961 0.48225403 0.0014239193 738 165
0.15033941 -0.1370565 0.48048204 0.0013327987 836 193
0.15342538 -0.13774164 0.48201153 0.0013429939 789 180
0.15619181 -0.13812371 0.48245424 0.0013576937 749 168
0.15853257 -0.1381236 0.48154131 0.001340921 759 171
0.16160764 -0.13875395 0.48280498 0.0013485199 757 170
0.16405894 -0.13883837 0.48214868 0.0013779143 747 167
0.1665547 -0.13895749 0.48159745 0.001401172 747 167
0.16914651 -0.13915229 0.48129469 0.0013622404 739 165
0.17168467 -0.13929822 0.48081085 0.0013703982 745 167
0.1744471 -0.13961968 0.48092273 0.0014461518 720 160
0.17727149 -0.13998146 0.48116475 0.0014199922 692 152
0.18013947 -0.14036766 0.48148486 0.0014122584 713 158
0.18279502 -0.1405804 0.48120883 0.0014556905 675 147
0.18566073 -0.14094724 0.48146325 0.0015439114 684 149
0.18892314 -0.14160207 0.4827058 0.001587967 614 129
0.19109049 -0.14143004 0.48114228 0.0015675277 595 124
0.19412529 -0.14189628 0.48176947 0.0015642087 599 125
0.19679771 -0.14208952 0.48149157 0.0015166574 623 132
0.1994444 -0.14225969 0.48116487 0.0015967375 589 122
0.20273472 -0.14287941 0.48239073 0.0016100791 566 115
0.20492098 -0.14271562 0.48101088 0.0017752389 534 106
0.20740196 -0.14275849 0.48037627 0.0016704411 537 107
0.20989269 -0.14280699 0.47981286 0.0016849715 529 104
0.21308701 -0.14332764 0.48089096 0.0017801519 489 93
0.21702085 -0.1443284 0.48363569 0.0020133171 445 80
0.21981268 -0.14455581 0.48385084 0.0019827741 441 79
0.22225295 -0.14454955 0.48335385 0.0019678855 429 76
0.22482039 -0.14462523 0.48320451 0.0019918007 412 71
0.22761096 -0.14484128 0.48359999 0.0021986428 401 67
0.23026632 -0.14496757 0.48377371 0.002124087 371 59
0.23184243 -0.14441895 0.48177549 0.0022384254 346 52
0.23346074 -0.1439078 0.47998381 0.0023477939 355 54
0.23575176 -0.14381757 0.47967717 0.0023722982 357 55
0.23968464 -0.14472055 0.48276389 0.0022800211 334 48
0.24288684 -0.14516853 0.4844141 0.0025331492 322 45
0.24417837 -0.14447701 0.48234081 0.002465934 322 45
0.24618031 -0.14421538 0.48177886 0.0025355855 287 34
0.24798858 -0.14384654 0.48093322 0.0026378881 274 31
0.24998018 -0.14359023 0.48053595 0.0028773423 255 25
0.25502732 -0.14507702 0.48604879 0.0029580512 232 19
0.25703812 -0.14482462 0.4858095 0.0030406064 224 16
-0.27372122 -0.13423839 0.47056222 0.0032549342 229 18
-0.27421051 -0.13562503 0.47418529 0.0031701422 216 14
-0.27301443 -0.13619477 0.47496453 0.0032816825 215 14
-0.27181464 -0.13677251 0.47579867 0.0032600737 204 10
-0.27013341 -0.137116 0.47585142 0.0036113875 181 4
-0.26775095 -0.13710649 0.47472119 0.0038755855 189 6
-0.26535818 -0.13709146 0.47361949 0.0030092313 242 21
-0.26302037 -0.13710481 0.47266552 0.0029068496 236 20
-0.26100197 -0.13728644 0.47234234 0.0027766756 259 26
-0.25948036 -0.13773505 0.47298804 0.0027461534 258 26
-0.2579948 -0.13821128 0.47377974 0.0027709978 258 26
-0.25635859 -0.13861495 0.47437701 0.0026395808 274 31
-0.25402451 -0.13864531 0.47375634 0.0029918172 277 32
-0.2520389 -0.13886823 0.47385699 0.0025090426 295 37
-0.24972889 -0.138915 0.47342226 0.0026841019 316 43
-0.24763308 -0.13908298 0.47346899 0.0023444165 321 44
-0.24567285 -0.13933113 0.47385874 0.0022565697 342 50
-0.24420314 -0.13986512 0.475292 0.0021763868 361 56
-0.24190207 -0.13992885 0.47520164 0.0021253009 377 61
-0.23849563 -0.13934803 0.47300079 0.0023357728 369 58
-0.23621663 -0.13942082 0.47309801 0.0021868122 356 54
-0.23374042 -0.13937753 0.47288081 0.0020426537 395 66
-0.23160331 -0.13953763 0.47343403 0.0020133576 401 67
-0.22949953 -0.13972138 0.47414824 0.0019973849 415 71
-0.22707342 -0.13971072 0.47428307 0.0020991492 436 78
-0.22417094 -0.1394036 0.47349048 0.0018817628 455 83
-0.22129065 -0.13910376 0.47279909 0.0017647196 492 94
-0.21897689 -0.13915734 0.47338438 0.0017818082 507 98
-0.21645065 -0.13907565 0.47358236 0.0017217668 507 98
-0.21364787 -0.13881242 0.47323105 0.0016948638 527 104
-0.21101208 -0.13865295 0.47329795 0.0015859747 573 117
-0.20850909 -0.1385781 0.47371459 0.0016210213 618 130
-0.20607167 -0.1385456 0.47433287 0.0015637007 590 122
-0.20347232 -0.13840218 0.47462317 0.0015819045 578 119
-0.20069247 -0.13813113 0.47452047 0.0014926019 640 137
-0.1978088 -0.13778123 0.47418526 0.0014626983 698 153
-0.19459315 -0.13718882 0.47304559 0.0014312933 682 149
-0.19199803 -0.13702467 0.47340855 0.0014960417 699 154
-0.18977092 -0.13712235 0.47470126 0.0014578289 698 153
-0.18747784 -0.1371742 0.47585702 0.0013993772 715 158
-0.18389761 -0.13627358 0.47371805 0.0013690356 735 164
-0.18171148 -0.1363961 0.47514111 0.001374084 738 165
-0.17866714 -0.13586919 0.4743053 0.0013371608 764 172
-0.17608099 -0.13568133 0.47465059 0.0013214017 779 177
-0.17346373 -0.1354641 0.47488904 0.0013124023 789 180
-0.17096223 -0.13533263 0.47542116 0.001300273 806 185
-0.16793242 -0.13477349 0.47443855 0.0013170313 793 181
-0.16549821 -0.13468337 0.47509235 0.0013301161 768 174
-0.16285013 -0.13441417 0.47509971 0.0013500386 820 189
-0.16041787 -0.13431792 0.4757016 0.0014181046 795 181
-0.15803193 -0.13425818 0.47641581 0.0012899432 841 195
-0.15568034 -0.13422628 0.47721079 0.0013024849 799 183
-0.15271346 -0.13365489 0.47606519 0.0013981415 791 180
-0.15003684 -0.13332397 0.47575051 0.0012948231 841 195
-0.14775094 -0.13333532 0.47663477 0.0013071352 824 190
-0.14525799 -0.13315724 0.47681987 0.0013010713 800 183
-0.14288515 -0.1330853 0.4773621 0.0013499438 756 170
-0.14030056 -0.13281056 0.477153 0.0013227443 772 175
-0.13774334 -0.13255307 0.47698081 0.0012713313 832 192
-0.13509592 -0.13219865 0.47643426 0.0012528953 855 199
-0.13284944 -0.13223106 0.477258 0.00131438 802 183
-0.13076524 -0.132429 0.47865838 0.0013888277 795 181
-0.127867 -0.13179493 0.47702721 0.0013245101 778 176
-0.12587115 -0.13208486 0.478717 0.0013476344 760 171
-0.1234208 -0.13189973 0.47866422 0.0013329034 790 180
-0.12091493 -0.1316472 0.47834343 0.001383564 792 180
-0.11868433 -0.13169044 0.47907561 0.0013492986 754 170
-0.11630601 -0.13156827 0.47918513 0.0014050048 790 180
-0.11375541 -0.1312425 0.47853118 0.0013671003 800 183
-0.11111913 -0.13080262 0.47743842 0.0013046671 846 196
-0.10852019 -0.13038939 0.47642046 0.001287963 813 187
-0.10600775 -0.1300648 0.47570485 0.0011759851 938 223
-0.10362969 -0.12989461 0.47553402 0.0010883502 1086 255
-0.10110204 -0.12952529 0.4746145 0.0011962809 1019 246
-0.098935381 -0.12961221 0.47534844 0.0012787544 918 217
-0.09658967 -0.12946314 0.47519982 0.0012798774 832 192
-0.09303306 -0.12764561 0.46890488 0.0013102683 819 188
-0.090333298 -0.12694415 0.46668667 0.0012343859 887 208
-0.087716252 -0.12632695 0.46475938 0.0012877977 822 189
-0.085191235 -0.12581427 0.46319887 0.0013397224 768 174
-0.081738815 -0.12386936 0.4563452 0.0012698353 826 190
-0.079645455 -0.12393492 0.45687991 0.0012153179 897 211
-0.076714352 -0.12266455 0.45247394 0.0012028145 929 220
-0.074297033 -0.122167 0.45090207 0.0011399839 1050 255
-0.072090775 -0.12199758 0.4505277 0.0010997888 1101 255
-0.069965921 -0.12195987 0.45062751 0.0010860303 1086 255
-0.067801908 -0.12184944 0.45044687 0.0010960038 1072 255
-0.065764278 -0.12196634 0.45109576 0.0010896205 1085 255
-0.06360925 -0.12186605 0.4509306 0.00109682 1139 255
-0.061508432 -0.12186633 0.45112714 0.0011477504 1090 255
-0.059373256 -0.12179614 0.45105278 0.001062946 1141 255
-0.057413243 -0.1220933 0.45232943 0.0011061345 1109 255
-0.055427678 -0.12235666 0.45347244 0.0011270501 1061 255
-0.053680051 -0.1231869 0.45670876 0.0012416785 941 224
-0.051763121 -0.12368102 0.45869178 0.001206658 920 217
-0.049934819 -0.12443844 0.46164438 0.0012133408 902 212
-0.047785968 -0.12442918 0.46174532 0.0011574234 1037 251
-0.045793612 -0.12484574 0.46341875 0.0011779217 1037 251
-0.043657996 -0.12489352 0.46371624 0.0011110391 1054 255
-0.041450068 -0.12472869 0.46321657 0.0011112778 1048 255
-0.039528687 -0.12545523 0.46602064 0.0011361394 1015 245
-0.03733626 -0.12535585 0.46575022 0.0011260592 1028 249
-0.035172738 -0.12534732 0.4658103 0.0010741324 1117 255
-0.033019461 -0.12537652 0.46600407 0.0010614669 1133 255
-0.03085169 -0.12535092 0.46598789 0.0011080463 1061 255
-0.028625578 -0.12506658 0.46500349 0.0012134468 950 226
-0.026422989 -0.12484707 0.46425384 0.0013107618 798 182
-0.024242563 -0.12470262 0.46377721 0.001444948 759 171
-0.022094753 -0.12471417 0.46387509 0.0014229713 754 170
-0.020178715 -0.12617747 0.4693678 0.001357778 789 180
-0.018464137 -0.12940633 0.48142442 0.001283212 823 189
-0.016236097 -0.1294295 0.48155081 0.0011405359 1063 255
-0.014005304 -0.12943463 0.48160461 0.0010526733 1146 255
-0.011763716 -0.12932301 0.48121879 0.0010492342 1156 255
-0.0095435418 -0.12944965 0.48171422 0.0011101211 1134 255
-0.0073067956 -0.1293602 0.48140046 0.0010628956 1130 255
-0.0050705303 -0.12920441 0.48083469 0.0011200537 1083 255
-0.0028389085 -0.12901554 0.48014078 0.0011001206 1059 255
-0.00061207375 -0.12846462 0.47809434 0.0010782358 1102 255
0.0015997124 -0.12823008 0.47722033 0.0011389742 1006 242
0.0037995661 -0.12786613 0.47585976 0.0011951581 926 219
0.0059680673 -0.12710169 0.47300395 0.0011999243 964 230
0.0080978321 -0.12614448 0.46942571 0.0011368928 1014 245
0.010203553 -0.12529725 0.4662523 0.0011910541 1019 246
0.012345863 -0.12511688 0.4655554 0.0011706956 986 237
0.014520481 -0.12526892 0.46609029 0.0011765922 964 230
0.016707882 -0.12547757 0.46683058 0.0012246186 889 209
0.018896319 -0.12564526 0.46741316 0.0012789359 830 191
0.021198105 -0.12645465 0.47037703 0.0014605427 735 164
0.023621777 -0.12777235 0.47522545 0.0016438381 610 128
0.025902327 -0.12815715 0.47659773 0.00161689 568 116
0.028298695 -0.12900947 0.47970206 0.0016915684 552 111
0.030635701 -0.12948665 0.48140472 0.0017221272 523 103
0.032917876 -0.129683 0.48205665 0.0015141908 681 148
0.035201401 -0.12985937 0.48262748 0.0013363222 764 172
0.037463762 -0.12994124 0.48284033 0.0013798369 732 163
0.039689664 -0.12989455 0.48256847 0.0014286318 753 169
0.041909248 -0.12983328 0.48223543 0.001331259 776 176
0.044086788 -0.12965457 0.48145902 0.0013432533 765 173
0.046359457 -0.12975937 0.48172772 0.0013716165 757 170
0.048636094 -0.12986512 0.48199198 0.0013750984 739 165
0.050828923 -0.12974763 0.48141956 0.001354821 759 171
0.053266156 -0.13023762 0.48309219 0.0013360411 763 172
0.055485286 -0.13017628 0.48271051 0.0013702664 736 164
0.057732027 -0.13018195 0.48256835 0.0014688835 721 160
0.060109738 -0.13047148 0.48346856 0.0013969649 716 159
0.0624898 -0.13074505 0.48429915 0.0013901903 718 159
0.064782575 -0.1308233 0.48439556 0.0013542568 755 170
0.066911489 -0.13057652 0.48327827 0.0014939731 706 156
0.069229774 -0.13070334 0.48353308 0.0013994325 713 158
0.071339779 -0.13044129 0.48233837 0.001401265 749 168
0.073647663 -0.13054605 0.48248854 0.0014003321 710 157
0.07589265 -0.13053641 0.4822039 0.0014280461 740 165
0.078141905 -0.13053443 0.4819352 0.0014223525 739 165
0.080625139 -0.1309125 0.48305586 0.0013857955 718 159
0.082890742 -0.13092622 0.48281822 0.0014044852 737 165
0.085423134 -0.13134946 0.48407602 0.0014995533 699 154
0.087781668 -0.13149038 0.4842779 0.0014148914 698 153
0.089849137 -0.13119921 0.48287413 0.0013777317 738 165
0.092159502 -0.13126834 0.48278192 0.0014467747 703 155
0.094466984 -0.13133007 0.48264676 0.0013959623 724 161
0.096726738 -0.13132416 0.48224682 0.0014831281 714 158
0.098821349 -0.13109943 0.4810276 0.0014804376 682 149
0.10152735 -0.13167772 0.48273692 0.0014187044 707 156
0.10407025 -0.13202377 0.4835746 0.0014119546 711 157
0.10617003 -0.1318049 0.48232475 0.0014752906 725 161
0.10852386 -0.13190401 0.48222068 0.0014463251 693 152
0.11112519 -0.13229369 0.48315835 0.0013896157 719 159
0.11357258 -0.13248812 0.48336151 0.0014005619 741 166
0.11584751 -0.13247766 0.48279682 0.0013947549 722 160
0.11812558 -0.13247113 0.48222652 0.0014270931 700 154
0.1205571 -0.13263366 0.48225051 0.0015179111 700 154
0.12311934 -0.13293128 0.48274279 0.001408928 717 159
0.12568948 -0.13322639 0.48320207 0.0013882107 727 162
0.12803881 -0.13328107 0.48276612 0.0013384531 766 173
0.1302619 -0.13320473 0.48183396 0.0013932429 733 163
0.13275272 -0.13340004 0.48186186 0.0014636948 709 156
0.13530308 -0.13364758 0.48205376 0.0014335057 741 166
0.13806514 -0.13409238 0.48293129 0.0013818842 721 160
0.14048715 -0.13419771 0.48256075 0.0014183183 735 164
0.14295042 -0.13433841 0.48229367 0.001374486 738 165
0.14552994 -0.13458212 0.48237193 0.0013627392 741 166
0.14787364 -0.13460353 0.48163 0.0013686975 769 174
0.15058862 -0.13495705 0.48205259 0.0012924429 807 185
0.15298504 -0.13501862 0.48140875 0.0013236522 776 176
0.15560393 -0.13527177 0.48142576 0.0013119321 785 178
0.15813905 -0.13544568 0.48113844 0.0013064244 801 183
0.16088153 -0.13578954 0.48143324 0.0013272412 775 176
0.16426529 -0.13665707 0.48355922 0.0013677084 738 165
0.16677096 -0.13677987 0.48302767 0.0013443707 765 173
0.16901852 -0.1366905 0.48173308 0.0013275626 779 177
0.17152426 -0.1368095 0.48116127 0.00137203 728 162
0.17430682 -0.13714309 0.48133188 0.0013537292 751 169
0.17730594 -0.13763587 0.48204908 0.0014055904 737 165
0.18006349 -0.13793056 0.48206371 0.0014954119 705 155
0.18301554 -0.13836463 0.48256069 0.0014518335 692 152
0.18540207 -0.13836548 0.48154792 0.0014012581 711 157
0.18839461 -0.13881283 0.48209453 0.0014934855 666 144
0.19139913 -0.13925768 0.48263904 0.0014815092 641 137
0.19389497 -0.13932598 0.48189297 0.0015277264 617 130
0.19645822 -0.13944048 0.48132852 0.0015220578 626 132
0.19921722 -0.13968943 0.48125428 0.0017093852 587 121
0.20192732 -0.13989858 0.48107371 0.0016547092 603 126
0.20506264 -0.1403939 0.48191229 0.0016421304 559 113
0.2075939 -0.14046894 0.4813498 0.0016239421 560 113
0.21060237 -0.14086142 0.48192289 0.0017054172 533 106
0.21282397 -0.14072466 0.48073956 0.0017456658 550 111
0.21617094 -0.14132671 0.48213854 0.0017713647 488 93
0.21936347 -0.14181553 0.48321137 0.0018033265 476 89
0.22199616 -0.14193559 0.48309487 0.001915382 459 84
0.2244917 -0.14196631 0.48274657 0.0020978292 445 80
0.22682312 -0.1418937 0.48212302 0.0021563212 422 74
0.22911161 -0.14179608 0.48149303 0.0020691506 385 63
0.23149748 -0.14176017 0.48115274 0.0021314651 372 59
0.23370515 -0.14161699 0.48052981 0.0022065348 352 53
0.23577487 -0.14139406 0.47971803 0.0024280914 351 53
0.24012381 -0.14252856 0.48359361 0.002198969 364 57
0.24182904 -0.14208676 0.48220262 0.0022623779 338 49
0.24423464 -0.14206117 0.48230457 0.0026333022 325 45
0.24592872 -0.14162639 0.48109597 0.0025547561 307 40
0.24776505 -0.14128123 0.48026785 0.0026955165 270 30
0.25090897 -0.14168115 0.4820489 0.0030017628 258 26
0.25463322 -0.14239791 0.48498562 0.0029315255 235 19
0.25740927 -0.14257579 0.48616233 0.0032865806 220 15
-0.27826673 -0.13411494 0.47776654 0.003146169 211 13
-0.27502838 -0.13368444 0.47500017 0.0032244259 223 16
-0.27300465 -0.13384199 0.4743599 0.0034601446 215 14
-0.27144888 -0.13423371 0.47458416 0.0032263664 213 13
-0.27017352 -0.13477217 0.47536299 0.0035378456 193 7
-0.26775351 -0.13474409 0.47418556 0.0033765961 192 7
-0.26602116 -0.13506463 0.47428176 0.0030665696 232 19
-0.26375324 -0.13511659 0.47348341 0.0028568192 249 23
-0.26081154 -0.13482119 0.47152337 0.0027825357 254 25
-0.25930849 -0.13527086 0.47222427 0.0030638832 264 28
-0.25780332 -0.13572775 0.47300348 0.0029582523 268 29
-0.25585443 -0.13595736 0.47304767 0.002618738 276 31
-0.25372833 -0.13609624 0.47283825 0.0024707546 305 40
-0.25184664 -0.13637008 0.47316208 0.0024440379 309 41
-0.2500172 -0.13667776 0.47366938 0.0026208758 309 41
-0.24796636 -0.13686919 0.47384334 0.0025049115 322 45
-0.2456903 -0.13693881 0.47366819 0.0022920121 329 47
-0.24350828 -0.13706274 0.47375607 0.00219464 356 54
-0.24109668 -0.13705865 0.47347856 0.002137461 369 58
-0.2389338 -0.13719729 0.47377288 0.0021650791 362 56
-0.23609807 -0.13694847 0.47280955 0.0021411092 362 56
-0.23424478 -0.13727024 0.4738974 0.0019846803 410 70
-0.23185591 -0.13728161 0.47399506 0.0020898851 421 73
-0.22959495 -0.13736971 0.47443947 0.0019385902 429 76
-0.22724433 -0.13740548 0.47478417 0.0018567384 455 83
-0.22373801 -0.13673572 0.47276941 0.0018132027 465 86
-0.2214441 -0.13680042 0.47337046 0.0017448616 501 96
-0.2190489 -0.13680328 0.47383305 0.0017194045 511 99
-0.21665239 -0.1368054 0.47436529 0.0018344622 525 103
-0.21403819 -0.13666855 0.47448421 0.0017358877 565 115
-0.21120112 -0.13638468 0.47415531 0.0016090464 579 119
-0.20833552 -0.13607568 0.47379628 0.0016499547 614 129
-0.20584239 -0.1360056 0.47432238 0.001583655 622 131
-0.20335875 -0.13594022 0.47491395 0.0015827179 616 130
-0.20059083 -0.13568103 0.47487101 0.001585103 620 131
-0.19799003 -0.13552998 0.47524291 0.0014451918 691 151
-0.19462015 -0.13484241 0.47376123 0.0013784699 727 162
-0.19186351 -0.13456804 0.47375238 0.0013804365 727 162
-0.18980931 -0.13478564 0.47549784 0.0014995714 688 150
-0.18583158 -0.13362558 0.47239366 0.0014355785 739 165
-0.18362597 -0.13372645 0.47375172 0.0013771137 742 166
-0.18118317 -0.13365492 0.47450754 0.001428242 746 167
-0.17873456 -0.1335772 0.47524399 0.0013414711 754 170
-0.17575292 -0.13309376 0.47453287 0.0013561279 767 173
-0.17309763 -0.13284777 0.47465926 0.0013204532 777 176
-0.17037085 -0.13253947 0.47455239 0.0013401856 778 176
-0.16847683 -0.13287941 0.47675753 0.0013365842 788 179
-0.1654053 -0.13228716 0.47560436 0.0014327363 750 168
-0.16274752 -0.13201366 0.47557703 0.0014372501 778 176
-0.16002062 -0.13167539 0.47529629 0.0013273801 773 175
-0.15772708 -0.13168907 0.47626638 0.0013060508 804 184
-0.15518086 -0.13148901 0.47644365 0.0013446412 850 197
-0.15240851 -0.13108842 0.47587067 0.0012788394 848 197
-0.14995536 -0.13095436 0.47624114 0.0012963919 824 190
-0.14763013 -0.1309295 0.47698665 0.0013057539 804 184
-0.14536741 -0.13096021 0.47791293 0.0014079077 781 177
-0.14277479 -0.13068992 0.47771737 0.0014041583 772 175
-0.14022236 -0.13044819 0.47760066 0.0013190215 783 178
-0.13760902 -0.13014084 0.47721812 0.0012839991 832 192
-0.13511752 -0.1299403 0.477202 0.0012763066 825 190
-0.13291824 -0.13001873 0.4781872 0.0012932118 808 185
-0.13018885 -0.12957232 0.47721788 0.0013957128 796 182
-0.12780893 -0.12946399 0.47746891 0.0012876098 814 187
-0.1255818 -0.12950933 0.47826454 0.0012798146 833 192
-0.12333971 -0.12954062 0.4789871 0.0013101925 795 181
-0.12058874 -0.1290286 0.47767714 0.0012909278 821 189
-0.11818474 -0.12887533 0.47767162 0.0013225593 784 178
-0.1159668 -0.12892297 0.47838974 0.0013707739 800 183
-0.11357776 -0.12877846 0.47837457 0.0013126883 781 177
-0.11110017 -0.12852564 0.47793579 0.0013707617 783 178
-0.10843214 -0.12803753 0.47659999 0.0012755641 844 196
-0.10588907 -0.12767939 0.47572637 0.0011766374 1037 251
-0.10323162 -0.12716493 0.47424889 0.0011495024 1037 251
-0.1009592 -0.12711245 0.47447494 0.0012076647 918 217
-0.098331131 -0.12659976 0.47296402 0.0012660193 854 198
-0.095218703 -0.12542531 0.46895915 0.0014444496 777 176
-0.092661574 -0.12494412 0.46752512 0.0013800767 798 182
-0.088995181 -0.12290763 0.46024883 0.0013135724 798 182
-0.086096793 -0.12185701 0.45664087 0.0013008016 883 207
-0.08363869 -0.12139191 0.45520884 0.0012355646 934 222
-0.080639161 -0.12009615 0.45064381 0.0011350582 1002 241
-0.078565404 -0.12014662 0.45111388 0.0011193596 1091 255
-0.076406904 -0.12006672 0.45108169 0.0011470888 1071 255
-0.074248053 -0.11998171 0.4510175 0.0010607295 1150 255
-0.072132885 -0.11996439 0.45119551 0.0010296751 1200 255
-0.070174761 -0.12021507 0.45237032 0.0011129213 1117 255
-0.068130374 -0.1203289 0.45301974 0.0010668049 1127 255
-0.065999798 -0.12029295 0.45309436 0.0010901649 1092 255
-0.063846447 -0.12021171 0.45298785 0.0010632009 1137 255
-0.061688922 -0.12011681 0.45281935 0.0010592645 1135 255
-0.059618134 -0.12019007 0.45327502 0.0010901398 1117 255
-0.057522304 -0.12021637 0.45354426 0.0011003044 1141 255
-0.05560172 -0.12062483 0.45524672 0.0010848191 1085 255
-0.053756393 -0.12123535 0.45770431 0.0011700395 1023 247
-0.051730376 -0.12147188 0.45874244 0.001147792 995 239
-0.049759749 -0.12186439 0.46036202 0.0012746387 931 221
-0.047719892 -0.12211496 0.46143821 0.0011419071 1047 254
-0.04568382 -0.12239925 0.46263456 0.0011208409 1077 255
-0.043627765 -0.12265539 0.46371746 0.0011158142 1044 253
-0.04155802 -0.12289762 0.46474114 0.0010854112 1090 255
-0.039494697 -0.1231864 0.46593425 0.0011186694 1075 255
-0.037391864 -0.12337822 0.46675426 0.0010579416 1142 255
-0.035222415 -0.12336032 0.46677431 0.0010305727 1191 255
-0.03305579 -0.12335059 0.46681905 0.0010462372 1166 255
-0.030727748 -0.12269499 0.46441287 0.0011553516 1027 248
-0.028597362 -0.12278932 0.46483898 0.0012251863 905 213
-0.026387826 -0.12253146 0.46392599 0.0013065881 806 185
-0.024126722 -0.12196716 0.4618468 0.0013156685 789 180
-0.021926548 -0.12163106 0.46062592 0.0013312256 776 176
-0.019967083 -0.12270169 0.46472752 0.0013546695 758 171
-0.018021397 -0.12412593 0.47016412 0.0013999124 725 161
-0.01626021 -0.12738708 0.48255479 0.0012382939 865 202
-0.014004556 -0.1271964 0.48186547 0.0011091259 1132 255
-0.011768926 -0.12714979 0.48171687 0.0010570763 1158 255
-0.0095343059 -0.12709484 0.48153168 0.0010811676 1149 255
-0.0073074005 -0.12714058 0.48172307 0.0010762867 1102 255
-0.0050728335 -0.12703462 0.48133489 0.0011460047 1102 255
-0.0028398728 -0.12683439 0.48058474 0.0010890138 1095 255
-0.00061014475 -0.12585203 0.47686613 0.0011194313 1083 255
0.0015953289 -0.1256741 0.47619089 0.0011793963 1026 248
0.0038026627 -0.12576415 0.47652632 0.0012029939 963 230
0.0059847031 -0.1252587 0.47460064 0.0011566919 983 236
0.0081081176 -0.12412721 0.47029841 0.0011500577 988 237
0.010228118 -0.12343359 0.4676508 0.0011393218 1012 244
0.012360514 -0.12310583 0.4663845 0.0011437896 1002 241
0.01452398 -0.12313896 0.46648079 0.0011468441 991 238
0.016710777 -0.12333571 0.46719193 0.0011949986 940 223
0.018933075 -0.12371934 0.46860573 0.0013295624 829 191
0.021167507 -0.12409521 0.46998483 0.0013880231 725 161
0.023482908 -0.12483138 0.47272268 0.0016005317 644 138
0.025897013 -0.12592191 0.47679633 0.0016502758 580 119
0.028169055 -0.12620454 0.4778046 0.0015968073 580 119
0.030589495 -0.12706241 0.48098418 0.0017885014 540 108
0.032858793 -0.12721856 0.48150101 0.0017732219 562 114
0.035079926 -0.12718023 0.4812755 0.0014661929 725 161
0.037405729 -0.12750328 0.48241085 0.0013576262 762 172
0.039646741 -0.12751715 0.48236948 0.0014332614 747 167
0.041811462 -0.12729725 0.48143712 0.0013186707 796 182
0.044112422 -0.12749343 0.48207119 0.0013020411 794 181
0.046413455 -0.12767088 0.48262683 0.0013288202 782 178
0.048616387 -0.12757455 0.48213977 0.0014823533 745 167
0.050943386 -0.12779793 0.48285297 0.0014161343 777 176
0.053163584 -0.12774588 0.482517 0.0014000601 776 176
