# .PCD v0.7 - Point Cloud Data file format
VERSION 0.7
FIELDS x y z noise intensity gray
SIZE 4 4 4 4 2 1
TYPE F F F F U U
COUNT 1 1 1 1 1 1
WIDTH 846
HEIGHT 1
VIEWPOINT 0 0 0 1 0 0 0
POINTS 846
DATA ascii
0.043943681 -0.048355676 0.41975123 0.0013583887 777 163
0.046207163 -0.04870313 0.42277506 0.0013052485 802 169
0.04830236 -0.048852287 0.42407513 0.0013422411 773 161
0.050558601 -0.049146384 0.42663074 0.0013756331 733 150
0.052600235 -0.049217664 0.42724901 0.0013597147 752 156
0.054643542 -0.049285315 0.42783237 0.0013298939 780 163
0.056600284 -0.049272891 0.42771682 0.0012935785 868 188
0.058365975 -0.049100582 0.42620915 0.0011869827 971 216
0.060258992 -0.049043126 0.42569402 0.0011388588 1006 226
0.062166478 -0.049000688 0.42530429 0.0011304056 1038 234
0.064438291 -0.049239237 0.42734799 0.0012098711 976 217
0.066608347 -0.049388196 0.42860809 0.0012045553 921 202
0.068627022 -0.049419552 0.42884126 0.0012519042 877 190
0.07236667 -0.050653771 0.43950465 0.0013934602 729 149
0.074293524 -0.050586436 0.4388665 0.0012199857 896 195
0.076307729 -0.050580584 0.4387542 0.0012358036 943 208
0.078309864 -0.050567236 0.43856865 0.0011763184 964 214
0.080333047 -0.050567802 0.43849528 0.0011836798 1005 225
0.082332097 -0.05055353 0.43828413 0.0011699282 963 214
0.084178269 -0.050448321 0.43727523 0.0011765856 980 218
0.086016968 -0.050343659 0.43626139 0.0011736429 961 213
0.088065736 -0.050363921 0.43631986 0.0011623848 973 216
0.090187654 -0.050424177 0.43671349 0.0011773335 957 212
0.092242211 -0.050444957 0.43675345 0.001168693 967 215
0.094108738 -0.050364226 0.43590257 0.0011533055 980 218
0.096163079 -0.050385281 0.43592027 0.0011462992 999 224
0.098016247 -0.050302226 0.43502432 0.0011261229 1032 233
0.099979281 -0.050277762 0.43462184 0.0011157186 1040 235
0.10221061 -0.050386529 0.43535638 0.0011192124 1039 235
0.10424849 -0.050397571 0.43523136 0.0011854398 987 220
0.10611705 -0.050327886 0.43439406 0.001207604 976 217
0.10800812 -0.050271261 0.43365428 0.0011660045 969 215
0.10985743 -0.050197642 0.43275204 0.0011671196 964 214
0.11188959 -0.05020871 0.43256319 0.0012075241 937 207
0.11405372 -0.050277568 0.43285429 0.0011362779 1030 232
0.11630187 -0.050380424 0.43341872 0.0011330761 1010 227
0.1188646 -0.050613739 0.43508443 0.001287548 824 175
0.12179489 -0.05099313 0.43798211 0.0014450768 692 139
0.12353505 -0.050869945 0.43654108 0.0014091238 762 158
0.12521642 -0.050726943 0.43491125 0.0013754142 803 170
0.12733449 -0.050762579 0.43479264 0.0014239295 694 140
0.1293899 -0.05077251 0.43443146 0.0014227729 720 147
0.13170542 -0.050882638 0.43490401 0.0014292913 732 150
0.13392726 -0.050953753 0.43501836 0.0013919834 725 148
0.13592613 -0.050939191 0.43437687 0.0014046752 713 145
0.13816315 -0.051012993 0.43446407 0.0013517144 761 158
0.14034665 -0.051065166 0.43434078 0.0013681699 741 153
0.14244172 -0.051084131 0.43390903 0.0013992107 760 158
0.14458767 -0.051120546 0.43359897 0.0013989991 766 159
0.14691965 -0.051220812 0.43380249 0.0013442204 767 160
0.14911033 -0.051269721 0.43354255 0.0013615529 755 156
0.15113838 -0.051262151 0.43277746 0.0013407542 789 166
0.15408891 -0.051563479 0.43458861 0.001342732 757 157
0.1564185 -0.051651809 0.43457144 0.0013594703 770 161
0.15835318 -0.051609114 0.43342355 0.0014090727 768 160
0.16025975 -0.051558491 0.43218282 0.0013588166 743 153
0.16295128 -0.051758472 0.43301272 0.0013494544 763 159
0.16541773 -0.051882848 0.43317747 0.0014176538 757 157
0.168173 -0.052093606 0.43403092 0.0014030964 737 152
0.17034526 -0.05212082 0.43332469 0.0013718902 745 154
0.17236316 -0.052100711 0.43219966 0.0013348546 780 163
0.17467269 -0.05216819 0.43177617 0.0013007544 800 169
0.17752337 -0.052393783 0.43263307 0.0013833041 779 163
0.17978893 -0.052443445 0.43201113 0.0013862615 730 150
0.18214041 -0.052516725 0.43156275 0.0014568196 744 153
0.1842877 -0.052530136 0.43060452 0.0014103453 722 147
0.18766086 -0.052888736 0.43245551 0.0013702606 735 151
0.19000426 -0.05295236 0.43187648 0.0013681384 740 152
0.19239609 -0.053027924 0.43138671 0.0014218512 711 144
0.19495928 -0.053148557 0.43125898 0.0014297931 690 139
0.19754207 -0.053271871 0.43115246 0.0014487883 669 133
0.19995068 -0.053346086 0.43065488 0.0015669615 648 127
0.20308289 -0.053609751 0.43169647 0.0015185883 630 122
0.20582168 -0.053765137 0.43188101 0.0016799547 591 111
0.20851 -0.053904258 0.43195969 0.0015901478 587 110
0.21151876 -0.054122534 0.43270373 0.0016198717 560 103
0.21386679 -0.054169022 0.43211499 0.001689766 553 101
0.21611793 -0.054190297 0.43137673 0.0017525009 546 99
0.21831901 -0.054198716 0.4305957 0.0018074756 504 87
0.22083071 -0.054283321 0.43048555 0.0018850508 498 86
0.22351506 -0.054408308 0.43076608 0.0018444289 465 77
0.22593895 -0.054468099 0.43060732 0.0018587327 463 76
0.22897755 -0.054673515 0.43168104 0.0019490292 429 67
-0.26799712 -0.054392103 0.44882134 0.0026170861 275 24
-0.26405245 -0.054048475 0.44532526 0.0025671264 288 28
-0.26303422 -0.054303095 0.446839 0.0024265689 308 33
-0.26103884 -0.054358639 0.44679436 0.0024089562 309 34
-0.25849357 -0.054299649 0.44589487 0.0023519029 317 36
-0.25588441 -0.054226089 0.44496593 0.0024716586 331 40
-0.25375926 -0.054254688 0.44496793 0.0024315012 352 45
-0.25140288 -0.054233931 0.44465977 0.0024183218 350 45
-0.24908286 -0.054220702 0.44451016 0.0021891806 357 47
-0.24678525 -0.054212153 0.44449699 0.0022704648 378 53
-0.24451405 -0.054209307 0.44462934 0.0020009151 408 61
-0.2421598 -0.054187827 0.44470739 0.0019806197 416 63
-0.24022336 -0.05426031 0.4456546 0.001659698 579 108
-0.23818879 -0.054311793 0.44652611 0.0019082645 458 75
-0.23603083 -0.054335862 0.44726595 0.0020243402 440 70
-0.23265593 -0.05407754 0.44576788 0.0018798194 506 88
-0.22910793 -0.053773526 0.44397014 0.0016697153 537 96
-0.2267309 -0.053741071 0.44448781 0.0016781738 530 95
-0.22391559 -0.053603042 0.44420129 0.0016220919 568 105
-0.22129418 -0.05350912 0.44434097 0.0015338089 621 120
-0.21853048 -0.053378537 0.44422919 0.0015618445 601 114
-0.21622007 -0.053357121 0.44507247 0.0015878141 581 109
-0.21312301 -0.053139128 0.44431287 0.0015820174 629 122
-0.21048115 -0.05303124 0.44450104 0.0014744768 652 128
-0.20701618 -0.052711472 0.44293085 0.0014677794 701 142
-0.20437238 -0.052596193 0.44308895 0.0014750262 721 147
-0.20217346 -0.052594144 0.44421095 0.0014765149 716 146
-0.19989586 -0.052571356 0.44516379 0.0014028422 704 142
-0.19643927 -0.052234564 0.4434509 0.0013994831 757 157
-0.19394772 -0.052149706 0.4438636 0.0013984063 725 148
-0.19100656 -0.051940668 0.44320449 0.0013396839 774 162
-0.18837905 -0.051813111 0.44322124 0.0014125818 740 152
-0.18559089 -0.051637892 0.44280821 0.0013895863 727 149
-0.18283181 -0.051466756 0.44240451 0.0013607253 748 155
-0.18060303 -0.051442605 0.44323948 0.0014332235 751 155
-0.17819922 -0.051367417 0.44360989 0.0014249225 744 153
-0.17562699 -0.051241271 0.4435119 0.0013666459 738 152
-0.17310104 -0.051125683 0.44347483 0.0013574992 747 154
-0.17058016 -0.051008731 0.44339499 0.0013760865 737 152
-0.16845475 -0.051008586 0.44430086 0.0014248032 734 151
-0.16572239 -0.050822295 0.44355401 0.0014119158 699 141
-0.16336815 -0.050748643 0.44375762 0.0014441056 717 146
-0.16091551 -0.050642096 0.44364214 0.0014369567 717 146
-0.1584022 -0.050513368 0.44330016 0.0014588761 693 139
-0.15552892 -0.050264824 0.44187257 0.001470636 715 145
-0.15317763 -0.050180525 0.44185579 0.001336924 769 160
-0.15117282 -0.050208952 0.44280303 0.0013662077 748 155
-0.14920814 -0.050251696 0.44384995 0.0013983594 710 144
-0.14680466 -0.050145768 0.44355586 0.0014106587 706 143
-0.14395237 -0.049881261 0.44182777 0.0013877812 750 155
-0.14213736 -0.049973708 0.44323322 0.001351504 762 158
-0.14003666 -0.049966957 0.44373429 0.0014438719 716 146
-0.13770267 -0.049875516 0.44345713 0.0014838607 725 148
-0.13545652 -0.049813569 0.44341615 0.0013827237 726 148
-0.13326731 -0.049770962 0.44352242 0.001341076 759 158
-0.13091858 -0.049666487 0.44305262 0.0014116465 740 152
-0.12779491 -0.049259961 0.43986124 0.0013283463 781 164
-0.12523012 -0.049059089 0.4384791 0.0013628707 804 170
-0.11975751 -0.047693521 0.4266535 0.001203849 941 208
-0.11799094 -0.047782719 0.42781162 0.0012679166 841 180
-0.11586584 -0.047727279 0.42765555 0.0013046953 810 172
-0.11371034 -0.047657166 0.42734841 0.0011908377 935 206
-0.11199672 -0.047773048 0.42869112 0.0011938738 929 204
-0.10962272 -0.047606342 0.42747998 0.0012018477 940 207
-0.10771302 -0.047638841 0.42803988 0.0012177634 914 200
-0.10571554 -0.047633 0.42823884 0.0011943069 937 207
-0.10378454 -0.047657471 0.42869452 0.0012058768 918 201
-0.10155285 -0.047542125 0.42787674 0.0012886412 886 193
-0.099767171 -0.047635142 0.42891932 0.0012599855 883 192
-0.097993307 -0.047737699 0.43003437 0.0011990443 937 207
-0.096098408 -0.047784317 0.43063229 0.0012254362 898 196
-0.094053783 -0.047756873 0.43054971 0.0012540226 883 192
-0.091903567 -0.047673479 0.42994964 0.0012274064 892 194
-0.089894995 -0.047661498 0.42998117 0.0013133464 857 185
-0.088005312 -0.047713421 0.43057775 0.0012602857 901 197
-0.086060122 -0.047736969 0.43090734 0.0012188946 907 198
-0.084082037 -0.047742955 0.43106788 0.0012150098 973 216
-0.082226552 -0.047820527 0.43186483 0.0012096176 932 205
-0.080133639 -0.047760438 0.43140894 0.0012337978 927 204
-0.077971876 -0.04765521 0.430536 0.0012954482 875 190
-0.07617341 -0.047772329 0.43166307 0.001215486 907 198
-0.074180298 -0.047770377 0.43170637 0.0012155086 903 197
-0.072219752 -0.047789879 0.43193567 0.0012900123 900 196
-0.070148349 -0.047735043 0.4314858 0.0012411929 874 189
-0.068089373 -0.047685713 0.43107873 0.0012374383 882 191
-0.066081792 -0.047670495 0.43097371 0.0012439105 897 196
-0.064079225 -0.04765806 0.43088773 0.0012270937 887 193
-0.062006623 -0.047591079 0.43030313 0.0012471547 891 194
-0.059985299 -0.047560319 0.43004081 0.0012386234 891 194
-0.058007676 -0.047563303 0.43007892 0.0012896585 881 191
-0.056002311 -0.047542948 0.4299016 0.001260823 864 186
-0.054000843 -0.047524519 0.42973772 0.0012227203 906 198
-0.051910654 -0.047423642 0.42882478 0.0012363838 880 191
-0.04985949 -0.047351841 0.42817158 0.001274703 835 178
-0.047872461 -0.047337551 0.42803553 0.0012477338 879 191
-0.045869667 -0.047305774 0.42773879 0.0012519463 879 191
-0.043816786 -0.04721716 0.42692605 0.0012580022 860 185
-0.041821092 -0.047184743 0.42661965 0.001356632 813 172
-0.03989232 -0.047228359 0.42699909 0.0013424838 781 164
-0.037726853 -0.046981741 0.42475325 0.0014297885 701 142
-0.035613496 -0.046776582 0.42288139 0.0014475284 680 136
-0.033590116 -0.046672687 0.42192459 0.0013805253 728 149
-0.031104876 -0.045874856 0.41469428 0.0013168155 801 169
-0.029129582 -0.045773894 0.41376367 0.0013386538 850 183
-0.027125008 -0.045609556 0.41226041 0.0012121726 908 199
-0.025177432 -0.045523528 0.41146523 0.0012512048 891 194
-0.023254458 -0.045471586 0.41097862 0.0012813109 891 194
-0.021324674 -0.045395926 0.41027835 0.0011980576 938 207
-0.019419428 -0.045362875 0.409964 0.0011651097 1015 228
-0.017524853 -0.045350298 0.40983564 0.0011771852 957 212
-0.015625631 -0.045321219 0.40955934 0.001190436 958 212
-0.013743538 -0.045340642 0.40972245 0.0012098294 925 203
-0.011904357 -0.045530386 0.41142604 0.0012093945 942 208
-0.010031225 -0.045637593 0.41238514 0.0011985752 950 210
-0.0081397379 -0.045691893 0.41286767 0.0011815825 974 217
-0.0062451158 -0.045756381 0.41344389 0.0011596308 988 221
-0.0043387036 -0.045753192 0.41341028 0.0011857741 990 221
-0.0024370104 -0.045833763 0.41413513 0.0011888932 984 220
-0.00052843406 -0.045899503 0.41472781 0.0012282074 927 204
0.0013844618 -0.045926824 0.41497511 0.0011753965 966 215
0.0033106797 -0.046107981 0.41661409 0.0011891841 938 207
0.0052203955 -0.046010669 0.41573876 0.0012033323 926 204
0.0071653523 -0.046192814 0.41739017 0.001233884 893 194
0.0090663033 -0.0460742 0.41632563 0.0012488259 873 189
0.010998742 -0.046129096 0.41683054 0.0013231302 850 183
0.012902098 -0.046063833 0.41625124 0.0013102106 845 181
0.014804007 -0.046010971 0.41578531 0.0012515014 865 187
0.016704449 -0.045966193 0.4153938 0.0013063493 862 186
0.018569805 -0.045843996 0.41430372 0.0012909311 877 190
0.020496083 -0.045880973 0.41465321 0.0012627927 870 188
0.022398321 -0.045862421 0.41450179 0.0012660965 922 202
0.024309289 -0.045863256 0.41452619 0.0011841357 955 212
0.026215313 -0.045855314 0.41447189 0.0013096976 823 175
0.028129395 -0.045861591 0.41454646 0.0013034745 804 170
0.03005708 -0.045887843 0.41480178 0.0013036528 807 171
0.031953294 -0.045865778 0.41462025 0.0012543628 888 193
0.033854123 -0.045852449 0.41451734 0.0012995747 867 187
0.035769247 -0.045858879 0.41459247 0.0012762097 847 182
0.037959211 -0.04619915 0.41768521 0.0014005 785 165
0.040179852 -0.046542127 0.4208014 0.0013262283 786 165
0.042098686 -0.046520013 0.42061555 0.0013705302 771 161
0.044113908 -0.046601672 0.42136624 0.0013389684 775 162
0.046615042 -0.047168124 0.42649865 0.0014604332 749 155
0.048738487 -0.047322042 0.42789865 0.0014028276 757 157
0.050633151 -0.047250502 0.4272573 0.0013867982 809 171
0.052587058 -0.047237523 0.42714259 0.001271482 906 198
0.054509304 -0.047198068 0.42678502 0.0011980376 954 211
0.05647102 -0.047194351 0.42674688 0.0011378406 1010 227
0.058440823 -0.047197409 0.42676601 0.0011101352 1063 241
0.060333855 -0.047140285 0.42623645 0.0011399268 1062 241
0.062342752 -0.047174443 0.42652741 0.0011875835 1006 226
0.06433434 -0.04719381 0.42667928 0.0011943945 964 214
0.06657552 -0.047389701 0.42842141 0.001188684 936 206
0.068769015 -0.047541335 0.42975706 0.001232538 885 192
0.072325014 -0.048600044 0.43928474 0.0014136224 742 153
0.074389316 -0.048626009 0.43946955 0.0012719491 916 201
0.076282486 -0.048541714 0.43865028 0.0011864877 980 218
0.078166865 -0.048456311 0.43781322 0.0011476201 998 223
0.080524832 -0.0486614 0.43959206 0.0011904765 996 223
0.082394682 -0.048568692 0.4386715 0.001186303 968 215
0.084310561 -0.048506908 0.43802091 0.0011481495 1017 229
0.08622314 -0.04844616 0.43737006 0.0011748411 985 220
0.088253088 -0.048452634 0.43731564 0.0011755733 964 214
0.090286367 -0.048460606 0.43726373 0.001224066 962 213
0.092265084 -0.048439581 0.43693876 0.0011421209 1010 227
0.094191134 -0.0483924 0.43636596 0.0011423209 1004 225
0.096056744 -0.048316792 0.4355247 0.0011737547 987 220
0.0984153 -0.048487153 0.4368872 0.0011497409 984 220
0.10038182 -0.0484614 0.43646839 0.0011354487 1016 228
0.10223815 -0.048384506 0.43557534 0.0011335076 1026 231
0.10413502 -0.048329413 0.43486428 0.001152534 986 220
0.10604344 -0.048281658 0.43420449 0.0011879834 935 206
0.10796922 -0.048243448 0.43361512 0.0011961712 925 203
0.10992898 -0.048221532 0.43315616 0.0012341997 919 202
0.11198011 -0.048239771 0.43304095 0.0011894755 936 206
0.11413815 -0.048302602 0.43330798 0.0011429925 1004 225
0.1164254 -0.048416991 0.43401828 0.0011780158 971 216
0.11867702 -0.048512921 0.43454292 0.0012767434 831 177
0.12176028 -0.048939906 0.43800971 0.0015175305 669 133
0.12349226 -0.048818644 0.43654731 0.0014090629 744 153
0.12534699 -0.048749052 0.4355278 0.0014533562 731 150
0.12745593 -0.048778962 0.43537623 0.0013896636 718 146
0.12962571 -0.048830852 0.43539825 0.0013690019 738 152
0.13160945 -0.048812147 0.43476802 0.0014608884 737 152
0.13367032 -0.048822176 0.4343707 0.0015351669 700 141
0.13565747 -0.048805386 0.43371114 0.0014388375 748 155
0.13802844 -0.048925143 0.43423977 0.0013520349 761 158
0.14067063 -0.049136136 0.43554971 0.0013641093 749 155
0.14242388 -0.049035043 0.43406656 0.00136951 759 158
0.14462057 -0.049087308 0.43391573 0.0013249365 781 164
0.14679354 -0.049130186 0.43365452 0.0013307246 775 162
0.14880039 -0.049117047 0.4328717 0.001390332 800 169
0.15117894 -0.049225293 0.43313026 0.0013984655 758 157
0.15363061 -0.049354132 0.43353918 0.0014217685 757 157
0.15667205 -0.049666528 0.43552628 0.0014050471 755 156
0.15871832 -0.049659416 0.43467903 0.0013411735 773 161
0.16094738 -0.049708948 0.43429902 0.0014518599 735 151
0.16303796 -0.04971499 0.43351021 0.0014396923 715 145
0.16515505 -0.049728859 0.43276182 0.0013831994 726 148
0.16801955 -0.049964651 0.43391308 0.0014274918 756 157
0.17013119 -0.049973529 0.43306279 0.0013139193 793 167
0.17214592 -0.049954068 0.43194139 0.0013229212 799 169
0.1751027 -0.050205175 0.4331305 0.0013933884 742 153
0.17742763 -0.050271329 0.43269452 0.0014291258 744 153
0.1799296 -0.050385524 0.43264684 0.0013677788 734 151
0.18212758 -0.050412938 0.43183184 0.0013489468 750 155
0.18498316 -0.050619673 0.43253109 0.0013897348 734 151
0.18722762 -0.050656401 0.4317587 0.0013596748 761 158
0.18991962 -0.050812051 0.43198535 0.0014076887 756 157
0.19237918 -0.050902762 0.43164822 0.0015219818 706 143
0.19505934 -0.051049232 0.43177697 0.0014723 668 133
0.19752571 -0.051137201 0.43140894 0.0014543092 672 134
0.1999535 -0.051213399 0.43094721 0.0014508856 673 134
0.2027933 -0.05139241 0.4313601 0.001529348 624 120
0.20583446 -0.051618174 0.43217871 0.0017355796 582 109
0.2085422 -0.051756516 0.43228668 0.0017150819 572 106
0.21153922 -0.051963098 0.43299401 0.0016809135 538 97
0.21433143 -0.052115686 0.43328831 0.0016610216 552 101
0.2164247 -0.052096974 0.43220744 0.0016779533 536 96
0.21846534 -0.052066084 0.43108517 0.0017288105 510 89
0.22115098 -0.052188009 0.43129236 0.0017553451 505 88
0.22324754 -0.052169908 0.43041307 0.001922064 458 75
0.22576456 -0.052249461 0.43041685 0.0019106396 475 79
0.22966307 -0.05264416 0.43309492 0.0019335642 449 72
-0.26375219 -0.051300593 0.44157597 0.0026032829 281 26
-0.26515189 -0.0520126 0.44705588 0.0028765101 272 23
-0.26333183 -0.052099824 0.44723621 0.0023685046 319 36
-0.26139686 -0.052165631 0.44731525 0.0024529179 322 37
-0.25800025 -0.05193834 0.44496962 0.0024610842 307 33
-0.25589478 -0.051969253 0.44492796 0.0023759564 314 35
-0.25405413 -0.052054975 0.4454481 0.0022424811 348 44
-0.25196344 -0.052090548 0.44563434 0.0022596659 339 42
-0.24913034 -0.05197189 0.44459876 0.0022102625 354 46
-0.24685258 -0.051967967 0.44464344 0.0020842801 385 55
-0.24502409 -0.052059438 0.44560382 0.0019843692 417 63
-0.2429328 -0.052096248 0.44619599 0.0018944824 445 71
-0.23873003 -0.051676687 0.44297469 0.0014288889 771 161
-0.23848721 -0.052114502 0.4471989 0.0017480724 529 94
-0.2357484 -0.052010048 0.4468655 0.0018955015 442 70
-0.23263419 -0.051819947 0.44588122 0.0017706066 522 92
-0.22944033 -0.051608212 0.44478866 0.0016913755 548 99
-0.2263487 -0.051415518 0.44393131 0.0018110931 530 95
-0.22386469 -0.051358387 0.44431064 0.0017771833 541 98
-0.22133563 -0.051289655 0.44465053 0.0015884133 578 108
-0.21924771 -0.051322799 0.44592851 0.0016793949 582 109
-0.21668041 -0.051243249 0.44627431 0.0016637464 580 108
-0.21399826 -0.051134605 0.44640282 0.0016011968 573 106
-0.21019748 -0.050753579 0.4441753 0.0015143193 666 132
-0.20694095 -0.050497279 0.44305021 0.0013975488 717 146
-0.2040627 -0.050328776 0.44270366 0.0014188053 699 141
-0.20200983 -0.050362393 0.44414303 0.0014598906 669 133
-0.19942972 -0.050263867 0.44442078 0.0014775216 714 145
-0.19657385 -0.050092883 0.4440515 0.001375648 733 150
-0.19348729 -0.049858622 0.44310671 0.0013632842 745 154
-0.19066618 -0.049688235 0.44271103 0.0014052632 786 165
-0.18808588 -0.049577419 0.44282657 0.0013208529 791 166
-0.18562159 -0.049494963 0.44317475 0.0014328806 726 148
-0.18278787 -0.049310908 0.44258824 0.0014507381 719 147
-0.18028861 -0.049213797 0.44275463 0.0014087433 724 148
-0.17795874 -0.049161136 0.44329441 0.0014044454 762 158
-0.17537992 -0.049037591 0.44316655 0.0014449328 724 148
-0.17284547 -0.048923559 0.44309378 0.001366168 762 158
-0.17057137 -0.048881304 0.4436411 0.0013757378 755 156
-0.16804272 -0.048764113 0.44347748 0.0013416361 763 159
-0.1654316 -0.048619684 0.44303325 0.0014952231 721 147
-0.16342938 -0.048652798 0.44417632 0.0014498292 716 146
-0.16115901 -0.048605897 0.44456011 0.0014169267 718 146
-0.15852368 -0.048446216 0.44388029 0.0013763028 732 150
-0.15543473 -0.048141737 0.44183797 0.0014062844 719 147
-0.15325807 -0.048115369 0.44231492 0.0014693514 727 149
-0.15129194 -0.048155271 0.44337326 0.001412036 705 143
-0.14906755 -0.048112944 0.44364697 0.0013899066 723 148
-0.14625414 -0.047876585 0.44210073 0.0013835987 741 153
-0.14479353 -0.048082646 0.44461271 0.001415145 703 142
-0.1423756 -0.047972191 0.44417301 0.0014066764 713 145
-0.13988614 -0.047833983 0.44344774 0.0013841185 726 148
-0.13762996 -0.047772571 0.44340712 0.0014138449 732 150
-0.13549957 -0.047753621 0.4437353 0.0013716889 740 152
-0.13333189 -0.047720734 0.44390959 0.0013705964 744 153
-0.13115308 -0.047682751 0.44401255 0.0014295651 711 144
-0.12873195 -0.047554038 0.44324651 0.001376959 737 152
-0.12271307 -0.046070419 0.42981562 0.001356821 829 177
-0.12025526 -0.045896687 0.42857042 0.0012210552 895 195
-0.11798975 -0.045791738 0.42794511 0.0012918921 887 193
-0.11607055 -0.045819871 0.42854372 0.0012827175 857 185
-0.1136263 -0.045638125 0.4271594 0.0011912333 971 216
-0.11160135 -0.045621313 0.42729923 0.0012311549 977 218
-0.10989463 -0.045736328 0.42865697 0.001182373 944 209
-0.10793684 -0.045749173 0.42904079 0.001189176 933 205
-0.10614737 -0.045835186 0.4300949 0.0012120762 926 204
-0.1042235 -0.045865335 0.43060952 0.0012315632 885 192
-0.10196935 -0.045748487 0.42972818 0.0012359614 877 190
-0.099822976 -0.04567631 0.4292509 0.0012272317 888 193
-0.098138794 -0.045816973 0.43075985 0.001232979 886 193
-0.096324973 -0.04590169 0.43173 0.001234057 884 192
-0.094347499 -0.045910355 0.43197206 0.0012117886 906 198
-0.092170998 -0.045820456 0.43127382 0.0012175933 903 197
-0.090134457 -0.045797698 0.43119505 0.0012343368 894 195
-0.088231094 -0.045843109 0.43174651 0.0012723426 856 184
-0.086442851 -0.04595181 0.43288344 0.0012587107 851 183
-0.084482327 -0.045971908 0.4331755 0.0012505619 862 186
-0.08224614 -0.045839347 0.43201876 0.0012571793 879 191
-0.080338247 -0.045887709 0.43255734 0.0012779635 896 195
-0.07849966 -0.045979135 0.43349305 0.0012854736 879 191
-0.076356523 -0.045892298 0.43273944 0.0012105047 912 200
-0.074316129 -0.045864202 0.43253154 0.0012433553 869 188
-0.072291389 -0.045844484 0.4323948 0.001266174 884 192
-0.070300356 -0.045845643 0.43244779 0.0012328138 881 191
-0.068267532 -0.045818806 0.43222991 0.001231603 888 193
-0.066257335 -0.045806002 0.43213806 0.0012613679 853 183
-0.064270712 -0.045809213 0.43219137 0.001283456 833 178
-0.062139772 -0.045706473 0.43123963 0.0012805854 889 193
-0.060051903 -0.045629673 0.43052745 0.0012124535 911 199
-0.058015693 -0.045588221 0.43014413 0.0012154725 952 211
-0.056091741 -0.045635171 0.43059069 0.0012543395 900 196
-0.054054238 -0.045589786 0.43016207 0.0012470513 906 198
-0.051963285 -0.045494154 0.42925605 0.001209266 920 202
-0.049922679 -0.045436785 0.42870781 0.0012247075 890 194
-0.0479532 -0.045442086 0.42874816 0.0012565878 874 189
-0.045988481 -0.045452546 0.42883477 0.0012681682 839 180
-0.043838315 -0.045272432 0.42712128 0.0013261565 859 185
-0.041940264 -0.045347989 0.42781827 0.0013038297 805 170
-0.039892122 -0.045260705 0.42697752 0.0013472539 766 159
-0.03776357 -0.045068406 0.42514497 0.0014106439 705 143
-0.0356826 -0.044914957 0.42367822 0.0014510088 696 140
-0.033215377 -0.044229407 0.41719201 0.0013658545 752 156
-0.031181792 -0.044072524 0.41569245 0.0013489691 826 176
-0.029178221 -0.043940302 0.41442552 0.0012947368 859 185
-0.026998186 -0.04350521 0.41030255 0.0012311771 927 204
-0.025199687 -0.043665685 0.41179672 0.0012505476 919 202
-0.023268275 -0.043603234 0.4111892 0.0012120395 925 203
-0.021346901 -0.043550178 0.41067106 0.0011687323 966 215
-0.019473992 -0.043595307 0.41107965 0.0011761424 1012 227
-0.017576016 -0.043587994 0.4109948 0.0012133796 964 214
-0.015670195 -0.043557104 0.41068894 0.0011559548 989 221
-0.013801756 -0.043635912 0.41141871 0.0012073769 959 213
-0.011938102 -0.043757379 0.41255203 0.0011722296 967 215
-0.010043918 -0.043791771 0.41286594 0.0011771541 953 211
-0.0081521971 -0.043855499 0.41345808 0.0012175002 935 206
-0.0062465607 -0.043860421 0.41349757 0.0011839076 961 213
-0.0043438864 -0.043899596 0.41386172 0.0011630543 974 217
-0.0024394805 -0.043968946 0.41451219 0.0011844994 945 209
-0.00052988011 -0.044107806 0.41581982 0.0012296651 926 204
0.0013929781 -0.044284362 0.41748467 0.0012251562 903 197
0.0033145661 -0.0442391 0.41706029 0.0012698277 915 201
0.0052341125 -0.044209827 0.41678849 0.0012170945 964 214
0.0071427901 -0.044129133 0.41603374 0.0012182421 940 207
0.0090907766 -0.044274043 0.41740772 0.0012292662 893 194
0.011034957 -0.044353027 0.4181619 0.0012898879 827 176
0.012967783 -0.044369664 0.41832995 0.0013141091 845 181
0.014842601 -0.044209208 0.41682982 0.0012767167 839 180
0.016688678 -0.044009753 0.41496328 0.0012932009 842 180
0.018676203 -0.044185974 0.41664025 0.0012523107 857 185
0.020594381 -0.044180557 0.41660577 0.0013184949 860 185
0.022459971 -0.044072866 0.41560784 0.001243897 872 189
0.024323737 -0.043978818 0.41473943 0.0012121728 909 199
0.02622124 -0.043955017 0.41453391 0.0013497111 826 176
0.02838381 -0.044348612 0.41826561 0.0013175244 788 166
0.030226672 -0.044224389 0.41711378 0.0013598313 800 169
0.032355972 -0.044509035 0.41981858 0.0013136416 800 169
0.034446314 -0.044710997 0.42174345 0.0013248887 830 177
0.036455061 -0.044791136 0.42251891 0.001339905 767 160
0.038440045 -0.04483543 0.42295557 0.0013571335 777 163
0.040564787 -0.04503059 0.42481449 0.0014012986 717 146
0.042575262 -0.045086779 0.42536128 0.0014585217 736 151
0.044950671 -0.045507483 0.42934546 0.0014525617 733 150
0.047010362 -0.045586552 0.43010479 0.0013838321 766 159
0.048810683 -0.04541789 0.42852446 0.0012318396 893 194
0.050672933 -0.045317728 0.42758787 0.0012227405 952 211
0.052511729 -0.045204867 0.42652851 0.0011315857 1100 251
0.054431755 -0.04516755 0.42617869 0.0011036138 1099 251
0.056403603 -0.045174338 0.42624137 0.0011365442 1094 250
0.058524758 -0.045296226 0.42738611 0.0010927276 1088 248
0.060491636 -0.045294672 0.4273617 0.0011365778 1063 241
0.062376346 -0.045233622 0.42677113 0.0011674934 963 214
0.064235218 -0.045158137 0.42603928 0.0011628828 971 216
0.066538684 -0.045390423 0.42820543 0.0012019618 924 203
0.068911858 -0.045655508 0.43067449 0.0012570672 855 184
0.07239712 -0.046621904 0.4397518 0.0013299278 779 163
0.07435634 -0.046579704 0.43930775 0.0011921475 929 204
0.07642553 -0.046606805 0.4395099 0.0012239165 961 213
0.078216456 -0.046467185 0.4381319 0.0011903289 935 206
0.080144331 -0.046413913 0.43755984 0.0011738127 965 214
0.082493126 -0.046601042 0.43924502 0.0011675638 973 216
0.084372759 -0.046520516 0.43839779 0.0012106894 994 222
0.086307049 -0.04647319 0.43785369 0.0011645542 970 216
0.087965205 -0.046282731 0.4359512 0.001174003 956 212
0.090217993 -0.046406671 0.43699944 0.0012247271 955 212
0.092183858 -0.046380829 0.43662545 0.0011358304 1012 227
0.094136059 -0.046349358 0.43618673 0.0011276503 1024 231
0.096267492 -0.046405613 0.43656099 0.0011585751 989 221
0.098306835 -0.046416078 0.43649122 0.0011782654 976 217
0.10040802 -0.046454724 0.43667278 0.0011905255 978 218
0.10232028 -0.046406168 0.43602052 0.0011441594 1005 225
0.10422119 -0.046354443 0.43532419 0.0011638154 975 217
0.10613766 -0.046311468 0.43469533 0.001165641 979 218
0.10808907 -0.046285048 0.43420649 0.0011729323 957 212
0.11010115 -0.046285104 0.43394971 0.0012296705 934 206
0.11196448 -0.046223752 0.43310064 0.0012035192 922 202
0.11406245 -0.046259724 0.43314621 0.0011950666 1005 225
0.11632867 -0.046361495 0.4337889 0.0011562589 986 220
0.11853096 -0.046434764 0.43414491 0.0012752682 841 180
0.12128166 -0.04671682 0.43643111 0.001425927 689 138
0.12342075 -0.046757877 0.43644327 0.001370203 745 154
0.12540644 -0.046740439 0.43588874 0.0013606553 744 153
0.12752464 -0.046772141 0.43577102 0.0013672294 758 157
0.12967587 -0.046814777 0.43573254 0.001410694 709 144
0.13168216 -0.046804581 0.43517971 0.0013749105 749 155
0.13355364 -0.046747517 0.43416867 0.0014123757 736 151
0.1355924 -0.04674983 0.43368608 0.0013988727 713 145
0.13787183 -0.046833832 0.43393603 0.0013906204 730 150
0.14036757 -0.046987787 0.43480676 0.0013755452 734 151
0.14258677 -0.047046091 0.43476442 0.001393209 757 157
0.14478268 -0.047095172 0.43460965 0.0013276386 782 164
0.14681397 -0.047090087 0.43392816 0.0013274926 784 164
0.14896767 -0.047123857 0.43357754 0.0013450125 767 160
0.15117019 -0.047171947 0.43333033 0.0014397468 730 150
0.15342779 -0.047235709 0.43319795 0.0013609743 748 155
0.15599315 -0.047391284 0.43387654 0.0013395111 785 165
0.15854056 -0.047537416 0.43443587 0.0013712109 801 169
0.16099696 -0.047652856 0.43468228 0.0013502663 753 156
0.16288739 -0.047599971 0.43336424 0.0013985442 770 161
0.16498539 -0.047608308 0.43257657 0.0013072561 793 167
0.16737807 -0.047700416 0.43252087 0.0013431464 807 171
0.17020564 -0.047912698 0.43352228 0.0013005399 809 171
0.17232136 -0.047921885 0.43265563 0.0013724054 774 162
0.17437306 -0.047913257 0.43160316 0.0013222004 783 164
0.17753853 -0.048207249 0.43324715 0.0013370654 764 159
0.17996757 -0.048296764 0.4330233 0.0013745534 753 156
0.18252015 -0.048416983 0.43305016 0.0013688802 742 153
0.18476143 -0.048452817 0.43230137 0.0013363386 775 162
0.18758982 -0.048640084 0.43288386 0.0013840795 741 153
0.18990754 -0.048692234 0.43224722 0.0013763454 745 154
0.19259484 -0.04883695 0.43242034 0.0014411368 685 137
0.19525911 -0.048972741 0.4325051 0.0014432481 681 136
0.1979796 -0.049119547 0.43268263 0.0014574855 674 134
0.20047726 -0.049208522 0.43235296 0.0015132425 630 122
0.20269507 -0.049227662 0.43142095 0.0015425031 606 115
0.20581967 -0.049464319 0.43240982 0.0015727628 588 110
0.20834021 -0.049552411 0.43212023 0.0015668967 595 112
0.21093944 -0.049657241 0.4320071 0.0015772087 581 109
0.21426475 -0.049929123 0.433382 0.0016156548 567 105
0.21643986 -0.049930222 0.43245104 0.0017281673 552 101
0.21827562 -0.049853798 0.43090731 0.0017612119 513 90
0.22084785 -0.049945418 0.43088031 0.001779519 506 88
0.22365865 -0.050088685 0.43136638 0.0018251544 471 78
0.22596887 -0.050118178 0.43094745 0.0018458962 456 74
0.22947359 -0.050409496 0.43285879 0.0019997719 425 66
-0.2675311 -0.049773689 0.44777298 0.002684999 266 22
-0.26574883 -0.049863692 0.44794655 0.0026097868 275 24
-0.26317886 -0.049806163 0.44687575 0.0026543115 305 33
-0.26159918 -0.049936678 0.44757655 0.0024433504 302 32
-0.25957063 -0.049983043 0.44760999 0.0026556351 305 33
-0.25628236 -0.04978551 0.44555181 0.0025535363 294 30
-0.25455588 -0.049890555 0.44629639 0.0023677957 320 37
-0.25263739 -0.049959522 0.44681421 0.002228566 350 45
-0.25013652 -0.049913526 0.4464024 0.002217822 360 48
-0.24727793 -0.049794648 0.44543815 0.0021097022 375 52
-0.24493407 -0.049778186 0.44548956 0.0019885318 412 62
-0.24347799 -0.049943529 0.44726828 0.0019021858 444 71
-0.2393131 -0.049551107 0.44414809 0.0013396716 764 159
-0.23878774 -0.049911965 0.4478755 0.0018718892 479 80
-0.23566854 -0.049732387 0.44684744 0.0021254413 421 64
-0.23266749 -0.049574498 0.44609788 0.0017287525 504 87
-0.22965296 -0.049410619 0.44537225 0.0017922347 520 92
-0.22636238 -0.049183533 0.44414666 0.0017604746 496 85
-0.22356568 -0.049060293 0.44392192 0.0016293098 557 102
-0.22177358 -0.049157239 0.44575083 0.0016697266 567 105
-0.2195507 -0.049159713 0.44677925 0.0016230111 560 103
-0.21681587 -0.04904642 0.44679958 0.0016629533 581 109
-0.21400224 -0.048912764 0.44666761 0.0015368416 613 117
-0.20935848 -0.048353616 0.44266513 0.001567152 651 128
-0.20676795 -0.048261847 0.44294965 0.001433346 687 138
-0.20426904 -0.048189733 0.44342688 0.0014586811 699 141
-0.20174555 -0.048110187 0.44384196 0.0014398157 683 137
-0.19943523 -0.048080288 0.44471627 0.0015035758 679 136
-0.19625854 -0.047838558 0.44362327 0.0014438515 762 158
-0.1934839 -0.047690503 0.44338337 0.0013581412 761 158
-0.19082816 -0.047568735 0.44337094 0.0013160986 781 164
-0.188352 -0.047489453 0.44373578 0.001321898 785 165
-0.18555307 -0.047326006 0.44329131 0.0014044077 700 141
-0.18278992 -0.047167964 0.44287032 0.001418215 698 141
-0.18031089 -0.047080357 0.44308308 0.0014345403 765 159
-0.17785491 -0.046996728 0.44330579 0.0013822423 734 151
-0.17527878 -0.046878949 0.44317654 0.0013589378 755 156
-0.17279729 -0.046783876 0.4432312 0.0013732392 795 167
-0.1704217 -0.046715472 0.44350776 0.0013586164 749 155
-0.16787402 -0.046597574 0.44328284 0.0013922602 776 162
-0.1651338 -0.046422541 0.44248044 0.0013616001 745 154
-0.16277468 -0.046351492 0.4426361 0.0014436288 705 143
-0.16089056 -0.04641562 0.44405371 0.001408842 708 144
-0.1583858 -0.046300016 0.44372231 0.001411008 708 144
-0.1559107 -0.046190087 0.44341296 0.001412342 702 142
-0.15351889 -0.046102181 0.44328356 0.0013893015 733 150
-0.15131648 -0.046069499 0.44365531 0.0014002536 756 157
-0.14897509 -0.045992993 0.44357592 0.0014533855 702 142
-0.14691307 -0.046001785 0.444291 0.0014411719 712 145
-0.14456514 -0.045920011 0.44410378 0.0014267263 721 147
-0.14234123 -0.045875825 0.44425225 0.0014165398 761 158
-0.13999152 -0.045789175 0.44396219 0.0013711073 747 154
-0.13775064 -0.045736033 0.44397053 0.0013628392 748 155
-0.13551928 -0.045684483 0.44396859 0.0013871675 731 150
-0.1333541 -0.045653977 0.44414651 0.0014072869 725 148
-0.1307839 -0.045481659 0.44291952 0.0013755914 743 153
-0.12855683 -0.045425057 0.44279471 0.0013455324 767 160
-0.12262613 -0.044036578 0.42965224 0.0012626143 837 179
-0.12011185 -0.043849267 0.42819461 0.0012174238 957 212
-0.11802156 -0.043813035 0.4281905 0.0012176603 901 197
-0.11595719 -0.043785345 0.42825004 0.0011918081 939 207
-0.11377362 -0.043710895 0.42783275 0.0011689912 1007 226
-0.11180687 -0.043718576 0.42820075 0.0011813188 995 223
-0.10998698 -0.043784998 0.42912698 0.0012173296 901 197
-0.10824908 -0.04388712 0.43038711 0.0011955028 932 205
-0.10631064 -0.043910231 0.43085667 0.0012233172 892 194
-0.10445294 -0.043968219 0.43165305 0.0012346088 882 191
-0.10263056 -0.044043615 0.43260568 0.0013163449 843 181
-0.10020051 -0.043856062 0.43096024 0.001274731 836 179
-0.098334491 -0.043912765 0.43170023 0.0013291046 826 176
-0.096457258 -0.043966703 0.43239978 0.0012546113 860 185
-0.094501264 -0.043986265 0.43274847 0.0012679783 902 197
-0.092569992 -0.044018432 0.43320867 0.0012132298 905 198
-0.090525329 -0.043996904 0.43312851 0.0012300194 891 194
-0.088541657 -0.044004716 0.4333255 0.0013241577 856 184
-0.086551912 -0.044009805 0.43348473 0.0013076563 823 175
-0.084520988 -0.0439937 0.43342459 0.0013117787 806 171
-0.082420692 -0.043939829 0.43298224 0.0013182795 835 178
-0.080398738 -0.043926086 0.43292564 0.0012789293 836 179
-0.078522407 -0.043993231 0.43365741 0.0012706944 843 181
-0.076573431 -0.044022124 0.43400359 0.0013206369 845 181
-0.074358515 -0.043895569 0.43280911 0.0013017528 816 173
-0.072375856 -0.043902934 0.43292728 0.0012593215 856 184
-0.070393935 -0.043911163 0.43304691 0.0012591962 899 196
-0.068394527 -0.043908659 0.43305388 0.0012769019 846 182
-0.066492848 -0.043970622 0.43369049 0.0013072918 810 172
-0.064499706 -0.043974072 0.43374425 0.0012835807 826 176
-0.062413428 -0.043912217 0.43314838 0.0013105377 828 177
-0.060095701 -0.043678045 0.43084773 0.001241611 922 202
-0.058105715 -0.043674231 0.43081471 0.0011984496 929 204
-0.056109127 -0.043665003 0.43072417 0.0012847338 866 187
-0.054093543 -0.043639772 0.43047202 0.0012601996 855 184
-0.052040607 -0.043581344 0.42988896 0.0012352547 898 196
-0.049944256 -0.043480493 0.42888442 0.0012048713 915 201
-0.047979321 -0.043490455 0.42897034 0.0012315366 900 196
-0.04598929 -0.04347755 0.42882833 0.0012740166 842 180
-0.044009034 -0.043473143 0.4287681 0.0013434099 813 172
-0.041948628 -0.04338542 0.42788461 0.0013259421 778 163
-0.039936889 -0.043341868 0.4274354 0.0013858975 741 153
-0.037814431 -0.043167401 0.42569426 0.0014630358 704 142
-0.035636485 -0.042907033 0.42310536 0.0014498461 695 140
-0.033490553 -0.042657312 0.42062113 0.0014475498 736 151
-0.031261627 -0.042264685 0.41672799 0.0012980482 818 174
-0.029284764 -0.042183757 0.41590837 0.0012102874 904 197
-0.027249208 -0.042001009 0.41408539 0.0012356226 950 210
-0.025212506 -0.041788839 0.41197285 0.0012450608 909 199
-0.023294099 -0.041754149 0.41161075 0.0011772139 962 213
-0.021434501 -0.041828059 0.41232017 0.001173281 966 215
-0.019568492 -0.041902632 0.413037 0.0012176104 963 214
-0.017649634 -0.041867916 0.41267776 0.0012454386 919 202
-0.015715599 -0.041784454 0.41183946 0.0012667321 931 205
-0.013848255 -0.041879747 0.41276437 0.001189432 939 207
-0.011967488 -0.041958336 0.41352624 0.0012375383 940 207
-0.010076932 -0.042025886 0.41418099 0.0011612484 983 219
-0.0081669101 -0.042024866 0.41416177 0.0011718321 964 214
-0.0062637413 -0.042069253 0.41459176 0.0011883845 942 208
-0.0043509402 -0.042059526 0.41449037 0.0012110455 957 212
-0.0024464563 -0.042177942 0.41565385 0.001199636 933 205
-0.0005310243 -0.042281605 0.41667384 0.001208698 913 200
0.0013932975 -0.042369094 0.41753647 0.0012430047 873 189
0.0033234963 -0.042430095 0.41814011 0.0012529158 915 201
0.005245165 -0.042377383 0.41762507 0.0011893547 937 207
0.0071935062 -0.04251061 0.41894439 0.0012213279 901 197
0.0091113886 -0.042445537 0.41831142 0.0013119859 875 190
0.011083736 -0.04261259 0.41996795 0.00126926 847 182
0.013006339 -0.042567156 0.41953215 0.0013208166 817 174
0.014904206 -0.042463012 0.41851932 0.00132903 812 172
0.016793046 -0.042359974 0.41751888 0.0012635777 849 182
0.018748799 -0.042429555 0.41822121 0.0012699348 866 187
0.020697355 -0.04247139 0.41865143 0.0012587194 854 184
0.022579076 -0.042380642 0.41777578 0.0013522283 807 171
0.024484783 -0.042345639 0.41745073 0.0013273683 847 182
0.026479602 -0.042458627 0.41858521 0.0013182064 854 184
0.028621139 -0.042775538 0.42173102 0.001330436 820 174
0.030604564 -0.042830866 0.42229834 0.0012928509 832 178
0.032584809 -0.042875398 0.42275947 0.0013208915 787 165
0.034627181 -0.042992026 0.42393139 0.0014311364 733 150
0.036642049 -0.043063886 0.42466164 0.001388897 723 148
0.038701035 -0.043177672 0.42580482 0.0013872811 755 156
0.040842317 -0.043367863 0.42770073 0.0014764991 730 150
0.043003306 -0.043560509 0.42961979 0.0013695389 746 154
0.045003723 -0.043580707 0.42983672 0.0013010252 810 172
0.046934176 -0.043534301 0.4293949 0.0012507773 880 191
0.048947945 -0.043565802 0.42971939 0.0011633927 976 217
0.05076874 -0.043429781 0.42838892 0.001124925 1046 237
0.052563842 -0.043282781 0.4269473 0.0010727342 1115 255
0.05446057 -0.043227047 0.42640269 0.0010919677 1134 255
0.056576151 -0.043342862 0.42754677 0.0010997044 1122 255
0.058479205 -0.043293543 0.42705801 0.0010941738 1078 245
0.060559258 -0.043374207 0.42784712 0.0010915129 1083 247
0.062441994 -0.043312911 0.42723128 0.0011573241 987 220
0.064338952 -0.043264937 0.4267416 0.0011692843 999 224
0.066738486 -0.043547742 0.42950898 0.0012385268 876 190
0.069954909 -0.044331923 0.43721485 0.0013147667 797 168
0.072244205 -0.044501126 0.43884847 0.0013543793 805 170
0.074365847 -0.044560645 0.43939322 0.0012499734 943 208
0.07654091 -0.044648174 0.44020656 0.0012602959 918 201
0.078346446 -0.044521194 0.43889704 0.0012146208 900 196
0.080124713 -0.044385497 0.43749359 0.0011927725 932 205
0.082293853 -0.044467684 0.43822896 0.0011637587 971 216
0.084291935 -0.044455703 0.43802688 0.0011794493 954 211
0.086201333 -0.04439861 0.43737054 0.0012285444 968 215
0.088153735 -0.044365771 0.43694302 0.0011707216 962 213
0.089990884 -0.044277694 0.43596095 0.0011623716 980 218
0.09206561 -0.044307809 0.43613139 0.0011741533 963 214
0.094130963 -0.044332217 0.43623364 0.001150989 986 220
0.096103542 -0.04431282 0.43589246 0.0011728921 960 213
0.09827406 -0.044383626 0.43642533 0.0011721844 968 215
0.1003946 -0.044429466 0.43669882 0.0011738578 966 215
0.10243458 -0.044438545 0.43659675 0.0011348207 1006 226
0.1043096 -0.044377089 0.43578729 0.0011731208 1004 225
0.10623366 -0.044338435 0.43518704 0.0012093497 984 220
0.10837746 -0.04439123 0.43546858 0.0011827304 945 209
0.11002367 -0.044241998 0.43375242 0.0011978089 924 203
0.11186121 -0.044173688 0.43281415 0.0011871686 937 207
0.1139184 -0.044192996 0.43271717 0.00120941 985 220
0.11613008 -0.044270519 0.43317172 0.0012120563 968 215
0.11841507 -0.044372879 0.43384925 0.0012701935 852 183
0.12117374 -0.044646341 0.43617761 0.0014873026 686 137
0.12325516 -0.04466537 0.43599799 0.0014824888 730 150
0.1252666 -0.044658836 0.43554819 0.0014504966 750 155
0.1274868 -0.044725746 0.43579289 0.0014753094 696 140
0.12969038 -0.04478481 0.43593821 0.0013697941 745 154
0.13164893 -0.044758752 0.4352321 0.0013827602 740 152
0.13356532 -0.044719372 0.43437418 0.0014133513 757 157
0.13573535 -0.04476482 0.43431658 0.0013911821 730 150
0.13799436 -0.04483784 0.4345009 0.0014999871 709 144
0.14023244 -0.044902034 0.43457326 0.0013861347 717 146
0.1425609 -0.044992905 0.43487662 0.0013732308 740 152
0.14467344 -0.045014016 0.4344784 0.0013397555 769 160
0.1467467 -0.045022499 0.43393162 0.0013571839 754 156
0.14898676 -0.045081221 0.43384123 0.0013831522 778 163
0.15121782 -0.045135658 0.43368074 0.0013782041 760 158
0.15349624 -0.045202591 0.43361092 0.0013838701 723 148
0.15567112 -0.045237668 0.43320605 0.0013606581 746 154
0.15850626 -0.045461189 0.4345735 0.001327675 780 163
0.1605965 -0.045468077 0.43383798 0.001309257 800 169
0.16275539 -0.045493972 0.43325499 0.001325967 781 164
0.16501777 -0.045547776 0.43290851 0.001316117 799 169
0.16736771 -0.045624122 0.43274608 0.0013251407 786 165
0.16970053 -0.04569399 0.43249232 0.0013369544 818 174
0.17254473 -0.045898199 0.43347815 0.001383499 776 162
0.17502083 -0.046000786 0.43347222 0.0013088173 808 171
0.17659689 -0.045867186 0.43121731 0.0013556615 754 156
0.1793776 -0.046045925 0.43187529 0.0013471573 758 157
0.18243498 -0.046290748 0.43312287 0.0014212298 734 151
0.18482269 -0.046362009 0.43272102 0.0014166856 756 157
0.18737671 -0.046472907 0.43266946 0.0013897901 747 154
0.19024228 -0.046657745 0.43328694 0.0014464037 683 137
0.19270906 -0.04674178 0.43295354 0.0014977993 708 144
0.19550787 -0.046903636 0.43333098 0.0014439002 679 136
0.19819613 -0.047035772 0.43342757 0.0014648583 686 137
0.20047179 -0.047068212 0.4326078 0.0014698101 663 131
0.20274685 -0.047099832 0.43179139 0.0015650805 648 127
0.20508896 -0.047146201 0.43112704 0.001518925 648 127
0.20847857 -0.047429916 0.43265149 0.0016619111 597 113
0.21086054 -0.047480937 0.43207881 0.0015688007 589 111
0.21352722 -0.04759438 0.43211141 0.0016926891 561 103
0.2164478 -0.047761578 0.43267468 0.0016705981 566 104
0.21898112 -0.047840849 0.43249252 0.0016921522 526 93
0.22115383 -0.047840547 0.43165296 0.0018079886 481 81
0.22420949 -0.048029404 0.4325873 0.0017979097 477 80
0.2259513 -0.047935881 0.43105322 0.0019015376 475 79
0.23084378 -0.048506174 0.43556449 0.0019275723 433 68
-0.26863563 -0.04770793 0.44949979 0.0029460175 253 18
-0.26580924 -0.04760851 0.44794038 0.0026872074 262 21
-0.2636697 -0.047631446 0.44761568 0.0026440562 292 29
-0.26174912 -0.047694676 0.44775492 0.002357095 317 36
-0.25979936 -0.047753658 0.44794258 0.0025184203 295 30
-0.25672129 -0.047604449 0.44627041 0.0023609309 315 35
-0.25448114 -0.047609344 0.44613877 0.0024399552 334 41
-0.25270924 -0.047702719 0.44693348 0.0022610074 342 43
-0.2507292 -0.047758151 0.44747165 0.0022019036 354 46
-0.2480828 -0.047686491 0.44691932 0.0020932965 380 53
-0.24551737 -0.04762923 0.44660202 0.0020212503 406 60
-0.24286412 -0.047553699 0.44621232 0.0019503371 419 64
-0.24017425 -0.047469512 0.44583809 0.0015928745 573 106
-0.238874 -0.047660984 0.44814965 0.0019520586 430 67
-0.2361744 -0.047574248 0.44793844 0.0019394903 431 67
-0.23283492 -0.047355689 0.44656906 0.0018635324 493 84
-0.23021671 -0.04728099 0.44663355 0.0019112976 489 83
-0.22607087 -0.046887979 0.44375822 0.001758286 503 87
-0.22389933 -0.04690069 0.44478366 0.0017082486 518 91
-0.22168233 -0.046904031 0.44578117 0.0016382588 559 102
-0.21920235 -0.046851248 0.44629687 0.0017275853 561 103
-0.21585533 -0.046610139 0.44505692 0.0016621177 613 117
-0.21271673 -0.046409506 0.44423023 0.0015950014 607 116
-0.20951261 -0.046190213 0.44324404 0.0015074007 635 123
-0.20690161 -0.046098422 0.44349557 0.0014828447 648 127
-0.20430239 -0.046007305 0.44376394 0.0014637733 669 133
-0.20177546 -0.045930676 0.44417629 0.0015547515 687 138
-0.19916807 -0.045833848 0.44439149 0.0013929624 720 147
-0.19643955 -0.045706697 0.44430453 0.0013768136 738 152
-0.19354974 -0.045538746 0.4438062 0.001372818 741 153
-0.19092867 -0.045430936 0.44387573 0.0013233487 787 165
-0.18843885 -0.045352247 0.44421029 0.0013653885 745 154
-0.18615146 -0.04532101 0.44498909 0.0014386299 716 146
-0.18262461 -0.044983745 0.44273365 0.0014076466 708 144
-0.18018822 -0.04491026 0.44304225 0.0013897975 720 147
-0.17778122 -0.044842426 0.44337907 0.0014471447 749 155
-0.17529677 -0.044753172 0.44347471 0.0014483305 751 155
-0.17299981 -0.044710174 0.44399914 0.0013994381 751 155
-0.1704669 -0.044604365 0.44386885 0.0013165618 782 164
-0.16758174 -0.044402558 0.44274879 0.0014300736 713 145
-0.1651471 -0.044316478 0.44274849 0.0015042298 688 138
-0.16288675 -0.044275559 0.44316801 0.0014462541 708 144
-0.16056506 -0.04421667 0.44337708 0.001402321 739 152
-0.1583 -0.044172022 0.44369823 0.0013432307 766 159
-0.15578389 -0.044055171 0.4432627 0.0013566302 753 156
-0.15356994 -0.044021748 0.44363579 0.0014164102 701 142
-0.15139291 -0.043998126 0.44407868 0.0014663259 724 148
-0.14913508 -0.04395004 0.44424593 0.0013721465 736 151
-0.14694703 -0.043921433 0.44458172 0.0013834296 737 152
-0.14472213 -0.043880831 0.4447684 0.0013672402 758 157
-0.14233445 -0.043788962 0.44440749 0.0014311527 721 147
-0.14012206 -0.043749087 0.44454697 0.0013844665 717 146
-0.137795 -0.043671664 0.44427842 0.001384225 735 151
-0.1357208 -0.04367324 0.44478834 0.0014852581 719 147
-0.13318001 -0.043522388 0.44372034 0.0014073885 775 162
-0.13075705 -0.043405879 0.44297656 0.0014193046 732 150
-0.12787837 -0.043131925 0.44059956 0.0013942668 723 148
-0.12244979 -0.041974936 0.42916733 0.0012552243 879 191
-0.12047073 -0.041981641 0.42960188 0.0012117437 954 211
-0.11850861 -0.04199459 0.43008053 0.0013792225 817 174
-0.11599036 -0.041807521 0.42849001 0.0012243667 900 196
-0.11498618 -0.042169183 0.43250602 0.0011915163 938 207
-0.11220244 -0.041879475 0.42982364 0.0012251728 922 202
-0.110347 -0.041932046 0.43063501 0.0012415419 871 188
-0.10829335 -0.04190984 0.43066165 0.0012093552 912 200
-0.10652491 -0.041999254 0.43181914 0.0012633331 879 191
-0.10480141 -0.042110145 0.43318281 0.0012913672 847 182
-0.10276721 -0.042098083 0.43326688 0.0012840738 826 176
-0.10063342 -0.042043932 0.4329026 0.0012755425 843 181
-0.09843187 -0.041958705 0.43220359 0.0012968672 828 177
-0.096506044 -0.041989908 0.43269005 0.0013024017 840 180
-0.094554491 -0.042011 0.43305945 0.0012861441 853 183
-0.092697755 -0.042076048 0.43386963 0.0012563886 854 184
-0.090718225 -0.042087 0.43411031 0.0013078317 835 178
-0.088685863 -0.04207338 0.43408597 0.0013005417 806 171
-0.086577386 -0.042022195 0.43366283 0.0013699366 815 173
-0.084585629 -0.042026572 0.43380263 0.0012930016 813 172
-0.082602255 -0.042035431 0.43397871 0.0013322195 831 177
-0.080538236 -0.042002659 0.43371552 0.0012768278 830 177
-0.078424521 -0.041941654 0.43315157 0.0012867831 816 173
-0.076348118 -0.041897938 0.43275762 0.0012870171 828 177
-0.074383222 -0.041914701 0.43298033 0.0013122001 862 186
-0.072421931 -0.041934483 0.43322662 0.0012730829 837 179
-0.070489332 -0.041972473 0.43365404 0.0013290831 807 171
-0.068564236 -0.042017274 0.43414533 0.0013778884 783 164
-0.066595756 -0.042037379 0.43437526 0.0013029278 834 178
-0.064589158 -0.042033926 0.43435594 0.0012980864 815 173
-0.062460262 -0.041948121 0.43348029 0.001347617 824 175
-0.060243391 -0.041795608 0.43191031 0.0012817428 863 186
-0.058223739 -0.041774176 0.43169045 0.0012226343 893 194
-0.056210611 -0.041756079 0.43150094 0.0012548455 914 200
