# .PCD v0.7 - Point Cloud Data file format
VERSION 0.7
FIELDS x y z noise intensity gray
SIZE 4 4 4 4 2 1
TYPE F F F F U U
COUNT 1 1 1 1 1 1
WIDTH 864
HEIGHT 1
VIEWPOINT 0 0 0 1 0 0 0
POINTS 864
DATA ascii
0.042417075 -0.12497494 0.4181616 0.0014262889 723 145
0.044338048 -0.12488591 0.41771427 0.0014229207 744 151
0.046327181 -0.12498829 0.41789848 0.0014975271 712 142
0.04839094 -0.12527557 0.41869158 0.001462921 665 130
0.050327774 -0.12522472 0.41834497 0.0014337286 697 138
0.052367095 -0.12542313 0.41882154 0.0014547502 675 133
0.054353714 -0.12548555 0.4188337 0.0014813165 657 128
0.056345362 -0.12555484 0.41885874 0.0015199935 661 129
0.05814318 -0.12520207 0.41746587 0.0014265436 703 140
0.060104955 -0.12521386 0.41727853 0.0014299952 706 141
0.062185343 -0.12546419 0.41787481 0.0015382015 690 136
0.064273648 -0.12571472 0.4184595 0.0014479241 689 136
0.066408068 -0.12603791 0.41927344 0.0014310507 689 136
0.068613224 -0.12647285 0.4204455 0.0014405894 685 135
0.070419744 -0.12616925 0.41914985 0.0013734688 745 151
0.072290815 -0.12599465 0.41827127 0.0013842602 771 158
0.074132256 -0.12577908 0.4172447 0.001395463 722 145
0.07653106 -0.12649585 0.41929647 0.0014527051 680 134
0.078035884 -0.12573612 0.41644064 0.0014126614 708 141
0.079996973 -0.1257308 0.41607156 0.0013851076 740 150
0.082403764 -0.12640947 0.4179498 0.0014704136 714 143
0.084222317 -0.12617509 0.41679332 0.0015060547 672 132
0.086131565 -0.12608422 0.41609696 0.0014803067 656 128
0.088583529 -0.12677412 0.41795999 0.0015181103 629 120
0.090476751 -0.12665167 0.41712743 0.0015232189 628 120
0.092700176 -0.12698682 0.41778517 0.001566428 644 124
0.094845854 -0.12720361 0.41803539 0.0014857439 657 128
0.096707858 -0.12703893 0.41701517 0.0014476443 678 133
0.099052057 -0.12750152 0.41803616 0.0014335886 685 135
0.10071769 -0.12708962 0.41617283 0.0015034287 706 141
0.102741 -0.12713625 0.41579524 0.0014720777 667 130
0.10517427 -0.12767881 0.4170197 0.0015001597 680 134
0.1074273 -0.12798643 0.41745564 0.0014925784 645 125
0.10959774 -0.1281862 0.4175199 0.0014600732 672 132
0.11181996 -0.12843829 0.4177348 0.0015138843 634 122
0.11384927 -0.12846383 0.41719392 0.001519246 646 125
0.1159463 -0.12856355 0.41687587 0.0014861664 665 130
0.1181638 -0.1287912 0.41695371 0.001446726 682 134
0.12048368 -0.12912093 0.41734213 0.0014546358 672 132
0.12262075 -0.12924713 0.41705361 0.0014317497 690 136
0.12476365 -0.12937525 0.41675389 0.0014568963 672 132
0.12673163 -0.1293208 0.41585025 0.0014580686 666 130
0.12941207 -0.12998371 0.41723526 0.0014637552 677 133
0.13145328 -0.12999396 0.41650775 0.0014288429 688 136
0.13344027 -0.1299511 0.41559768 0.0013436743 761 155
0.13586622 -0.13033062 0.41602528 0.0013661906 759 155
0.13813984 -0.13055496 0.41594425 0.0013990479 722 145
0.1408612 -0.13118976 0.41715771 0.0014181795 705 140
0.14346772 -0.13170093 0.41796508 0.0014647195 678 133
0.14568885 -0.13184887 0.41761208 0.0014547628 681 134
0.14787276 -0.13195948 0.41713807 0.0014817584 686 135
0.15020536 -0.13219789 0.41706774 0.0014799128 655 127
0.15242925 -0.13233545 0.41668144 0.0015958544 626 120
0.15461701 -0.13243841 0.41619289 0.0014676295 665 130
0.15719588 -0.13286921 0.41674292 0.0015335919 635 122
0.15943775 -0.13300765 0.41638771 0.0014978308 644 124
0.16167018 -0.13313477 0.41601488 0.0015401808 616 117
0.16421692 -0.13351418 0.41645077 0.0016868392 582 108
0.16720127 -0.13423541 0.41797426 0.0016588434 545 98
0.16935305 -0.13427867 0.41741446 0.0016826426 536 96
0.17192893 -0.13465297 0.41791776 0.0017687798 514 90
0.17408535 -0.1346937 0.41742381 0.0017502541 495 85
0.17651589 -0.13494302 0.41761914 0.0017927535 484 82
0.17849216 -0.13484325 0.41678137 0.0020052406 469 78
0.18068014 -0.13490392 0.41649091 0.0018656476 452 74
0.1827331 -0.1348635 0.41594279 0.0019370407 430 68
0.18565315 -0.13545664 0.41740441 0.0020653789 394 59
0.18737772 -0.13517404 0.41622615 0.0020027447 409 63
0.19006428 -0.13558397 0.41724178 0.0020259342 403 61
0.19258489 -0.13586776 0.41793162 0.002080264 390 58
0.19470908 -0.13586877 0.41781548 0.0024362183 361 50
0.19693227 -0.13593808 0.4179748 0.0022258158 359 49
0.19901508 -0.13591003 0.41790012 0.0023455324 330 42
0.20103797 -0.13584211 0.41776812 0.0023537916 323 40
0.20279649 -0.13559882 0.41716155 0.0024470317 311 37
0.20490994 -0.13559544 0.41735691 0.0024346602 306 36
0.20713553 -0.13566557 0.41784185 0.0024937771 300 34
0.20945072 -0.13579237 0.41856378 0.0025414177 290 31
0.21179342 -0.13593429 0.41939372 0.0027358513 265 25
0.21246812 -0.13501345 0.41700131 0.0028140005 250 21
0.21473092 -0.13510996 0.41780549 0.0028620283 243 19
0.2180593 -0.13586853 0.42071614 0.0031866389 215 12
0.21902253 -0.13515301 0.4191162 0.0030549187 224 14
0.22206652 -0.13572288 0.4215537 0.003331328 197 7
-0.23864679 -0.12712571 0.41300595 0.0036379041 188 4
-0.23743859 -0.12756062 0.41335985 0.0033771789 198 7
-0.23618811 -0.1279801 0.41364694 0.0031412521 217 12
-0.23589644 -0.12893085 0.41564912 0.0034289069 193 6
-0.23301375 -0.12846975 0.4131164 0.0032086973 209 10
-0.23127532 -0.12863696 0.41263452 0.003383965 197 7
-0.22971345 -0.12890622 0.4125092 0.0033335791 211 11
-0.22821939 -0.1292187 0.41255352 0.0033123149 214 11
-0.22670366 -0.12952448 0.41261005 0.0031668879 231 16
-0.22459245 -0.12949252 0.41162902 0.0029653346 233 16
-0.22183278 -0.12908264 0.40949151 0.0028824052 237 17
-0.22136474 -0.13001102 0.41164023 0.0029620086 263 24
-0.22058134 -0.13076991 0.413288 0.0031887752 237 17
-0.21899539 -0.13106292 0.41350546 0.0030713971 255 22
-0.21708608 -0.13116619 0.41317204 0.0028936991 269 26
-0.21528457 -0.1313372 0.41310254 0.0026578584 275 27
-0.21346159 -0.13149832 0.41305435 0.0026728897 267 25
-0.21188587 -0.13181646 0.41355297 0.002860636 273 27
-0.2100687 -0.13198923 0.4136512 0.0025354121 286 30
-0.2076748 -0.13179949 0.41267264 0.0027738754 291 32
-0.2072269 -0.13285345 0.41564685 0.0027211327 273 27
-0.20569631 -0.13322781 0.41655406 0.0033726026 229 15
-0.2018958 -0.13212453 0.41290611 0.0027512519 267 25
-0.20130274 -0.13311908 0.41587925 0.0027279558 303 35
-0.19911283 -0.13306758 0.41564906 0.0023293917 362 50
-0.19498442 -0.13170555 0.41139156 0.0021527947 367 52
-0.19350195 -0.13212064 0.41275048 0.0020660248 395 59
-0.19150604 -0.13219041 0.41309616 0.0021319205 390 58
-0.18939506 -0.13218141 0.41326049 0.0020714412 430 68
-0.187058 -0.13201267 0.41298851 0.001846449 469 78
-0.18471833 -0.13183822 0.41275987 0.001804668 486 83
-0.18214379 -0.13149025 0.41204619 0.0018444107 468 78
-0.17979513 -0.13129915 0.41187975 0.001912237 454 74
-0.17795376 -0.13147835 0.41292933 0.0017810849 511 89
-0.17617735 -0.1317104 0.41419765 0.0016633476 543 98
-0.17360684 -0.13134721 0.41364101 0.0016443236 553 100
-0.17134517 -0.13121171 0.41384307 0.0016434445 570 105
-0.16853215 -0.13064544 0.41272271 0.0016275164 564 103
-0.16621205 -0.13045195 0.41281158 0.0015867205 614 116
-0.16413429 -0.1304462 0.41352454 0.001666235 599 113
-0.16190296 -0.13031666 0.41387138 0.001497475 642 124
-0.15947962 -0.13002722 0.41373071 0.001546107 647 125
-0.15700692 -0.12968944 0.41345099 0.0014711043 678 133
-0.15460995 -0.12940603 0.41335553 0.0014768131 651 126
-0.15236971 -0.12924798 0.41366851 0.0014918387 703 140
-0.15018848 -0.12913635 0.41413581 0.0014681339 701 139
-0.14696541 -0.12811343 0.41167736 0.0013768401 732 148
-0.14494091 -0.12812127 0.41252574 0.0013681148 744 151
-0.14320062 -0.12838416 0.4141953 0.0014319357 747 151
-0.14107871 -0.12830754 0.41476664 0.0014096398 763 156
-0.13868545 -0.1279783 0.41451219 0.0014624669 724 145
-0.13625985 -0.12760895 0.41411504 0.0013754114 741 150
-0.13422693 -0.12760177 0.4148806 0.0014536773 676 133
-0.13193674 -0.12734608 0.41482496 0.0014359048 690 136
-0.12984261 -0.12727459 0.41535413 0.0013958327 721 145
-0.12757809 -0.12703118 0.41530642 0.0014065343 710 142
-0.12534983 -0.12681665 0.41533536 0.0013697675 739 149
-0.12312434 -0.12659794 0.41533226 0.0013970444 725 146
-0.12034158 -0.12578949 0.41337234 0.0013962029 734 148
-0.1182963 -0.12573767 0.41387716 0.0014411217 685 135
-0.11650945 -0.12596342 0.41527936 0.0014981849 710 142
-0.11412285 -0.12553735 0.41451401 0.001331183 772 158
-0.11182871 -0.12519965 0.41401893 0.0014371986 739 149
-0.10988814 -0.12525272 0.41479698 0.0014191138 699 139
-0.10805001 -0.12542665 0.41595846 0.0014075268 727 146
-0.10582229 -0.12514637 0.41559547 0.0013966855 721 145
-0.10367021 -0.12494659 0.41547975 0.0014569381 715 143
-0.10155386 -0.12478288 0.41546497 0.001501784 694 138
-0.099532001 -0.12473106 0.41580451 0.0014242674 711 142
-0.097563043 -0.1247448 0.41634521 0.0014275685 744 151
-0.095109694 -0.12412693 0.4147588 0.0014033021 720 144
-0.093166895 -0.12416332 0.41533962 0.0013660234 745 151
-0.091100939 -0.1240336 0.4153482 0.0014141097 733 148
-0.089161314 -0.12407398 0.41591004 0.0013624951 773 158
-0.087230928 -0.1241293 0.41650662 0.0014061833 733 148
-0.085115686 -0.12391805 0.41619301 0.0013918043 739 149
-0.083057463 -0.12378181 0.41611508 0.0014096781 716 143
-0.081110448 -0.1238087 0.41657063 0.0014411827 687 136
-0.079225332 -0.12393375 0.4173426 0.0014761966 705 140
-0.076787472 -0.12317848 0.41513443 0.0014103831 714 143
-0.074895732 -0.12328272 0.4158076 0.0014905516 708 141
-0.072959855 -0.12331792 0.41623509 0.0013802266 739 149
-0.071114838 -0.12351286 0.41718954 0.0014461075 687 136
-0.06902989 -0.12329037 0.41672128 0.0014206033 699 139
-0.066989139 -0.1231361 0.41647068 0.0014808621 710 142
-0.064961866 -0.12299808 0.41626254 0.0015045276 711 142
-0.062971421 -0.12292343 0.4162569 0.0014908138 700 139
-0.061310638 -0.12350807 0.41847366 0.0014490251 677 133
-0.059339348 -0.12348516 0.41862214 0.0014171548 717 144
-0.057252657 -0.12321234 0.4179123 0.0013989696 720 144
-0.055166211 -0.12292078 0.41712764 0.0014302791 691 137
-0.053236034 -0.12296881 0.41748506 0.0014249234 721 145
-0.051291652 -0.12298642 0.41772968 0.0014693548 694 138
-0.049289208 -0.1228607 0.41747785 0.0014327054 700 139
-0.047241062 -0.122606 0.41677827 0.001459096 706 141
-0.045383383 -0.12284499 0.41774797 0.0014400348 731 147
-0.043357112 -0.1226286 0.41716069 0.0014334169 738 149
-0.041436471 -0.12270467 0.41755974 0.0014200971 723 145
-0.039524056 -0.12281379 0.4180634 0.0014311889 696 138
-0.037593294 -0.12287427 0.41839385 0.0014022387 714 143
-0.035564806 -0.12260449 0.41759187 0.001434334 718 144
-0.033463608 -0.1220383 0.41577217 0.0014055517 742 150
-0.031587631 -0.12227435 0.4166781 0.0014171508 757 154
-0.029668419 -0.12236299 0.41707498 0.0013932531 736 149
-0.027812883 -0.12274507 0.41846547 0.0013527398 762 155
-0.02585876 -0.12271687 0.4184508 0.0014300342 709 141
-0.023850987 -0.12240871 0.41747478 0.0013959392 721 145
-0.021862062 -0.12215118 0.41666466 0.0014611083 684 135
-0.019882509 -0.12190104 0.4158732 0.001454876 679 134
-0.017944241 -0.12187734 0.41584814 0.0014349758 699 139
-0.016035948 -0.12207611 0.41657609 0.0014658358 701 139
-0.014133094 -0.12237661 0.41764551 0.0014350152 700 139
-0.012207623 -0.12254583 0.41826126 0.0014633642 697 138
-0.010280337 -0.12275752 0.41901621 0.0014112906 707 141
-0.0083313854 -0.12274902 0.41901392 0.0014339639 691 137
-0.0063796141 -0.12268108 0.41880316 0.0014201999 700 139
-0.0044217235 -0.12238412 0.41780478 0.001413491 716 143
-0.0024823616 -0.12253642 0.4183346 0.0015184231 688 136
-0.00053807651 -0.12266858 0.41879004 0.0014518616 677 133
0.0014051303 -0.12234159 0.41767251 0.0015179883 683 135
0.0033495796 -0.12243944 0.41799977 0.0014651263 667 130
0.0053025563 -0.12266269 0.41874963 0.0014981685 691 137
0.0072403606 -0.12250932 0.41820809 0.0014849245 658 128
0.0091765299 -0.12239908 0.41780815 0.0014502469 685 135
0.01112419 -0.12245385 0.41796589 0.0013986147 720 144
0.013036854 -0.12216438 0.41694298 0.0014582778 681 134
0.015004582 -0.12239906 0.41770315 0.0015692319 658 128
0.01693498 -0.12231032 0.41735381 0.0014204847 700 139
0.018896477 -0.12244134 0.41774821 0.0013950049 738 149
0.020841919 -0.12245361 0.41773134 0.0013850655 733 148
0.022857839 -0.12284253 0.41899294 0.0013850788 734 148
0.024732541 -0.12247105 0.41765472 0.0013937065 728 146
0.026750971 -0.12281356 0.41874486 0.001455824 676 133
0.028715227 -0.12287769 0.41887894 0.0014713492 667 130
0.03063073 -0.12273832 0.41831264 0.0014623104 714 143
0.032558948 -0.12266356 0.4179596 0.0014538948 675 133
0.034502033 -0.12265006 0.41780841 0.0013967886 725 146
0.036456566 -0.12267651 0.41778591 0.0015416099 677 133
0.038549416 -0.12314215 0.41925108 0.0014605066 672 132
0.0405243 -0.12320419 0.41933385 0.0014197349 700 139
0.042562783 -0.12344494 0.42001677 0.00143063 702 140
0.044430703 -0.12319164 0.41901031 0.0014174018 727 146
0.046313852 -0.1230001 0.41820607 0.0014494536 737 149
0.048205979 -0.12284695 0.4175241 0.0014294691 688 136
0.050193917 -0.12294039 0.41767141 0.0014436372 682 134
0.052227214 -0.12313375 0.41814852 0.0014446008 703 140
0.054304082 -0.12341221 0.41890433 0.0014848326 714 143
0.056232981 -0.12334671 0.41848254 0.0014603817 707 141
0.058222953 -0.12341505 0.41850477 0.0014042335 714 143
0.060221341 -0.12349623 0.41855982 0.0013993446 722 145
0.062262829 -0.12365787 0.41887641 0.0014173528 699 139
0.064232126 -0.12367062 0.41867739 0.0013756279 737 149
0.066149332 -0.12358534 0.4181352 0.0014441391 735 148
0.068213701 -0.12377196 0.41850102 0.0014380821 722 145
0.070232093 -0.12386704 0.41854471 0.0013780136 734 148
0.072203033 -0.12387555 0.41828316 0.0014333201 716 143
0.073928304 -0.12347329 0.41662291 0.0013899923 738 149
0.075886123 -0.12347018 0.41629738 0.0014339965 727 146
0.077879891 -0.12352423 0.41615105 0.0014454704 707 141
0.079783238 -0.12343574 0.41551083 0.0014008633 716 143
0.081837371 -0.12357919 0.4156372 0.0015373329 667 130
0.083735667 -0.12348611 0.41495338 0.0016027578 631 121
0.084537476 -0.12181726 0.40896532 0.0015284937 644 124
0.085708149 -0.12074268 0.40496612 0.0015444055 658 128
0.090256959 -0.12437004 0.41671312 0.0017095455 559 102
0.092300616 -0.12446402 0.41659287 0.001510416 643 124
0.094639234 -0.12494344 0.41774458 0.0015464243 669 131
0.096788041 -0.12515777 0.4179908 0.0014174089 712 142
0.098857082 -0.12526239 0.41785264 0.0014134927 706 141
0.10091134 -0.12534453 0.41762155 0.0013953971 716 143
0.10298044 -0.1254416 0.41742221 0.0015103644 669 131
0.10512545 -0.12562566 0.4174937 0.00149772 693 137
0.10727782 -0.1258115 0.4175517 0.0014837006 677 133
0.10946529 -0.12603095 0.41770172 0.0014661795 670 131
0.1116994 -0.12629531 0.41798013 0.0015188353 677 133
0.11375948 -0.126357 0.41756859 0.001562659 658 128
0.1158452 -0.12644458 0.41722378 0.0014929631 645 125
0.11806144 -0.12666918 0.41731188 0.0014614055 689 136
0.12006573 -0.12666266 0.41661975 0.0014383466 694 138
0.12218779 -0.12677857 0.41631266 0.0014398878 688 136
0.1242635 -0.12684342 0.41581997 0.0014404495 708 141
0.12703407 -0.12760414 0.41758773 0.0013748137 741 150
0.12917019 -0.12771372 0.41720399 0.0014065645 712 142
0.13112661 -0.12764499 0.41622284 0.001365321 743 150
0.1332376 -0.12772651 0.41571775 0.0013549249 753 153
0.13553399 -0.12798066 0.41575998 0.0013602725 776 159
0.13781494 -0.12821293 0.4157171 0.0013837388 726 146
0.13991047 -0.12826847 0.41508988 0.0014766584 707 141
0.14215675 -0.12845862 0.41488919 0.0014360164 732 148
0.14545068 -0.12957671 0.41767159 0.0014094847 712 142
0.14782187 -0.12985307 0.41772866 0.0014111323 704 140
0.14933982 -0.1293826 0.41538411 0.0014512368 677 133
0.15153091 -0.12950015 0.41493195 0.0014721123 666 130
0.15424973 -0.13005954 0.41589671 0.0014562506 672 132
0.15706892 -0.13068767 0.41708279 0.0015503264 638 123
0.15953405 -0.13100867 0.41729537 0.0015861578 609 115
0.16181353 -0.1311709 0.41701591 0.001560143 613 116
0.16410941 -0.13134217 0.41678372 0.0016390793 605 114
0.16673353 -0.13176852 0.41738245 0.0016094006 577 107
0.1690985 -0.13198203 0.4173325 0.0016732635 542 98
0.17191999 -0.1325423 0.41840827 0.0016870672 538 97
0.1741444 -0.13263427 0.41804034 0.0017482294 507 88
0.17637703 -0.1327302 0.41772601 0.0017050181 521 92
0.17852534 -0.13276117 0.41725266 0.0017155882 519 92
0.18054521 -0.13269703 0.41653019 0.001847667 463 77
0.18331562 -0.13317963 0.41757566 0.0018835567 447 73
0.18486665 -0.13277544 0.41589659 0.0019749252 442 71
0.18742621 -0.13309655 0.4165487 0.0020004418 410 63
0.18952751 -0.13308869 0.41623175 0.0020479558 396 59
0.19195831 -0.13330987 0.41669375 0.0021728147 389 57
0.19454911 -0.13363612 0.41754815 0.0024128647 354 48
0.19674163 -0.13368468 0.41760013 0.0021754529 361 50
0.1990069 -0.13378111 0.41786793 0.0022788849 340 44
0.20114008 -0.13378766 0.41792139 0.0022765808 335 43
0.2031493 -0.13371247 0.41778561 0.002477739 298 33
0.20506239 -0.13357623 0.41752458 0.0025216513 296 33
0.20727409 -0.1336353 0.41793874 0.0023615072 323 40
0.20954008 -0.13372782 0.41852137 0.00250106 293 32
0.2122993 -0.13413011 0.42013717 0.0027073163 262 24
0.21408446 -0.1339151 0.41988093 0.0028825188 267 25
0.21541683 -0.13342386 0.41881552 0.0027988735 248 20
0.21667229 -0.13289505 0.41768566 0.0031707953 238 18
0.21941391 -0.13327914 0.41948006 0.0031389967 218 12
0.21966426 -0.13215709 0.41658401 0.0036280965 206 9
-0.24259399 -0.12717725 0.41927153 0.0034420274 200 8
-0.23769085 -0.12566936 0.41322729 0.0033377004 199 7
-0.23796532 -0.12689652 0.41618037 0.0033452383 198 7
-0.235506 -0.12667449 0.4143883 0.0033806621 200 8
-0.23332773 -0.12660107 0.41311023 0.0033965965 201 8
-0.23152475 -0.1267318 0.41252878 0.0032916842 208 10
-0.2304308 -0.12725639 0.41325909 0.0035123967 203 8
-0.22896403 -0.12758271 0.41337642 0.0036254688 210 10
-0.22727925 -0.12779234 0.41315159 0.0029943285 230 16
-0.22452357 -0.12739816 0.41101757 0.0030364583 225 14
-0.22304785 -0.12772968 0.41126883 0.0028817316 242 19
-0.22260304 -0.12866324 0.41349617 0.0029742161 252 21
-0.22076251 -0.12880008 0.41320422 0.0027277949 263 24
-0.21927845 -0.12914944 0.41364107 0.0028758852 266 25
-0.21747316 -0.12931451 0.41353664 0.0028581943 275 27
-0.21558115 -0.12943068 0.41332814 0.0025231305 291 32
-0.21388665 -0.12966889 0.41356325 0.0025559901 288 31
-0.21221262 -0.12992436 0.41390902 0.0028592856 284 30
-0.20991525 -0.12979944 0.41310182 0.0024289901 308 36
-0.20784329 -0.12981282 0.4127959 0.0023834885 321 39
-0.20645136 -0.13025552 0.41391662 0.0025344184 293 32
-0.20481648 -0.13055244 0.41463661 0.0032438063 232 16
-0.20336403 -0.13097304 0.41581354 0.0026811545 286 30
-0.20107628 -0.13085885 0.41535842 0.002207211 355 48
-0.19770463 -0.13002937 0.41269997 0.0021874944 352 48
-0.1952146 -0.12976815 0.41191182 0.002136237 405 62
-0.19297659 -0.12967063 0.4117094 0.0020923058 425 67
-0.19134045 -0.1299798 0.41286424 0.0021755379 401 60
-0.18965265 -0.13026036 0.41399401 0.0020042022 445 72
-0.18728067 -0.13007201 0.41369715 0.0019509676 468 78
-0.18439367 -0.12951767 0.41229582 0.0017777632 487 83
-0.18205296 -0.12933873 0.41214636 0.0018565184 495 85
-0.18009593 -0.12943137 0.4129183 0.0018374318 498 86
-0.17766769 -0.12918355 0.41265655 0.0016383289 553 100
-0.17538904 -0.12903991 0.4127754 0.0016090424 576 106
-0.17330183 -0.12903538 0.4133842 0.0016206147 564 103
-0.17034245 -0.12837346 0.41192508 0.0016012675 577 107
-0.16844919 -0.12850858 0.41305813 0.0016858376 589 110
-0.16631831 -0.12846352 0.41364554 0.0016117037 604 114
-0.16416264 -0.12839796 0.41419482 0.0015703893 629 120
-0.16187632 -0.1282272 0.41442788 0.0015126184 635 122
-0.15952565 -0.12800039 0.41449717 0.0014788333 657 128
-0.15676309 -0.12743282 0.41347411 0.0014635123 665 130
-0.15450722 -0.12726752 0.41376358 0.0015694104 648 125
-0.15180491 -0.12672511 0.41283065 0.0014357886 691 137
-0.14926098 -0.12630188 0.4122847 0.0014503164 732 148
-0.14679505 -0.12593387 0.41191545 0.0014124247 755 154
-0.14479455 -0.12596044 0.41283351 0.001400519 719 144
-0.14284241 -0.1260304 0.41389069 0.0014152857 698 139
-0.14066714 -0.12590268 0.41429219 0.001342113 767 157
-0.13838515 -0.12567431 0.41435197 0.0013568591 790 163
-0.1363432 -0.12566037 0.41510722 0.0013155004 794 164
-0.13400036 -0.12536456 0.41491765 0.0014232248 743 150
-0.13183072 -0.12522417 0.41522685 0.0013985711 718 144
-0.12949629 -0.12492042 0.41497746 0.0013451664 764 156
-0.12729067 -0.12473334 0.41509753 0.0013829881 737 149
-0.12495965 -0.12441536 0.41476312 0.001398294 749 152
-0.12281133 -0.12427189 0.41499117 0.0014173923 702 140
-0.120226 -0.12367412 0.41368079 0.0013867719 721 145
-0.11840571 -0.12385643 0.41496006 0.0014365793 690 136
-0.11606819 -0.12349467 0.41439769 0.0014024676 715 143
-0.11381725 -0.12321401 0.41408622 0.001405683 737 149
-0.11173176 -0.12310567 0.41433382 0.0013997531 732 148
-0.10970681 -0.12306131 0.41477796 0.0014238737 700 139
-0.10752496 -0.1228361 0.41459316 0.0014814904 716 143
-0.10568824 -0.12300409 0.41571721 0.00146154 700 139
-0.10363675 -0.12292376 0.41598472 0.0014563859 724 145
-0.10151043 -0.12274983 0.41591656 0.0014569059 701 139
-0.099357538 -0.1225362 0.41569492 0.0013897029 740 150
-0.097295634 -0.12242839 0.41581377 0.0014699008 734 148
-0.095351949 -0.12246796 0.41641602 0.0013897514 727 146
-0.093192406 -0.12222609 0.41604388 0.0014220556 747 151
-0.090992108 -0.12191915 0.4154321 0.0013873663 729 147
-0.089072146 -0.12198259 0.41606545 0.0013174078 795 164
-0.087066002 -0.12192817 0.41628131 0.0014562353 730 147
-0.084993176 -0.12177574 0.41614658 0.0013681093 747 151
-0.083063073 -0.12182538 0.41668725 0.0014150224 712 142
-0.081129327 -0.12187199 0.41720328 0.0014519985 709 141
-0.078973033 -0.12157828 0.41653937 0.0013916641 743 150
-0.076971598 -0.1215141 0.41664702 0.0014002863 719 144
-0.074841328 -0.12123784 0.41601327 0.0014755449 702 140
-0.073005788 -0.12143703 0.41699761 0.0014678995 735 148
-0.071096495 -0.12152114 0.41757473 0.0014318939 719 144
-0.069127001 -0.12150422 0.41779253 0.0014037268 721 145
-0.067070946 -0.1213297 0.41745597 0.0014731167 736 149
-0.065091379 -0.12128722 0.4175615 0.0014253086 696 138
-0.06294281 -0.12091744 0.41652814 0.0014590812 708 141
-0.060949236 -0.12083129 0.41645995 0.0013890219 731 147
-0.059025567 -0.12088262 0.41685477 0.0014321655 690 136
-0.057037953 -0.12080202 0.41678438 0.0013782704 733 148
-0.055111658 -0.12085018 0.41714817 0.0014186812 736 149
-0.053101826 -0.120712 0.41685873 0.0014619593 724 145
-0.051251125 -0.12093877 0.41782051 0.0014156067 731 147
-0.04928647 -0.12090396 0.41786957 0.0013858745 732 148
-0.047301166 -0.12081356 0.41771746 0.0014324074 746 151
-0.045284834 -0.12063271 0.41724372 0.0013986594 718 144
-0.043321412 -0.12058289 0.41721457 0.0014374817 720 144
-0.041319106 -0.1204151 0.41676894 0.0014627111 726 146
-0.039372642 -0.12040149 0.41684887 0.0014490958 756 154
-0.037468359 -0.12052219 0.41738632 0.001333655 771 158
-0.035526291 -0.12052786 0.41751814 0.0014710195 731 147
-0.03362349 -0.12067516 0.41813347 0.0014055595 711 142
-0.031751037 -0.12095614 0.41920528 0.0014587506 674 132
-0.02964686 -0.12033336 0.41713798 0.00139464 718 144
-0.027762633 -0.12057865 0.41807282 0.0013521051 757 154
-0.025878131 -0.12085959 0.41912523 0.0014126431 741 150
-0.023913752 -0.12078288 0.41893116 0.0014026646 715 143
-0.021907456 -0.12046204 0.41788387 0.0014120504 708 141
-0.019899609 -0.1200694 0.41658121 0.0014013213 716 143
-0.017962681 -0.12006618 0.41662347 0.0013536848 763 156
-0.016039729 -0.12016687 0.41702059 0.0014324768 742 150
-0.014132137 -0.12042613 0.41796243 0.0014007976 716 143
-0.012220838 -0.12073138 0.41905844 0.0014262634 703 140
-0.010246264 -0.12040874 0.41796955 0.0014950525 698 139
-0.0083182277 -0.12060999 0.41869378 0.0014747174 710 142
-0.0063675675 -0.12050595 0.41835272 0.0013893729 726 146
-0.0044170711 -0.12031493 0.41770443 0.001503951 716 143
-0.0024755117 -0.12025879 0.41751885 0.0014330616 691 137
-0.00053666765 -0.1204055 0.41803241 0.0014244642 699 139
0.0014057922 -0.12045653 0.4182083 0.0014566308 677 133
0.0033513829 -0.12056098 0.41856444 0.0014641217 663 129
0.005297279 -0.12059569 0.4186731 0.001440223 693 137
0.0072348816 -0.12047365 0.41823226 0.001399086 719 144
0.0091669047 -0.12033004 0.4177112 0.0014144958 722 145
0.011106827 -0.12032218 0.41765594 0.001421962 703 140
0.013027978 -0.12014357 0.41700262 0.0014353466 718 144
0.014947515 -0.11999822 0.41645932 0.0014189389 704 140
0.016896788 -0.12009759 0.41675952 0.001361975 757 154
0.018893251 -0.12047742 0.41802713 0.0013396741 773 158
0.020860208 -0.1206158 0.41845104 0.0013704158 748 152
0.022814598 -0.1206641 0.41855621 0.0013834777 740 150
0.024766192 -0.1206912 0.41858178 0.0013988131 727 146
0.026709141 -0.12067527 0.41845191 0.0013692359 746 151
0.028677166 -0.12076712 0.41868922 0.0014929479 672 132
0.030599928 -0.1206688 0.41826078 0.0014535331 673 132
0.032498948 -0.12049421 0.41756144 0.001419454 721 145
0.034439672 -0.12048521 0.41742921 0.0013618631 756 154
0.036468714 -0.12076963 0.41830629 0.0014681579 698 139
0.038428243 -0.12080673 0.41831899 0.0013691143 755 154
0.040626459 -0.12155436 0.42078391 0.0014678141 718 144
0.042505585 -0.1213224 0.4198494 0.0013526625 754 153
0.044513635 -0.12146266 0.42019507 0.0014857975 715 143
0.046657659 -0.12194647 0.42172033 0.0014348321 724 145
0.048110958 -0.12065885 0.41711202 0.0014219163 732 148
0.050078087 -0.1207099 0.41712433 0.00144276 694 138
0.052325413 -0.12140726 0.41935995 0.0014346665 690 136
0.054210033 -0.1212431 0.41860968 0.0014542104 726 146
0.056154288 -0.12121908 0.41833407 0.0013988105 716 143
0.05818402 -0.12137501 0.41866925 0.0013761726 733 148
0.060206879 -0.12150693 0.41891098 0.0014758392 722 145
0.062262036 -0.12169363 0.41933051 0.0013875279 726 146
0.064107999 -0.12147254 0.41833398 0.0013743767 749 152
0.066081859 -0.12149975 0.41818187 0.0014006062 723 145
0.067843556 -0.12114652 0.41670951 0.001412485 723 145
0.0697283 -0.12102661 0.41602886 0.0014259011 755 154
0.071970105 -0.12151614 0.41743016 0.0014620674 708 141
0.073734127 -0.12119438 0.41603169 0.0014382233 731 147
0.075878531 -0.12149832 0.41676816 0.0014418939 684 135
0.077732831 -0.12133413 0.41588539 0.0015281036 627 120
0.079564951 -0.12114424 0.41490176 0.0015234543 630 121
0.080360547 -0.11942308 0.40866539 0.0015149696 630 121
0.081916213 -0.11888556 0.40647188 0.0013884611 729 147
0.08367347 -0.11865853 0.40532789 0.0013997831 762 155
0.084899262 -0.11770485 0.40169075 0.0013668637 811 168
0.087635808 -0.11884157 0.40517187 0.0015457676 694 138
0.092038274 -0.12214039 0.41599393 0.0015278675 618 118
0.094468229 -0.1227382 0.41758683 0.0015483596 657 128
0.096755125 -0.12312941 0.41845682 0.0014394615 686 135
0.098861068 -0.12327923 0.41848737 0.0014077048 714 143
0.10101748 -0.12348484 0.41868886 0.0014214428 704 140
0.10304588 -0.12352905 0.4183248 0.0014923651 686 135
0.10510111 -0.12360313 0.41804355 0.0014035071 708 141
0.10721446 -0.12374151 0.41796112 0.0014253729 720 144
0.10936756 -0.1239199 0.41799429 0.0014229472 695 138
0.11092565 -0.12342981 0.41575599 0.0014495106 737 149
0.1136266 -0.12420625 0.41776428 0.0014210832 700 139
0.11565131 -0.12422941 0.41721666 0.0014203113 701 139
0.11772633 -0.12430488 0.4168261 0.0014384818 687 136
0.11996587 -0.12454864 0.41698027 0.00150245 691 137
0.12203388 -0.1246092 0.41650161 0.001469924 697 138
0.12421969 -0.12478617 0.41639343 0.0014476008 722 145
0.12669323 -0.12524191 0.41719466 0.0014092687 731 147
0.12901384 -0.12553453 0.41743195 0.0014337701 757 154
0.13092858 -0.12542933 0.4163295 0.0013608013 770 157
0.13319805 -0.12566194 0.41633284 0.0013525098 766 156
0.13542521 -0.12584829 0.41616654 0.0014031865 758 154
0.13763405 -0.12601236 0.41591194 0.0013242491 791 163
0.13982452 -0.12615508 0.41557392 0.0013907577 743 150
0.14257561 -0.12679225 0.41685051 0.0013600508 757 154
0.14562443 -0.12767243 0.41890869 0.0013902682 742 150
0.14749683 -0.12751107 0.41753969 0.0014949079 688 136
0.14907767 -0.12710556 0.41537231 0.0014269943 700 139
0.15123658 -0.12719722 0.41483182 0.0014953056 676 133
0.15426749 -0.12801 0.4166404 0.0015656204 656 128
0.15678042 -0.1283772 0.4169974 0.0014736761 663 129
0.15917672 -0.12864053 0.41702306 0.001532494 627 120
0.16151831 -0.12885347 0.41689619 0.0016097412 612 116
0.16427387 -0.12938707 0.41782007 0.0015576381 603 114
0.16652483 -0.1295148 0.4174512 0.0016809669 583 108
0.16959925 -0.1302719 0.41913241 0.0016616973 540 97
0.17132191 -0.12998486 0.41748238 0.0016861655 531 95
0.1734864 -0.13003591 0.41695493 0.0016797509 531 95
0.17561397 -0.13005841 0.41637516 0.0017577391 536 96
0.17814384 -0.13037482 0.4167785 0.0018207983 513 90
0.18034682 -0.13044739 0.41644847 0.0019501381 480 81
0.18257686 -0.13053766 0.41622576 0.001874938 454 74
0.18525137 -0.13093998 0.41705146 0.0021446124 403 61
0.18723005 -0.13084698 0.41635644 0.0020204268 409 63
0.18942055 -0.13090242 0.41619468 0.002026116 402 61
0.19157888 -0.13093467 0.41602182 0.002055458 402 61
0.19430399 -0.13134937 0.417128 0.0021674458 395 59
0.19672155 -0.13154943 0.41761777 0.0021068519 378 54
0.19890676 -0.13159151 0.41767266 0.0023849781 348 47
0.20116064 -0.13167767 0.41793481 0.0022675251 346 46
0.20310585 -0.13156208 0.41762394 0.0023987652 316 38
0.20512776 -0.13149804 0.41754344 0.002595298 305 35
0.20706919 -0.13138427 0.41737109 0.0027005936 308 36
0.20961145 -0.13165013 0.4184702 0.0026915255 295 33
0.21215466 -0.13191128 0.4196195 0.0026063919 279 28
0.21398818 -0.13173036 0.41942552 0.002757939 258 23
0.21440616 -0.13069017 0.41655248 0.0030127987 244 19
0.21693994 -0.13094734 0.41787097 0.0031612529 237 17
0.21925244 -0.13106725 0.41881028 0.0030823399 219 13
0.22299637 -0.13203241 0.42251068 0.0031303642 219 13
-0.23877595 -0.12315691 0.41211694 0.0033493177 203 8
-0.23915763 -0.12440562 0.41520929 0.0038644259 193 6
-0.23775709 -0.12474071 0.41524893 0.0034294636 202 8
-0.23586324 -0.12482057 0.41445708 0.0035972586 206 9
-0.23335487 -0.12457378 0.41261089 0.0031510857 212 11
-0.23209776 -0.12499651 0.41301417 0.003575606 213 11
-0.23096943 -0.1254967 0.41370293 0.0033824462 225 14
-0.22964923 -0.12590075 0.41410685 0.0032862569 225 14
-0.22834156 -0.12631902 0.41459301 0.0031864296 232 16
-0.2269661 -0.12670711 0.41501775 0.0031666139 232 16
-0.22410567 -0.1262657 0.41277131 0.0031126763 247 20
-0.22304645 -0.12684037 0.41389287 0.0028891512 255 22
-0.22211935 -0.12750167 0.41533935 0.002780915 251 21
-0.22005863 -0.12751867 0.4147346 0.0025541524 286 30
-0.21765725 -0.12733667 0.41353703 0.0025883035 288 31
-0.21586229 -0.12750936 0.41354662 0.0026373453 313 37
-0.21421789 -0.12777524 0.41391405 0.0025234716 291 32
-0.21225619 -0.12785524 0.41373727 0.0024275037 309 36
-0.20993608 -0.12771876 0.41292113 0.0024440729 308 36
-0.20813251 -0.12789696 0.41318488 0.00235974 324 40
-0.20720911 -0.12862518 0.41528776 0.0024370272 309 36
-0.20534013 -0.12877536 0.41558835 0.0028609533 245 19
-0.20242999 -0.12826891 0.41383699 0.0025902598 328 41
-0.20011084 -0.12813024 0.41334 0.0023228521 368 52
-0.19797108 -0.12810472 0.41327557 0.0022786802 385 56
-0.1953845 -0.12778643 0.41233385 0.0020060299 410 63
-0.19297798 -0.12758024 0.41182062 0.0019547064 426 67
-0.19120499 -0.12779301 0.41272593 0.0018831327 450 73
-0.18941993 -0.1280023 0.41368565 0.0019237654 466 78
-0.18722083 -0.12793338 0.41380978 0.0018670036 456 75
-0.18436965 -0.12741226 0.41253039 0.0018144007 477 80
-0.18246236 -0.12753896 0.41340539 0.0017397465 508 89
-0.18042654 -0.12757771 0.41405112 0.0017648103 535 96
-0.17777011 -0.12717341 0.41330886 0.0015784239 591 110
-0.17529167 -0.12688835 0.41299871 0.0015743519 587 109
-0.17246178 -0.12633894 0.41186747 0.0015609012 593 111
-0.17056417 -0.12646751 0.41298342 0.0016722787 557 102
-0.16825971 -0.12629381 0.41314694 0.0015916086 601 113
-0.16611303 -0.12623569 0.41371769 0.0014562383 675 133
-0.16400127 -0.12620302 0.41439712 0.0014733286 660 129
-0.16171655 -0.12603468 0.41465148 0.0014699748 665 130
-0.15882827 -0.12538549 0.41333601 0.0014063969 711 142
-0.15681945 -0.1254227 0.4142926 0.0015012218 644 124
-0.15412194 -0.12490275 0.4134149 0.0015093476 688 136
-0.15152054 -0.12444776 0.41275156 0.001434575 734 148
-0.1491169 -0.12414499 0.41259059 0.0013743364 745 151
-0.14685325 -0.12395199 0.41279063 0.0014490027 756 154
-0.1446415 -0.12379799 0.41311502 0.0014080399 738 149
-0.1424851 -0.12368766 0.41357771 0.0013194082 789 162
-0.14034127 -0.12358519 0.41405743 0.001341546 772 158
-0.13824414 -0.1235215 0.41465616 0.001373323 773 158
-0.13591716 -0.12324747 0.41453514 0.0012983863 812 169
-0.13360415 -0.12297802 0.41441318 0.0013725446 761 155
-0.13131766 -0.12272508 0.41432941 0.0013502082 764 156
-0.12914227 -0.12256976 0.4145574 0.0013709774 791 163
-0.12685476 -0.12230141 0.41438457 0.0013395863 767 157
-0.12466951 -0.12212461 0.41450253 0.0013372374 773 158
-0.12248342 -0.12194121 0.41457865 0.0014059413 746 151
-0.12021906 -0.12167252 0.41434449 0.0013708066 748 152
-0.11794779 -0.12138764 0.41403425 0.0014128576 701 139
-0.11588993 -0.12131637 0.41443241 0.0013695806 742 150
-0.11381222 -0.12122151 0.41473076 0.0014027804 716 143
-0.11176672 -0.12115816 0.41511783 0.001381291 736 149
-0.10946782 -0.12081286 0.41451845 0.0014236188 731 147
-0.10747045 -0.12079378 0.41501832 0.0014048995 767 157
-0.10556794 -0.12088256 0.41587108 0.0014173756 738 149
-0.10366844 -0.12097828 0.41673046 0.0013404316 772 158
-0.10131654 -0.12053948 0.4157294 0.0013407675 772 158
-0.099227682 -0.1204024 0.4157491 0.0014414875 688 136
-0.097217798 -0.12035756 0.41606924 0.0014187673 744 151
-0.095354654 -0.12049625 0.41700736 0.0014311983 698 139
-0.093303584 -0.12039833 0.41711017 0.0014482434 740 150
-0.090913624 -0.11984941 0.41563204 0.0013290708 786 162
-0.088929109 -0.11982255 0.41594645 0.0013890021 744 151
-0.086983368 -0.1198479 0.41642657 0.0013561705 762 155
-0.084915414 -0.11970215 0.41629669 0.0013988991 766 156
-0.082911856 -0.11964243 0.41645047 0.0014093041 711 142
-0.081151202 -0.11993881 0.41783017 0.001406659 714 143
-0.078864969 -0.11945383 0.41647318 0.0014707006 710 142
-0.076829895 -0.11933427 0.41637495 0.001372727 747 151
-0.074880213 -0.11934455 0.41671622 0.0013635193 757 154
-0.072921291 -0.11934026 0.41699368 0.001398324 721 145
-0.071106523 -0.11957816 0.41810536 0.0014390121 728 146
-0.069062203 -0.11943257 0.41786417 0.0014432202 737 149
-0.066926375 -0.11911564 0.41701072 0.0014401886 712 142
-0.065008111 -0.11917848 0.41747469 0.0014438715 725 146
-0.062971517 -0.11902159 0.41715774 0.0013753189 741 150
-0.060967106 -0.11891743 0.41701424 0.0013961215 722 145
-0.05890758 -0.11869532 0.416446 0.0014305253 694 138
-0.056882851 -0.11853059 0.41606838 0.0014544539 715 143
-0.055028565 -0.11872189 0.41693076 0.001400878 726 146
-0.053177025 -0.11893339 0.41785511 0.0013620452 754 153
-0.051218528 -0.11891264 0.41795465 0.0013841965 734 148
-0.049318202 -0.11903065 0.41853306 0.00138861 746 151
-0.047262702 -0.11876845 0.41776577 0.0013321693 776 159
-0.045289613 -0.11869971 0.41767016 0.0014500582 709 141
-0.043274261 -0.11850905 0.41713709 0.0013864577 726 146
-0.041306406 -0.11843666 0.41701213 0.0013465949 762 155
-0.039352544 -0.11839923 0.41700256 0.0014218932 700 139
-0.037432935 -0.11846633 0.41735378 0.0013654759 758 154
-0.035492718 -0.11847196 0.41748133 0.0013640579 741 150
-0.033606429 -0.11866869 0.41827556 0.0015060334 713 143
-0.031627811 -0.11854355 0.4179284 0.0013968425 719 144
-0.029702302 -0.11861408 0.41826466 0.0014141899 749 152
-0.027702501 -0.11837704 0.41750976 0.0014009487 756 154
-0.025842922 -0.11874863 0.41889536 0.001357134 758 154
-0.023914624 -0.11883926 0.41928399 0.0013993857 716 143
-0.021937545 -0.11868206 0.41879222 0.0014110387 711 142
-0.019986071 -0.11864625 0.41872296 0.0015041457 710 142
-0.018016933 -0.11848658 0.4182108 0.0014112451 708 141
-0.016065713 -0.11842038 0.4180229 0.0013638753 756 154
-0.014126727 -0.11843857 0.41812742 0.0014457718 744 151
-0.012195612 -0.11853907 0.41851717 0.001482291 719 144
-0.01023301 -0.11831359 0.41775072 0.0014887272 713 143
-0.0082883509 -0.11823862 0.41751033 0.0014455959 702 140
-0.0063536745 -0.11830379 0.41775969 0.0014058006 758 154
-0.004414326 -0.11830097 0.41776386 0.0013546014 758 154
-0.0024732836 -0.1182128 0.41746148 0.0013896856 763 156
-0.00053592055 -0.11829875 0.4177689 0.0014350425 704 140
0.0014045262 -0.11840712 0.41815048 0.0014479011 693 137
0.0033451838 -0.1183972 0.41810927 0.0014719464 717 144
0.0052867602 -0.11841515 0.41816139 0.0013847528 733 148
0.0072296336 -0.11844471 0.41824934 0.0013973663 736 149
0.0091846325 -0.11861835 0.41884097 0.0013770713 740 150
0.011110271 -0.11841837 0.41810811 0.0014219311 728 146
0.013036713 -0.11828517 0.41760591 0.0013741006 742 150
0.014980656 -0.1183247 0.4177081 0.0014599274 728 146
0.016951179 -0.11854105 0.41842908 0.0014673421 723 145
0.018876975 -0.11843227 0.41799688 0.0013887652 722 145
0.020874957 -0.11875442 0.41907999 0.0014059088 721 145
0.022819545 -0.11874381 0.41898271 0.0013556092 764 156
0.024771204 -0.11876877 0.41900519 0.0014004512 717 144
0.026742497 -0.11887734 0.41931656 0.0014394525 721 145
0.02867458 -0.11880872 0.41899672 0.0014309712 704 140
0.030599881 -0.1187225 0.41860864 0.0013947879 722 145
0.032514393 -0.11860726 0.4181118 0.0013652868 774 159
0.034434792 -0.11852527 0.41772577 0.001418596 735 148
0.036407128 -0.11862127 0.41796008 0.001374929 747 151
0.038468491 -0.11898286 0.41912276 0.0014001607 744 151
0.040459916 -0.11910372 0.41942972 0.0014166936 750 152
0.042497054 -0.11934179 0.42014155 0.0014010386 716 143
0.044535592 -0.1195627 0.42078465 0.0013708341 746 151
0.046260636 -0.11895881 0.41851738 0.0013260791 782 161
0.048130304 -0.11876065 0.41767025 0.0013761783 739 149
0.050117165 -0.1188558 0.41784635 0.00141811 725 146
0.05222347 -0.11921652 0.41894665 0.0014649995 725 146
0.054104384 -0.11905526 0.41820315 0.0013668848 746 151
0.056084182 -0.1191152 0.41822758 0.0014356788 715 143
0.058069091 -0.11918163 0.4182649 0.0013493806 768 157
0.06008308 -0.1193015 0.41847938 0.0014122652 772 158
0.061992545 -0.11921276 0.41795185 0.0013643218 750 152
0.06406194 -0.11942762 0.4184778 0.0014326012 727 146
0.065891817 -0.11919647 0.41742995 0.0014014484 718 144
0.06765762 -0.11886605 0.41602436 0.0014618991 718 144
0.069516785 -0.11871355 0.41523087 0.0015070543 644 124
0.071672276 -0.11906163 0.41617587 0.001517732 633 121
0.073655374 -0.11911244 0.4160687 0.0015024724 656 128
0.075438835 -0.11884614 0.41484153 0.0015775766 603 114
0.076186463 -0.11700249 0.40810093 0.0015855763 626 120
0.078096092 -0.11699007 0.40773934 0.0014426104 686 135
0.079226628 -0.11583914 0.4033995 0.0013649444 754 153
0.081056908 -0.11574122 0.40271655 0.0013069566 808 167
0.082757384 -0.11546668 0.40140599 0.0012659213 874 185
0.084685095 -0.1155144 0.40120208 0.001220778 929 199
0.086582974 -0.11552022 0.40083763 0.0012921427 897 191
0.089436568 -0.11677362 0.40478268 0.0014868113 658 128
0.094073147 -0.12025369 0.41641381 0.0014737205 665 130
0.096340992 -0.12062509 0.41724995 0.0014405019 714 143
0.098759323 -0.12116621 0.41865289 0.0014216613 696 138
0.10089153 -0.12134184 0.41877311 0.0015292009 651 126
0.10289635 -0.12136045 0.41833317 0.001472567 695 138
0.10491072 -0.1213894 0.41791096 0.0014628895 671 131
0.10715929 -0.12168323 0.41838124 0.0014474165 717 144
0.10912444 -0.12165034 0.4177089 0.0014019251 721 145
0.11116401 -0.12170013 0.41730201 0.0014225867 711 142
0.11289218 -0.12141325 0.4157235 0.001386284 729 147
0.11534737 -0.12190466 0.41679034 0.0014757464 725 146
0.11758813 -0.12215657 0.41701612 0.0014169305 701 139
0.11990166 -0.12247436 0.41744539 0.0014700418 720 144
0.12209263 -0.12265857 0.41739833 0.0014329675 729 147
0.12414259 -0.12269746 0.41683754 0.0014261928 726 146
0.12638485 -0.12292213 0.41688859 0.0013797012 740 150
0.12873362 -0.1232417 0.41724131 0.0013944381 716 143
0.13117525 -0.12363894 0.41783607 0.0014025863 736 149
0.13272732 -0.12319838 0.415584 0.0013296662 783 161
0.13531153 -0.12371472 0.41654447 0.0013198931 786 162
0.13760753 -0.12395618 0.41656101 0.0013797486 743 150
0.13997555 -0.12425455 0.4167529 0.0014191461 747 151
0.14236775 -0.12456553 0.41697225 0.0013956955 725 146
0.14528097 -0.12531711 0.41865045 0.0014023639 724 145
0.1476478 -0.12558301 0.41869238 0.00144444 729 147
0.14928296 -0.12522787 0.41665959 0.0014732663 732 148
0.15146905 -0.1253382 0.41617531 0.0014337865 690 136
0.15398847 -0.1257177 0.41658232 0.0014783137 673 132
0.15648298 -0.12606713 0.4168888 0.001507909 638 123
0.15889095 -0.12633863 0.41694096 0.0015471367 612 116
0.16126911 -0.12657978 0.41690075 0.0015584296 627 120
0.16392592 -0.1270307 0.41756216 0.0015500346 611 116
0.1667285 -0.12758188 0.41856614 0.0016990439 566 104
0.16781826 -0.12682496 0.41530353 0.001728713 576 106
0.17058621 -0.12733932 0.41623357 0.0016474223 556 101
0.17318147 -0.12771386 0.4167341 0.0017918776 544 98
0.1754941 -0.12787354 0.41656774 0.0017718498 536 96
0.17781407 -0.12803473 0.41644615 0.0018135227 522 92
0.18030414 -0.1283132 0.41674981 0.0018325155 495 85
0.18264006 -0.12847683 0.41672829 0.0018955963 470 79
0.18511792 -0.12873542 0.41706666 0.0019153181 444 72
0.18735604 -0.12882334 0.41690806 0.0021602081 409 63
0.1896909 -0.12897509 0.41701519 0.0019426316 428 68
0.19203375 -0.12912886 0.41719052 0.0019669994 424 67
0.19381006 -0.12890247 0.4162024 0.0020019948 415 64
0.19661866 -0.12936015 0.41748878 0.0021159607 379 55
0.19882604 -0.12941672 0.4175474 0.0023112881 370 52
0.20075452 -0.12929246 0.41709077 0.0023758202 361 50
0.20305365 -0.12940703 0.41747275 0.0024532168 343 45
0.20467541 -0.12909198 0.41653681 0.0026102671 314 38
0.20707554 -0.1292693 0.41725695 0.0025428063 312 37
0.20935057 -0.12936571 0.41778296 0.002462877 303 35
0.21175219 -0.12953764 0.41861892 0.002557206 284 30
0.21284319 -0.12891237 0.41694152 0.0026966049 267 25
0.21451953 -0.12865041 0.41649917 0.0028417944 247 20
0.21759975 -0.1292273 0.41883448 0.0028310004 245 19
0.22023341 -0.1295304 0.42034483 0.003204769 224 14
0.2223907 -0.12955022 0.42099452 0.0033050843 215 12
-0.24091376 -0.12222269 0.41525027 0.0031806598 214 11
-0.23835865 -0.12195755 0.41326565 0.0032860257 234 17
-0.23843515 -0.12304588 0.41587713 0.0031853847 216 12
-0.23598732 -0.12283911 0.41412973 0.0031666493 212 11
-0.23413625 -0.12294205 0.41345912 0.0030679554 223 14
-0.23300064 -0.12342581 0.41410002 0.0033338666 222 13
-0.23116767 -0.12354552 0.41355294 0.0030254398 230 16
-0.22977133 -0.12390281 0.41383821 0.0034624441 217 12
-0.22880495 -0.12450054 0.41496241 0.002943265 235 17
-0.22750403 -0.12492549 0.41554862 0.0028348702 252 21
-0.22460213 -0.12447109 0.41325665 0.0032273466 247 20
-0.22306278 -0.12477033 0.41351676 0.0030309593 255 22
-0.22209901 -0.12540017 0.41491821 0.0026746271 272 27
-0.22030666 -0.12556973 0.41484544 0.0027498852 277 28
-0.21820374 -0.12556385 0.41424739 0.0025243633 297 33
-0.21642005 -0.12574328 0.41431719 0.0024558792 305 35
-0.2146063 -0.12590861 0.41439828 0.0024755243 303 35
-0.2126139 -0.12597136 0.41420206 0.0023924029 317 38
-0.21046485 -0.1259416 0.4137643 0.0023312885 328 41
-0.20861851 -0.12609424 0.41398987 0.0024753211 316 38
-0.20711251 -0.12645777 0.41497269 0.0024096332 317 38
-0.2063006 -0.12725691 0.41745073 0.0030477627 255 22
-0.20211226 -0.12596829 0.41314831 0.0022736809 342 45
-0.20000464 -0.12596305 0.4131242 0.0021061127 377 54
-0.19809243 -0.12608206 0.41357619 0.0020273016 429 68
-0.19609098 -0.12614623 0.41391674 0.0020339517 419 65
-0.19314848 -0.12559983 0.41232085 0.0020730721 438 70
-0.19082813 -0.12545046 0.41209352 0.0018787482 447 73
-0.18914714 -0.12572277 0.41331622 0.001974785 460 76
-0.1869351 -0.12564424 0.41344881 0.0018024588 482 82
-0.18453974 -0.12543932 0.41322461 0.0016416755 556 101
-0.18245411 -0.12544267 0.41374299 0.00183118 520 92
-0.18029501 -0.12539496 0.41414636 0.0016886088 533 95
-0.17765342 -0.12500665 0.41347259 0.001633447 590 110
-0.17539255 -0.12488021 0.41370824 0.0015475572 605 114
-0.17275579 -0.12447986 0.41307494 0.0015896315 608 115
-0.17064974 -0.12445684 0.41372827 0.0015302709 624 119
-0.16809043 -0.12409863 0.41329741 0.0015249577 629 120
-0.16583404 -0.1239579 0.41361552 0.0014779629 652 126
-0.16372925 -0.12392838 0.41432691 0.0014417715 701 139
-0.16132107 -0.12366555 0.41427508 0.0014306798 691 137
-0.15876651 -0.12328222 0.41383022 0.0013793415 745 151
-0.15637076 -0.12301379 0.41377717 0.0014258779 722 145
-0.15407038 -0.12281425 0.41395953 0.0014936745 725 146
-0.15167274 -0.12253074 0.41385913 0.0014273804 734 148
-0.14917827 -0.12216026 0.41346067 0.0013535704 781 160
-0.14687845 -0.12194107 0.41356769 0.0013718951 766 156
-0.14456126 -0.12170114 0.41359606 0.0013294123 784 161
-0.14204516 -0.12128451 0.41301194 0.0013448212 773 158
-0.14016724 -0.12140866 0.41425791 0.0013564678 785 161
-0.13796578 -0.1212521 0.41453463 0.0013305659 778 160
-0.13565561 -0.12099391 0.41444832 0.001329774 777 159
-0.13333754 -0.12072078 0.41429335 0.0013118234 800 165
-0.13110992 -0.12052244 0.41437671 0.0014027987 769 157
-0.12887152 -0.12030783 0.41438556 0.0013247168 786 162
-0.12668848 -0.12013894 0.41453257 0.0013132326 805 167
-0.12454312 -0.12000095 0.41476694 0.0013742752 773 158
-0.12225734 -0.11972097 0.41449004 0.0013136343 796 164
-0.1200668 -0.11952647 0.41448829 0.0013769133 760 155
-0.11791975 -0.11936946 0.41459608 0.0013719733 744 151
-0.11580559 -0.1192409 0.41478255 0.0014469977 744 151
-0.1137559 -0.11917546 0.41516879 0.0014281182 752 153
-0.11186679 -0.11927883 0.41612467 0.0014018543 723 145
-0.10966166 -0.11904293 0.41587776 0.0014077983 726 146
-0.10754184 -0.11889265 0.41590962 0.0014239401 746 151
-0.10554917 -0.11887993 0.41640362 0.0013918588 727 146
-0.10351163 -0.11881521 0.41669714 0.0014130032 737 149
-0.10134906 -0.11860166 0.41644952 0.0014319858 716 143
-0.099093996 -0.11826921 0.41576481 0.0014450619 750 152
-0.097095162 -0.11823531 0.4161109 0.0013884401 731 147
-0.095289357 -0.11843991 0.41728011 0.0013741935 744 151
-0.093131535 -0.11820638 0.41688907 0.0014808073 718 144
-0.090815917 -0.11775814 0.41572213 0.001320541 795 164
-0.08891537 -0.11784023 0.4164103 0.0013446837 797 165
-0.087010011 -0.11791945 0.41707355 0.0013678529 753 153
-0.084865242 -0.11767043 0.41656026 0.0013864413 743 150
-0.082813315 -0.11754138 0.41645584 0.0013994843 777 159
-0.08052548 -0.11706313 0.41509804 0.00133427 773 158
-0.078605458 -0.1171091 0.41558415 0.0014073497 719 144
-0.076720506 -0.11721102 0.41625568 0.0014726785 731 147
-0.07477428 -0.11722218 0.416592 0.0014030132 760 155
-0.072893023 -0.11733852 0.41728976 0.0013857133 750 152
-0.070937552 -0.11733854 0.41756168 0.0014058045 715 143
-0.068835966 -0.11709002 0.41693664 0.0013485661 766 156
-0.066768184 -0.11688614 0.41645798 0.0013542724 764 156
-0.064788349 -0.11682862 0.41648886 0.001398873 782 161
-0.062960997 -0.11705103 0.41750708 0.0013483538 769 157
-0.060974211 -0.11698177 0.41747466 0.0013955779 725 146
-0.059000768 -0.11693437 0.41750979 0.001373289 745 151
-0.056958206 -0.11674206 0.41701716 0.0013725798 750 152
-0.054855786 -0.11640915 0.41601187 0.0014119773 745 151
-0.053024631 -0.11664856 0.41704237 0.0013459533 769 157
-0.051229201 -0.11698779 0.4184216 0.0013870187 726 146
-0.049220406 -0.11684734 0.41807678 0.0013765421 744 151
-0.047231212 -0.11674375 0.4178552 0.0013732121 738 149
-0.045249049 -0.1166494 0.41765809 0.001356172 763 156
-0.043250259 -0.11650179 0.41726214 0.001351858 765 156
-0.041272651 -0.11640005 0.41702259 0.0013960325 727 146
-0.039388783 -0.11656567 0.41773358 0.0014201619 707 141
-0.037437666 -0.11653915 0.41774893 0.0014093581 716 143
-0.035477523 -0.11648007 0.41764057 0.001354108 760 155
-0.033454973 -0.11619743 0.41672352 0.001324354 792 163
-0.031545412 -0.11629659 0.41716915 0.0013982876 748 152
-0.029594015 -0.11624442 0.41706559 0.0013591043 758 154
-0.027696874 -0.11641297 0.41774788 0.0014013563 720 144
-0.025707351 -0.11618935 0.41701692 0.0013714322 745 151
-0.023793783 -0.11630058 0.41748175 0.0013374997 779 160
-0.021942832 -0.11676474 0.41920808 0.0014008427 755 154
