# .PCD v0.7 - Point Cloud Data file format
VERSION 0.7
FIELDS x y z noise intensity gray
SIZE 4 4 4 4 2 1
TYPE F F F F U U
COUNT 1 1 1 1 1 1
WIDTH 885
HEIGHT 1
VIEWPOINT 0 0 0 1 0 0 0
POINTS 885
DATA ascii
-0.17066576 0.12652162 0.4132348 0.0020705427 419 57
-0.16818109 0.12621365 0.41295969 0.0019702432 421 57
-0.16587915 0.12603685 0.41314125 0.0020096893 404 53
-0.16376469 0.12599984 0.4138056 0.0021542318 409 54
-0.16105974 0.12550174 0.41297385 0.0020500696 415 56
-0.15844423 0.12506136 0.41234326 0.0018497049 462 67
-0.15624015 0.12493846 0.41276902 0.0019059564 438 61
-0.15357126 0.12443563 0.41194475 0.0019612401 445 63
-0.15082808 0.12385827 0.41087231 0.0018829769 460 67
-0.14889382 0.12393849 0.41198051 0.0018145241 496 76
-0.14672263 0.12382098 0.41243058 0.0018329944 492 75
-0.14412442 0.12333474 0.41164532 0.0017496721 507 78
-0.14172339 0.12300584 0.41137412 0.0017406926 519 81
-0.13954435 0.12286285 0.41171357 0.0017133751 520 82
-0.13713279 0.12250799 0.41133004 0.0018031836 489 74
-0.13507971 0.12246755 0.41198829 0.0018050557 499 76
-0.13242929 0.12187617 0.4107762 0.0017284786 513 80
-0.13000129 0.12147453 0.41018331 0.0017556559 503 77
-0.12781768 0.12129227 0.41031253 0.0017377173 508 79
-0.12613973 0.12159166 0.41205591 0.0017980622 475 71
-0.12332004 0.12078245 0.41002277 0.0017909248 480 72
-0.12115982 0.12060327 0.41010544 0.0018110956 473 70
-0.11933576 0.12075829 0.41130695 0.0018493042 468 69
-0.11715752 0.12055412 0.41126695 0.0018007708 485 73
-0.11481228 0.12016813 0.4105854 0.0017920106 483 72
-0.11236601 0.1196611 0.40946746 0.0018530726 499 76
-0.11029874 0.11954679 0.40967205 0.0018819418 490 74
-0.10831128 0.11951642 0.41014549 0.0017538854 499 76
-0.10669073 0.1198973 0.41201371 0.0017484344 491 74
-0.10463169 0.11979043 0.41218916 0.0018353515 466 68
-0.10243831 0.11952272 0.41179162 0.0018552308 470 69
-0.1002686 0.11927272 0.41143543 0.0019442431 465 68
-0.098052211 0.11895618 0.41082996 0.0018993355 458 66
-0.095585227 0.11831656 0.40908799 0.0019095398 461 67
-0.094003789 0.11876931 0.41110548 0.0018508693 468 69
-0.091732584 0.1183513 0.41009274 0.001845394 465 68
-0.089052863 0.11737675 0.40713066 0.0017930592 483 72
-0.087500282 0.11787762 0.40926889 0.0019563755 458 66
-0.085483983 0.11776229 0.40925372 0.0018751841 479 72
-0.083650663 0.11789952 0.41010147 0.0018595202 470 69
-0.081804886 0.11802528 0.41089553 0.0018300189 472 70
-0.079918504 0.11809713 0.41148829 0.0019339295 466 68
-0.077996396 0.11811843 0.41189134 0.0018747996 455 66
-0.075706661 0.11756992 0.41029254 0.0020434386 435 61
-0.073633268 0.11733751 0.40978163 0.0018747674 458 66
-0.071556166 0.11708654 0.40919203 0.0019683556 463 68
-0.069545269 0.11693306 0.40892982 0.0018860153 468 69
-0.067731798 0.11711221 0.40981907 0.0019288943 477 71
-0.065687798 0.11689162 0.40929765 0.001787745 485 73
-0.063465357 0.11633069 0.40757167 0.0018830326 491 74
-0.061615467 0.11643902 0.40817878 0.0019237646 460 67
-0.059701301 0.11642893 0.40836036 0.0019184769 438 61
-0.057856731 0.11655837 0.40902123 0.0018790254 455 66
-0.05583632 0.11633035 0.40841764 0.0018090007 477 71
-0.05386683 0.11619602 0.40813279 0.0017963909 483 72
-0.051665489 0.11553339 0.40598178 0.0018209012 492 75
-0.049589045 0.11511022 0.40466157 0.0017289905 547 88
-0.047628585 0.11493346 0.40419817 0.0015631432 626 108
-0.046026822 0.11564338 0.40684533 0.0014923994 649 113
-0.044001903 0.11530542 0.40579829 0.0015452969 667 118
-0.042173624 0.11547554 0.40653121 0.0014927303 679 121
-0.040164236 0.11514245 0.4054848 0.0014728621 685 122
-0.038259532 0.11509143 0.40542388 0.0014576982 709 128
-0.036335059 0.11497255 0.40511662 0.0014321547 693 124
-0.034440383 0.11494008 0.40510675 0.0015151605 635 110
-0.032493591 0.1147199 0.40442824 0.0014789266 652 114
-0.030648427 0.11485349 0.40499026 0.0014445307 688 123
-0.028740937 0.1147557 0.40473014 0.0015459249 654 115
-0.026875321 0.11482313 0.40504649 0.001479678 657 115
-0.024971614 0.11472573 0.40477535 0.001548475 631 109
-0.023094831 0.11474623 0.40491417 0.0014677137 665 117
-0.021158513 0.11444829 0.40392354 0.0014614407 685 122
-0.019317705 0.11465931 0.40472341 0.0014420582 742 136
-0.017402094 0.11442398 0.40394232 0.0013876433 720 131
-0.015486024 0.11412837 0.40294278 0.0014947931 652 114
-0.013609068 0.1140794 0.40280876 0.0014690449 665 117
-0.011731517 0.11400905 0.40259385 0.0015195598 679 121
-0.0098673701 0.11406697 0.40282694 0.0014933714 651 114
-0.0079923458 0.11399681 0.4026027 0.0015560049 639 111
-0.0061055468 0.11366465 0.40144813 0.0015201735 669 118
-0.0042428509 0.11368649 0.40153873 0.0015218481 646 113
-0.0023857686 0.11401083 0.402693 0.0015606612 640 111
-0.00051758368 0.11423193 0.4034777 0.0015628315 648 113
0.0013554076 0.11424708 0.40353015 0.0015127006 678 121
0.0032354991 0.1144959 0.40440303 0.0015005895 697 125
0.0051190411 0.11463929 0.40489858 0.0013577961 752 139
0.0069958498 0.11459538 0.40472758 0.0014323927 731 134
0.0088763265 0.1146174 0.40478453 0.0013967459 729 133
0.010768855 0.11476017 0.40526283 0.0013835691 738 135
0.012612704 0.11441886 0.40402663 0.0013385431 767 143
0.014494123 0.11446263 0.40414515 0.00139528 768 143
0.016360026 0.1143879 0.40383995 0.0013540661 757 140
0.018209722 0.11422685 0.40322495 0.0013599005 745 137
0.020105405 0.11435741 0.40363386 0.001423461 725 132
0.022053683 0.11473934 0.40492421 0.0014151359 744 137
0.0238785 0.11446941 0.40390834 0.0013965332 750 138
0.025719389 0.11431021 0.40327772 0.0013150304 790 148
0.027542653 0.11409963 0.40246016 0.0013509783 758 140
0.029432788 0.11417525 0.40264603 0.0013819666 786 147
0.031339288 0.11430152 0.40300423 0.0014221716 767 143
0.033202507 0.11426457 0.40278041 0.0013480897 763 142
0.035085976 0.11429755 0.40279648 0.0013699 743 137
0.036933485 0.11421598 0.40240207 0.0014475964 724 132
0.038787667 0.11416191 0.40209779 0.0013962176 754 139
0.04072405 0.11434363 0.40261659 0.0013883557 720 131
0.042625174 0.11441472 0.40273806 0.0014440581 704 127
0.044538975 0.11451239 0.40294528 0.0014150924 706 127
0.046401236 0.11447501 0.40266928 0.0014626302 696 125
0.048264831 0.11444373 0.40240654 0.0014285599 694 125
0.050050821 0.11423763 0.40152106 0.0013722398 744 137
0.051921666 0.1142331 0.40133563 0.0013537129 752 139
0.053835373 0.11431988 0.40146193 0.0013886894 772 144
0.055607326 0.11410996 0.40053716 0.0013464775 762 141
0.057599504 0.11435091 0.4011853 0.0013400747 767 143
0.059341609 0.11409586 0.40008345 0.0013188749 813 154
0.061250925 0.11416803 0.40011939 0.0012797562 833 159
0.063331209 0.11454521 0.40121263 0.0012874722 823 156
0.065369964 0.11482766 0.40196204 0.001281224 826 157
0.067264386 0.11484789 0.40178162 0.0013153707 796 150
0.069103457 0.11477508 0.40126419 0.0013101759 801 151
0.070821218 0.11450998 0.40006357 0.001352589 807 152
0.072506845 0.11420795 0.39872304 0.0012753595 839 160
0.074826002 0.11489391 0.40081829 0.0012835719 823 156
0.07673806 0.11493645 0.40065399 0.0012624661 847 162
0.078705564 0.11505798 0.40075135 0.0013309594 832 159
0.080505565 0.11493471 0.39998242 0.0013033563 848 163
0.08281485 0.1155275 0.40168989 0.0013106873 798 150
0.084707171 0.11552516 0.40131187 0.0012757627 835 159
0.086762197 0.11573994 0.40167266 0.0013035159 836 160
0.088717259 0.11581504 0.40153259 0.0012647306 841 161
0.090548046 0.11572815 0.40081552 0.0012700832 847 162
0.092457846 0.11574376 0.40043786 0.0012488946 861 166
0.094337054 0.1157212 0.39991212 0.001311998 838 160
0.096020937 0.11546464 0.39856237 0.0012566291 860 165
0.097956993 0.11551541 0.39825767 0.0013043942 853 164
0.099947587 0.11562732 0.3981463 0.0012765293 869 168
0.10194488 0.11574267 0.39802867 0.0012286499 901 176
0.10406367 0.11598922 0.39834329 0.0012367446 876 169
0.10618617 0.116231 0.39862177 0.0012572889 917 180
0.10800163 0.1161341 0.39772049 0.0012380993 928 182
0.10986622 0.11609244 0.39699143 0.0012510581 911 178
0.11185825 0.11618461 0.39670214 0.0012443271 868 167
0.11392682 0.11635181 0.39665011 0.0012540309 860 165
0.11607637 0.11659489 0.39683723 0.0012802923 867 167
0.11848789 0.11708897 0.39785737 0.0012191521 893 174
0.12091766 0.11758503 0.39886171 0.0012181595 894 174
0.12309632 0.11782514 0.39897707 0.0011792863 944 186
0.12523063 0.11801604 0.39890739 0.0011560137 983 196
0.12731987 0.11815935 0.39865965 0.0012175668 970 193
0.12906605 0.11798471 0.39732531 0.001158581 980 195
0.1309685 0.11795599 0.39647061 0.0011240339 1031 208
0.13320412 0.11822382 0.39659914 0.0011352972 1015 204
0.13528949 0.11835253 0.39624825 0.0011316156 1033 208
0.13751706 0.1186002 0.39628452 0.0011581784 1037 209
0.14016803 0.11920106 0.39748859 0.0012241774 916 179
0.1423555 0.11939665 0.39733142 0.0013253409 785 147
0.14504103 0.11999899 0.39852056 0.0014592761 681 121
0.14758839 0.12047243 0.39927512 0.0015215161 631 109
0.15001318 0.12083463 0.39965922 0.0015960922 625 108
0.15271662 0.12140892 0.40074566 0.0015950479 591 99
0.15495406 0.12160273 0.40058193 0.0016197106 612 104
0.15705036 0.12168225 0.40005454 0.0015795929 591 99
0.15907763 0.12170698 0.39936486 0.0016105114 576 95
0.16157463 0.12208602 0.39985803 0.0016813234 556 91
0.16328105 0.12186573 0.39841422 0.0017648891 534 85
0.16540447 0.12195823 0.39802513 0.0017391631 508 79
0.16762301 0.12211782 0.39788899 0.0018769329 491 74
0.16990797 0.12232145 0.39793417 0.0019405682 431 60
0.17190138 0.1223129 0.39733189 0.0017807587 496 76
0.17404276 0.12240861 0.39711553 0.0019092555 476 71
0.17780326 0.12362792 0.40059015 0.0019583532 440 62
0.17967659 0.12352238 0.39982232 0.0021261198 412 55
0.18137568 0.12330073 0.39873728 0.002027875 413 55
0.18315791 0.12313987 0.39790973 0.0021765335 410 54
0.18516621 0.12313286 0.39764142 0.0021613801 369 44
0.18679403 0.12287569 0.39662874 0.0022698655 370 45
0.18884934 0.12290224 0.39659628 0.0021576292 376 46
0.19050109 0.12266837 0.39578825 0.0022402031 347 39
0.1927979 0.1228504 0.39638698 0.0022494397 347 39
0.19516218 0.12307122 0.3971757 0.002451733 300 27
0.19717854 0.12307037 0.39731348 0.0024925063 299 27
0.19932322 0.12314881 0.39777073 0.002868341 268 19
0.20125267 0.12309404 0.39786023 0.0027012797 271 20
0.20313522 0.12301195 0.39792222 0.0029647702 242 13
0.20478907 0.12279434 0.39760453 0.0029026994 254 16
0.20668253 0.12272325 0.39781815 0.0028546834 246 14
0.20889689 0.12284223 0.39870438 0.0031932725 240 13
0.20986648 0.12223393 0.39728218 0.0031976008 235 11
-0.24315251 0.12744907 0.42023101 0.0048601339 136 0
-0.24003328 0.12688692 0.41729379 0.0039953114 158 0
-0.23789471 0.12683797 0.416051 0.0041102907 157 0
-0.23527369 0.12652867 0.41397378 0.0039542099 160 0
-0.23386358 0.12687092 0.41405338 0.0038997377 163 0
-0.23285826 0.12744072 0.41489926 0.0040171742 157 0
-0.23210506 0.1281599 0.41625631 0.0041310298 163 0
-0.22967541 0.127958 0.41465548 0.0037477484 168 0
-0.22702359 0.12762754 0.41268179 0.0039327927 164 0
-0.22704326 0.12880664 0.41562521 0.0038082236 170 0
-0.22494824 0.12879671 0.41476816 0.004066281 177 0
-0.22273056 0.12871574 0.41372856 0.003860838 189 0
-0.22028953 0.12850294 0.41231471 0.0033569946 198 2
-0.21908088 0.12901181 0.41326445 0.0033554223 198 2
-0.21778862 0.12948073 0.41413283 0.0037526919 202 3
-0.21657722 0.13000728 0.41523451 0.0033474402 212 6
-0.21541199 0.13057211 0.41650954 0.0034806079 201 3
-0.21383335 0.13089503 0.41706741 0.0032005308 226 9
-0.21133232 0.13065414 0.41588819 0.0030785562 220 8
-0.20771956 0.12971416 0.41254812 0.0031199635 232 11
-0.20581119 0.12983021 0.41263154 0.0030166437 234 11
-0.20372197 0.1298334 0.41241959 0.0028918507 241 13
-0.20194484 0.13003761 0.41291094 0.0029276374 250 15
-0.20045501 0.13043304 0.41407472 0.0027387643 269 20
-0.19777499 0.13005421 0.41284695 0.0025854129 285 24
-0.19573149 0.13009031 0.413003 0.0025922861 279 22
-0.19362029 0.13008173 0.41308367 0.002850401 268 19
-0.19115931 0.12983537 0.41247484 0.0025365436 291 25
-0.18920965 0.1299347 0.41302893 0.0027008341 300 27
-0.18760835 0.13027814 0.41442338 0.0023338336 322 33
-0.18543354 0.13022661 0.41462371 0.0022063437 356 41
-0.18254232 0.129665 0.41325748 0.0022132758 349 39
-0.18018621 0.12947491 0.41312903 0.0024379885 342 38
-0.17802107 0.12941916 0.41348144 0.0021376968 371 45
-0.17584458 0.12935375 0.41385204 0.0023149706 351 40
-0.17329074 0.12900586 0.41336268 0.0021830269 356 41
-0.17083712 0.12872504 0.41312656 0.0020890436 383 48
-0.16873308 0.12870394 0.41375983 0.0020661089 401 52
-0.16651019 0.12859052 0.41412866 0.0020002769 414 55
-0.16365097 0.12797666 0.41291007 0.0020081394 413 55
-0.16100766 0.12751809 0.41221029 0.0020157925 426 58
-0.15893807 0.1275079 0.41297716 0.0019893341 413 55
-0.15692209 0.12754105 0.41390029 0.0019034306 438 61
-0.15402707 0.12685111 0.41248474 0.0018661175 454 65
-0.15174378 0.12665319 0.41267154 0.0018602784 458 66
-0.14953825 0.12651566 0.4130578 0.0018050442 485 73
-0.14649956 0.12565966 0.41109365 0.0017563374 494 75
-0.14402758 0.12527254 0.41065401 0.0017429305 520 82
-0.14187261 0.12515414 0.41108814 0.0017549025 516 81
-0.13958217 0.12491102 0.4111042 0.0017811164 485 73
-0.13740928 0.12476751 0.41143751 0.0018828209 469 69
-0.13532594 0.12470228 0.41201752 0.0017709893 496 76
-0.13342884 0.12480929 0.41315547 0.001731845 507 78
-0.1308376 0.12426034 0.41210619 0.0017849276 486 73
-0.12863238 0.1240666 0.41221645 0.001776879 484 73
-0.12644434 0.12388358 0.4123449 0.0018454392 461 67
-0.12410287 0.12354195 0.41192654 0.0017541156 505 78
-0.1211598 0.1225805 0.4094176 0.0017477985 502 77
-0.11934455 0.12274715 0.41065493 0.0017866263 479 72
-0.11724939 0.12262666 0.41091463 0.0018236978 503 77
-0.11553725 0.12290951 0.41250905 0.0017550564 502 77
-0.11325411 0.12258418 0.41204432 0.0018028838 503 77
-0.11037686 0.1215928 0.40931618 0.0018808044 464 68
-0.10847948 0.12166452 0.4101443 0.001789835 485 73
-0.10663973 0.12180472 0.41118646 0.0017771521 504 78
-0.10477668 0.12192309 0.41213816 0.0019485594 446 63
-0.10264577 0.12172829 0.41201341 0.0020531041 442 62
-0.10034709 0.12132308 0.4111563 0.0019983151 450 64
-0.098178484 0.12106214 0.41076812 0.0019624473 432 60
-0.096243285 0.12108424 0.41132236 0.0018810618 455 66
-0.093781412 0.12043096 0.40956318 0.0019092112 447 64
-0.091955371 0.12058378 0.41052717 0.0019505739 455 66
-0.08968325 0.12014563 0.40946212 0.0018635383 460 67
-0.088040829 0.12055035 0.41125378 0.001881655 447 64
-0.086027279 0.12045368 0.41132057 0.001895675 443 63
-0.083784558 0.12002426 0.41023436 0.001978186 446 63
-0.082009092 0.12025974 0.41140538 0.0018340895 465 68
-0.080011688 0.12017326 0.41146111 0.0019405535 479 72
-0.077715538 0.11962266 0.4099119 0.001989515 450 64
-0.07575988 0.11958146 0.4100931 0.0020123129 442 62
-0.073860139 0.11962868 0.41056427 0.0018855159 458 66
-0.071765885 0.11935492 0.40992042 0.0019578291 473 70
-0.069761448 0.11921957 0.40973842 0.0019100049 439 62
-0.06775821 0.11907865 0.4095245 0.0018930732 444 63
-0.065958783 0.11929815 0.41053841 0.0019333734 471 70
-0.063966505 0.11917156 0.41035005 0.0017965786 479 72
-0.061696328 0.11850333 0.40828398 0.0018637197 477 71
-0.059912812 0.11875702 0.40938258 0.0020110097 456 66
-0.057879951 0.11851689 0.40876853 0.0018153073 480 72
-0.055987608 0.11855792 0.40911368 0.0018828488 451 65
-0.053981781 0.11835306 0.40860018 0.001922939 431 60
-0.052005928 0.11820129 0.40825993 0.0018891745 445 63
-0.050009117 0.11798853 0.4076992 0.0019307251 432 60
-0.048186518 0.11818621 0.40854779 0.0018519645 458 66
-0.046130881 0.11780507 0.40738666 0.0017698499 510 79
-0.044161163 0.11762001 0.40689436 0.0016960045 545 88
-0.042093284 0.11714515 0.40539074 0.0016289258 561 92
-0.040207401 0.11715596 0.40555936 0.0015903496 586 98
-0.038292479 0.11707906 0.40541661 0.00157956 631 109
-0.036335345 0.11685841 0.4047685 0.0015274273 673 119
-0.034411658 0.11672706 0.40442213 0.0015484445 613 105
-0.032566663 0.11686291 0.40499455 0.0014930996 663 117
-0.030576089 0.11646095 0.40369618 0.0014669413 665 117
-0.02877146 0.11676097 0.40482447 0.0014544812 683 122
-0.026804224 0.1163969 0.40364382 0.0015065768 686 123
-0.024941878 0.11646777 0.403965 0.0014869299 653 114
-0.023071498 0.11650962 0.40417957 0.0014188811 696 125
-0.021151885 0.11628821 0.40347481 0.0014301328 697 125
-0.019338142 0.11666244 0.40483081 0.0014648288 708 128
-0.017407661 0.11633714 0.40375382 0.0014256755 695 125
-0.015517929 0.11623847 0.40345752 0.0014638036 668 118
-0.013629688 0.11612538 0.40310562 0.0015419455 666 118
-0.011747199 0.11603308 0.40282044 0.0015321679 669 118
-0.0098715359 0.115986 0.4026868 0.0015820991 628 108
-0.0079964958 0.11592592 0.4025028 0.0015606274 610 104
-0.0061067543 0.11555101 0.40122041 0.0015187529 633 109
-0.0042552999 0.11588941 0.40240961 0.0015394799 637 110
-0.0023924557 0.11620481 0.40351394 0.0016090885 619 106
-0.00051873201 0.11636232 0.40406486 0.001513636 631 109
0.0013589588 0.11642437 0.40427917 0.0014591794 668 118
0.0032369457 0.11642508 0.40427533 0.0014223304 695 125
0.0051099285 0.11631136 0.40386903 0.0013844095 730 133
0.0069869864 0.11632658 0.4039053 0.0014476096 726 132
0.0088891992 0.11666549 0.40506017 0.0014028572 721 131
0.010767579 0.11662782 0.40490234 0.0014196227 736 135
0.012627923 0.11643508 0.40420082 0.0014211225 746 137
0.014488034 0.11629037 0.4036608 0.0014318341 691 124
0.016349107 0.11618568 0.40325424 0.0014629965 710 128
0.01821805 0.11615268 0.4030911 0.0013824056 739 136
0.020102719 0.11621676 0.40325925 0.0013629667 753 139
0.022019872 0.11644167 0.40397957 0.0014128945 744 137
0.023925025 0.11657278 0.40436837 0.0014142044 745 137
0.025772274 0.1164232 0.40377745 0.0013243781 782 146
0.027629962 0.11633787 0.4034034 0.0014185233 730 133
0.029531477 0.11643623 0.40365994 0.0013319888 780 146
0.031370278 0.11629036 0.40306345 0.0013876198 761 141
0.033178847 0.11605513 0.40215078 0.0014230729 748 138
0.035059821 0.11608484 0.40214959 0.0013981797 754 139
0.037025105 0.11637648 0.40304849 0.001382476 767 143
0.038910348 0.11640057 0.40301323 0.0013810458 762 141
0.040730841 0.11623765 0.40232316 0.0014187068 747 138
0.042671788 0.11641769 0.40281251 0.0014316704 689 123
0.044539738 0.11639179 0.40258113 0.0014943203 664 117
0.04646023 0.11649974 0.40280449 0.0015257603 662 117
0.048315838 0.11644293 0.40244982 0.0014903747 703 127
0.05011886 0.11626837 0.40167975 0.0014139874 701 126
0.051934931 0.11613558 0.40104547 0.0013692419 747 138
0.053788293 0.11609255 0.40071231 0.0013647769 752 139
0.055704456 0.11618334 0.40083158 0.0013605359 750 138
0.057606403 0.11623958 0.40082148 0.0013845174 784 147
0.059533115 0.11634068 0.4009558 0.0013830506 781 146
0.06126833 0.11607278 0.39980835 0.0013928241 778 145
0.063582592 0.11688525 0.40237045 0.0013169057 803 151
0.065418042 0.11679608 0.40181607 0.0013083126 796 150
0.067345522 0.1168716 0.4018169 0.0013201501 789 148
0.069193967 0.11680957 0.40133318 0.001281533 825 157
0.070918217 0.11654676 0.40014827 0.0012895491 827 157
0.0727688 0.11649974 0.39969268 0.0012750212 840 161
0.074747659 0.1166553 0.39991906 0.0012896664 830 158
0.076994956 0.11721188 0.40150535 0.0013418177 792 149
0.079170145 0.11763464 0.40261686 0.0013332495 813 154
0.080722727 0.11713415 0.40055504 0.0012714178 855 164
0.082620844 0.11714648 0.40023422 0.0013579266 835 159
0.084786236 0.11752877 0.40116149 0.0012828505 833 159
0.086975299 0.11792641 0.40212375 0.0013316643 771 144
0.088811897 0.11783938 0.40141708 0.0012984023 825 157
0.090670764 0.1177849 0.40080634 0.0012924875 829 158
0.092572451 0.11778717 0.40037295 0.001277337 828 158
0.094488941 0.11780779 0.39998576 0.0013058183 849 163
0.096306846 0.1177071 0.3991707 0.001251241 861 166
0.098242588 0.11775155 0.39883143 0.0012883374 867 167
0.10023588 0.11786198 0.39869809 0.0013119358 842 161
0.10206418 0.11777791 0.39788973 0.0012511197 882 171
0.10414366 0.11798147 0.39803532 0.0012177194 895 174
0.106117 0.11805964 0.39773935 0.0012117876 914 179
0.10820602 0.11826146 0.39784127 0.0011977983 925 182
0.11021788 0.11837343 0.39762193 0.0012491714 869 168
0.11260782 0.11888076 0.39871013 0.0012731418 836 160
0.11460742 0.11896586 0.39836204 0.0013160498 847 162
0.11633676 0.11877228 0.3970643 0.0012405923 874 169
0.1196461 0.1201719 0.4010694 0.0012319804 879 170
0.12146441 0.12005319 0.3999835 0.001265238 890 173
0.12320859 0.1198661 0.39865586 0.0012330662 944 186
0.12529506 0.12001262 0.39842302 0.0011556314 980 195
0.12741703 0.12018819 0.39827046 0.0011818515 966 192
0.12925903 0.12009838 0.3972249 0.0011644352 989 197
0.13110326 0.12001324 0.39618391 0.0011650868 1017 204
0.13339621 0.12033534 0.3964754 0.0011897846 973 193
0.13586788 0.12080716 0.39724612 0.0011494606 990 198
0.13790423 0.12088402 0.39670762 0.0011827984 978 195
0.14025281 0.12122862 0.3970401 0.0012278893 888 172
0.14278379 0.12171925 0.39784276 0.0014386465 721 131
0.14574252 0.12255623 0.39976892 0.0014862253 651 114
0.14801627 0.12280256 0.39976415 0.0015320772 616 105
0.1504758 0.12319443 0.40023533 0.0015634729 596 100
0.15273304 0.12341266 0.40014803 0.0015965365 604 102
0.15521374 0.12380351 0.40062976 0.0016352553 587 98
0.15732305 0.12389196 0.40014711 0.0015749872 619 106
0.15933485 0.12390235 0.39943299 0.0016289061 562 92
0.16135538 0.12391921 0.39876479 0.0017053791 526 83
0.16380645 0.12426225 0.3991738 0.001767777 493 75
0.16584063 0.12428457 0.39858413 0.0017658286 496 76
0.16782525 0.12426966 0.39791292 0.0017902793 487 73
0.17029496 0.12461004 0.39841971 0.0018427821 457 66
0.17257552 0.12480573 0.39850715 0.0018850092 454 65
0.17469564 0.12488218 0.39826211 0.0020459793 440 62
0.17728721 0.12529007 0.39912492 0.0019228297 443 63
0.17923835 0.12524129 0.39858729 0.0020291926 404 53
0.18117988 0.12518694 0.39809036 0.0022317965 391 50
0.183349 0.12528931 0.39815187 0.0020824901 397 51
0.18539433 0.12530577 0.39800209 0.0021103739 385 48
0.18751326 0.1253711 0.39807031 0.0022612179 364 43
0.18931834 0.12522742 0.39753881 0.0023225632 343 38
0.19192022 0.12560828 0.39873663 0.0025123437 318 32
0.19398265 0.12563178 0.39886424 0.0023147329 326 34
0.19459042 0.12472248 0.39609346 0.0024499791 303 28
0.19723819 0.12512591 0.39755419 0.0025881738 285 24
0.1995554 0.12531359 0.39839247 0.0027221106 264 18
0.20135739 0.12517723 0.39826155 0.002747217 263 18
0.20272683 0.12477735 0.39735025 0.0032131015 234 11
0.20444153 0.12459573 0.39719021 0.0031542096 237 12
0.2066651 0.12472476 0.39807644 0.0031652329 232 11
0.20872699 0.12475464 0.3987014 0.0031508554 223 8
0.20984979 0.12422806 0.3975983 0.003121316 220 8
-0.24113184 0.12842862 0.41730085 0.0041870936 144 0
-0.23937552 0.12858033 0.41672599 0.0040825466 151 0
-0.23839998 0.12915763 0.41751471 0.0041828356 148 0
-0.23596288 0.12894624 0.41576022 0.004171181 162 0
-0.23470613 0.12938184 0.41611102 0.0040025413 154 0
-0.23271109 0.12941454 0.41519046 0.0042348085 159 0
-0.23145846 0.12986436 0.41563717 0.0039480608 161 0
-0.23023288 0.13033758 0.41618788 0.0040092389 162 0
-0.22752076 0.12997022 0.414092 0.0038817332 178 0
-0.22590891 0.13023041 0.41403669 0.0037384299 168 0
-0.22519428 0.13101739 0.41569173 0.0041032471 176 0
-0.22301285 0.13095774 0.4147003 0.0040425397 169 0
-0.220386 0.13063289 0.41291758 0.0039797788 181 0
-0.21841969 0.13069716 0.41241419 0.0032555643 203 3
-0.21672624 0.13092752 0.41248327 0.0033537894 206 4
-0.21616776 0.13185459 0.41479364 0.0030645754 222 8
-0.21473408 0.13226075 0.41551328 0.0030726653 220 8
-0.21323754 0.13263583 0.41618809 0.0031451182 213 6
-0.21104309 0.13257995 0.41556731 0.003172369 214 6
-0.20890397 0.13255803 0.41511285 0.0033352394 232 11
-0.2057336 0.13187468 0.41264969 0.0031657158 228 10
-0.20414276 0.13220014 0.41340646 0.0031692369 243 13
-0.20162748 0.13192751 0.41235623 0.0028806499 246 14
-0.19943663 0.13186364 0.41202334 0.0028203148 264 18
-0.19787803 0.13222089 0.41307119 0.0027478032 262 18
-0.19598657 0.13236099 0.41350612 0.0030481948 256 17
-0.19354814 0.13213073 0.41284966 0.0026733126 266 19
-0.19093063 0.13177182 0.41185609 0.0027264084 280 22
-0.18927503 0.1320762 0.41300017 0.0024527546 303 28
-0.18772273 0.13246028 0.41445822 0.0026463789 310 30
-0.18594137 0.13268958 0.41549534 0.0024033929 314 31
-0.18308492 0.13214819 0.41417831 0.0024748575 302 28
-0.1802365 0.13160008 0.41289428 0.0023362273 332 35
-0.17822668 0.13165863 0.41356647 0.0022573259 347 39
-0.17619227 0.13170017 0.41423696 0.00247717 322 33
-0.17344615 0.13120434 0.41326293 0.0022835948 342 38
-0.17045403 0.1305081 0.41169575 0.002037456 394 51
-0.16903684 0.13101541 0.41396406 0.0021383653 389 49
-0.16711901 0.1311425 0.41506991 0.0021454305 370 45
-0.163873 0.13021739 0.41287225 0.0021010945 406 54
-0.16133046 0.12983477 0.41241422 0.0020572224 426 58
-0.15893655 0.12956341 0.41232833 0.0019726541 414 55
-0.15676783 0.12947091 0.41282809 0.001903114 445 63
-0.15473813 0.12949231 0.41370523 0.0019546121 436 61
-0.15199101 0.12890582 0.41264746 0.0018774351 450 64
-0.14994057 0.12890224 0.41345939 0.0018313739 471 70
-0.14784057 0.12885538 0.41413623 0.001900101 475 71
-0.14460897 0.12780708 0.4115884 0.0018402953 466 68
-0.14208789 0.12736586 0.41098431 0.0018179708 475 71
-0.13982382 0.1271456 0.41108483 0.001855277 455 66
-0.13757339 0.12693147 0.41119593 0.0018071013 480 72
-0.13562925 0.12699778 0.41220608 0.0018124059 477 71
-0.13363118 0.12701483 0.41304687 0.0019184937 470 69
-0.13144897 0.12685467 0.41329885 0.0018057703 485 73
-0.12878245 0.12621489 0.41197029 0.0018624651 456 66
-0.12648566 0.12592299 0.41175774 0.0019126192 466 68
-0.12410332 0.12553516 0.4112125 0.0019366842 449 64
-0.12205061 0.12547356 0.41171771 0.0018349311 459 67
-0.11911398 0.12448613 0.40916282 0.001774686 489 74
-0.11733773 0.12469855 0.41053066 0.0019534032 454 65
-0.11562839 0.12499058 0.41214609 0.0018890993 478 71
-0.11349243 0.12482361 0.4122313 0.0018214073 471 70
-0.11069707 0.12391256 0.4098362 0.0018832783 489 74
-0.10860457 0.12376956 0.40995866 0.0017575523 495 75
-0.10687076 0.12403763 0.41142556 0.0017706823 493 75
-0.10495231 0.12409741 0.41218549 0.0018731859 482 72
-0.10269763 0.12375431 0.41158852 0.0019012485 445 63
-0.10048789 0.12345301 0.41111049 0.0019914657 448 64
-0.098435253 0.12333663 0.4112291 0.0018551627 463 68
-0.096060961 0.12280429 0.40994149 0.0018419174 462 67
-0.094044566 0.1227169 0.4101201 0.0018180091 474 70
-0.09209092 0.12270946 0.41054896 0.0019577136 462 67
-0.09002807 0.122553 0.41046277 0.0019394765 430 59
-0.087894447 0.12229118 0.41000634 0.001941287 438 61
-0.086120926 0.12252987 0.41121244 0.0019234974 435 61
-0.083864167 0.12207618 0.41007903 0.0019274151 438 61
-0.081972085 0.12214442 0.41068295 0.00193771 450 64
-0.079758957 0.12172598 0.40963507 0.0019675079 454 65
-0.077635176 0.12142651 0.40897137 0.0018487079 464 68
-0.075728312 0.12145972 0.40941361 0.0019146064 436 61
-0.074081309 0.12192234 0.41129124 0.0020533053 422 57
-0.072300345 0.12218337 0.41247773 0.0019149892 441 62
-0.069972523 0.12150916 0.41049331 0.0019304428 438 61
-0.06800396 0.12143829 0.41053292 0.0018920507 445 63
-0.066067584 0.12142242 0.41074628 0.0020094807 441 62
-0.06417834 0.12149484 0.41124672 0.0018333117 463 68
-0.062147357 0.12129512 0.41081434 0.0018534454 477 71
-0.060119055 0.12108801 0.41034526 0.0018621017 453 65
-0.058081079 0.12084708 0.40974998 0.0018783256 447 64
-0.056062866 0.12063224 0.40923199 0.0019531555 469 69
-0.05417404 0.12069046 0.40963009 0.0019000449 442 62
-0.052144893 0.12042885 0.40893251 0.0018890962 450 64
-0.050289623 0.12056421 0.40957323 0.0018560492 456 66
-0.048249952 0.12025068 0.40867966 0.0018940858 436 61
-0.046283469 0.12010124 0.40833429 0.0018578004 457 66
-0.044198073 0.11961716 0.40684152 0.0019671035 460 67
-0.042176034 0.11926875 0.40580094 0.0018463653 467 69
-0.040365294 0.11951323 0.40676939 0.001964546 457 66
-0.038398921 0.11929828 0.40616629 0.0017735051 500 77
-0.036352642 0.1187999 0.40458989 0.001716163 547 88
-0.03454493 0.11906929 0.4056206 0.0016288377 558 91
-0.032676019 0.11914669 0.40599048 0.0016145033 571 94
-0.030761965 0.11905891 0.40579039 0.0015862657 600 101
-0.028674504 0.11824454 0.40310633 0.0015231927 656 115
-0.026787639 0.11820123 0.40304363 0.0014364861 690 124
-0.024930226 0.11829115 0.40342873 0.0015310397 648 113
-0.023058014 0.11831977 0.40359858 0.0014827991 684 122
-0.021183627 0.11834131 0.40373811 0.0014641145 714 129
-0.019261545 0.11807468 0.40288836 0.0013932193 733 134
-0.017371122 0.11796556 0.40256989 0.0013693239 747 138
-0.015508682 0.11804305 0.40288246 0.0014400404 700 126
-0.01364554 0.11813577 0.4032414 0.0014743514 662 117
-0.011776984 0.11820371 0.40351009 0.0015122161 627 108
-0.0099107074 0.11832456 0.40395397 0.001685426 590 99
-0.0080202976 0.11814648 0.40337178 0.0016175808 601 102
-0.0061382833 0.11802111 0.402964 0.0015388298 617 106
-0.0042740633 0.11827798 0.40385598 0.0016802872 566 93
-0.0024038395 0.11864108 0.40510526 0.0016004684 577 96
-0.00052028045 0.11859224 0.40494269 0.0016213139 611 104
0.0013618267 0.11855199 0.40480405 0.0015110997 632 109
0.0032407264 0.11844123 0.4044193 0.0014657597 694 125
0.0051112263 0.11821751 0.40364349 0.0014639151 719 131
0.0069918814 0.11828578 0.40385923 0.001390797 720 131
0.0088901501 0.11856 0.40477273 0.0014043166 709 128
0.010769937 0.11853502 0.40465915 0.0014354939 688 123
0.01262995 0.11833221 0.40393299 0.0013889598 727 133
0.01450098 0.11827175 0.40368724 0.0014442506 704 127
0.01643583 0.11868602 0.40505603 0.0014621406 711 129
0.01825521 0.118267 0.40357518 0.0013960983 725 132
0.020144336 0.11833584 0.40375331 0.0014379794 724 132
0.022034977 0.11840107 0.40391317 0.0014055575 712 129
0.023927931 0.11846751 0.40407103 0.0013561671 755 140
0.025838189 0.11860372 0.40446031 0.0014389916 720 131
0.027735807 0.11866731 0.40459555 0.0013967867 724 132
0.02962693 0.11869679 0.40460789 0.0013999762 714 129
0.031449545 0.11846473 0.40372193 0.001413711 700 126
0.033183198 0.11794262 0.40184149 0.0014486415 726 132
0.035131633 0.11819892 0.40260622 0.0014781469 722 131
0.0370753 0.11841399 0.40322298 0.0014377568 704 127
0.038974892 0.11847436 0.40330505 0.0014059304 736 135
0.040854905 0.11847236 0.40316719 0.0014350041 742 136
0.042604525 0.11810906 0.40179226 0.0014357441 708 128
0.044527512 0.11823676 0.40207988 0.0014739238 658 116
0.046525721 0.11854579 0.40297517 0.0014820657 656 115
0.048281174 0.1182363 0.40175933 0.0014594174 675 120
0.0500823 0.11805763 0.40097994 0.0014412507 681 121
0.051915355 0.11796439 0.40048194 0.0014934569 690 124
0.053716335 0.11780732 0.39975819 0.0013646781 757 140
0.055605099 0.11784685 0.39969215 0.0013753115 764 142
0.057650648 0.11820529 0.40069714 0.0013968105 743 137
0.059539743 0.11823045 0.40056133 0.001349074 756 140
0.061816398 0.11900014 0.40293595 0.0014288785 724 132
0.06363564 0.11886976 0.40225074 0.0014126083 756 140
0.065517582 0.11886063 0.40196481 0.001367247 772 144
0.067337908 0.11874335 0.40130183 0.0013705962 765 142
0.06917771 0.11866587 0.40076199 0.0013076647 819 155
0.070961043 0.1184982 0.39990601 0.0012979602 807 152
0.072958186 0.11868702 0.40024033 0.0013098725 797 150
0.07503996 0.11900054 0.4009811 0.0013307933 784 147
0.077039987 0.1191722 0.40122932 0.0013054096 799 150
0.079215564 0.1196007 0.40232697 0.0013382786 800 151
0.080960721 0.11937448 0.40120766 0.0012962623 819 155
0.082714923 0.11917163 0.40015391 0.001306816 804 152
0.084671974 0.11926359 0.40007591 0.0013296036 784 147
0.086840883 0.11964341 0.40094703 0.0013115188 796 150
0.088957936 0.11993705 0.40151182 0.0013244851 819 155
0.090900078 0.11998752 0.40124565 0.0013466722 806 152
0.092782564 0.11995877 0.40069872 0.001338285 814 154
0.094553873 0.11979034 0.39966983 0.0013018879 850 163
0.096488424 0.11983126 0.39932361 0.0012412259 868 167
0.098620005 0.1201106 0.3997539 0.0012222065 888 172
0.1006613 0.12027144 0.39977124 0.0012524731 859 165
0.10256151 0.12026088 0.39920121 0.0012626657 851 163
0.10420772 0.11995827 0.39764625 0.0012406528 868 167
0.10636628 0.12024578 0.39803028 0.0012066534 908 177
0.10854874 0.1205497 0.39844877 0.0012862954 870 168
0.11079907 0.1209171 0.39905661 0.0012669793 841 161
0.1129003 0.12111209 0.39907572 0.0012878525 821 156
0.11501171 0.12131127 0.39908975 0.0012882559 834 159
0.11714371 0.12152525 0.39913371 0.0012465742 866 167
0.11978564 0.12225272 0.40084296 0.0012734438 884 171
0.12174691 0.12227341 0.40021494 0.0012297234 884 171
0.12332008 0.12190979 0.39831612 0.001193351 962 191
0.12539452 0.12204526 0.39803514 0.0011895361 966 192
0.12751195 0.12221783 0.3978602 0.001180326 977 194
0.12964129 0.12239649 0.39769104 0.0011983821 991 198
0.13212855 0.12290279 0.39857152 0.00118389 992 198
0.1340822 0.12290522 0.39780569 0.0011526888 982 196
0.1360234 0.12289633 0.39699602 0.0011905094 987 197
0.1383439 0.12322554 0.39727116 0.0012291073 941 185
0.14069766 0.12357479 0.39760354 0.0012798423 835 159
0.14321396 0.12405524 0.39835224 0.001440254 701 126
0.14621148 0.12493381 0.40037286 0.0015843261 610 104
0.14851891 0.12520713 0.40045181 0.0016767575 603 102
0.15054365 0.12523806 0.39976218 0.0015401185 617 106
0.1529033 0.12554313 0.39995769 0.0015926716 590 99
0.15526299 0.12584043 0.40014052 0.0016279555 579 96
0.15798406 0.12641934 0.40123338 0.0016386779 555 90
0.15949896 0.12603061 0.39927784 0.001671555 542 87
0.16177133 0.12624267 0.39925459 0.0017453056 503 77
0.16412471 0.12651196 0.39944178 0.0017487197 505 78
0.16612794 0.1265081 0.39880118 0.0017944699 482 72
0.16872539 0.12695144 0.39960843 0.0018011092 479 72
0.17110661 0.12722354 0.39991742 0.001982108 440 62
0.17299311 0.12712574 0.39911047 0.0019398495 463 68
0.17571096 0.12763411 0.4002561 0.0019779401 416 56
0.17726536 0.12729536 0.39879858 0.0019980334 411 55
0.17905101 0.12712845 0.39793736 0.0021051501 379 47
0.1812121 0.12722887 0.39797163 0.0021756007 381 47
0.18386388 0.12766777 0.39912412 0.0022611958 370 45
0.18579441 0.12760177 0.39875937 0.0021834287 358 42
0.18767631 0.12750414 0.3983587 0.002313066 338 37
0.18983003 0.12759131 0.39859864 0.0023172747 330 35
0.19180524 0.12755792 0.39852536 0.0023767587 317 32
0.19373277 0.12749384 0.39841929 0.0026779154 305 29
0.1956633 0.12743305 0.39838603 0.0024224496 307 29
0.19774324 0.12746981 0.39871949 0.0027432281 266 19
0.1999867 0.12761015 0.39943805 0.0029529345 265 19
0.20117952 0.12708402 0.39812887 0.0028096086 252 16
0.20250992 0.12665437 0.39717725 0.0030778407 232 11
0.20398454 0.12632248 0.3965857 0.0030371689 226 9
0.2063029 0.12651449 0.39769292 0.0030509867 222 8
0.20868799 0.12674332 0.39897048 0.0031278755 216 7
0.21094887 0.12689304 0.40005177 0.0032219852 208 5
-0.23702644 0.12824607 0.41074392 0.0041102096 150 0
-0.23754798 0.12962422 0.4141196 0.0040284288 154 0
-0.23528734 0.12949482 0.41264519 0.0038903656 166 0
-0.23655817 0.13132365 0.41739723 0.0040864237 151 0
-0.23491412 0.13155217 0.41706124 0.0042644278 142 0
-0.23231587 0.13124563 0.41505411 0.0044338671 149 0
-0.23087467 0.13159314 0.41514531 0.0040380354 158 0
-0.22966434 0.13207965 0.41570285 0.0040488122 158 0
-0.22784624 0.13222231 0.41521031 0.0039277202 160 0
-0.22523163 0.1319011 0.41330135 0.0040111234 156 0
-0.22446057 0.13266358 0.41482598 0.0039775847 156 0
-0.22355111 0.13335769 0.41617033 0.0040174043 175 0
-0.22056948 0.1328171 0.41370535 0.0037425139 173 0
-0.21843642 0.13278207 0.41286489 0.0036684664 192 1
-0.21737531 0.13340424 0.41411307 0.0034273718 192 1
-0.21568522 0.13364869 0.41423473 0.0035428642 189 0
-0.21417172 0.13400842 0.41476315 0.0036190324 187 0
-0.21217896 0.13407244 0.41442853 0.0036591557 193 1
-0.21040098 0.13427478 0.41457647 0.0034081966 195 1
-0.20804556 0.13410898 0.41364512 0.0034808482 201 3
-0.20688067 0.13471504 0.41515255 0.0034098986 218 7
-0.20422775 0.13435464 0.41374165 0.003213671 220 8
-0.20207554 0.13431959 0.41339555 0.0030806514 242 13
-0.20046572 0.1346481 0.41423109 0.0030090718 242 13
-0.19885848 0.13498533 0.41515675 0.0029507275 257 17
-0.19641365 0.13475515 0.41440195 0.0028113741 255 16
-0.19261913 0.13358392 0.41081804 0.0029392198 259 17
-0.19073133 0.13372388 0.41133076 0.0026400313 274 21
-0.18920547 0.1341235 0.41270664 0.0027606364 278 22
-0.18779215 0.13461275 0.41442284 0.0024651461 300 27
-0.185822 0.13470942 0.41499346 0.0025174438 296 26
-0.18333206 0.13442717 0.41445702 0.0026212786 291 25
-0.18058051 0.13394432 0.4133583 0.0024023745 311 30
-0.17826797 0.1337796 0.41329494 0.0023845679 338 37
-0.17630163 0.13387385 0.41408411 0.0022190395 351 40
-0.174163 0.133838 0.4145205 0.0022323567 355 41
-0.17136875 0.13329132 0.41341802 0.0021005087 379 47
-0.16930881 0.13330933 0.41410667 0.0022980697 371 45
-0.16715625 0.13325398 0.41460505 0.0021118547 373 45
-0.16444832 0.13274892 0.41373521 0.0020524266 389 49
-0.16171214 0.13220786 0.41277713 0.0019441838 424 58
-0.15867166 0.13140079 0.4110063 0.0020627151 421 57
-0.15650833 0.13130848 0.41148716 0.001987583 423 58
-0.15447114 0.13132094 0.41231316 0.001953556 421 57
-0.15231079 0.13122764 0.41282001 0.0020401988 434 60
-0.14976642 0.13079639 0.41227037 0.0019832547 461 67
-0.14759605 0.13068438 0.41273001 0.001814418 483 72
-0.14542992 0.13057302 0.41319367 0.0019661691 444 63
-0.14268643 0.12993276 0.41197923 0.0019328077 467 69
-0.14025164 0.12955916 0.41160181 0.0019176009 472 70
-0.13801497 0.1293603 0.41177148 0.001843576 468 69
-0.13568822 0.12906986 0.41163969 0.0018570647 494 75
-0.13367368 0.12907214 0.41243115 0.0017751828 488 74
-0.13153768 0.12895539 0.41283131 0.0018109201 472 70
-0.12906379 0.1284986 0.41212779 0.0018549107 469 69
-0.1264779 0.12791409 0.41099557 0.0018681592 474 70
-0.12458424 0.12802216 0.41207188 0.001971876 458 66
-0.12196926 0.12738042 0.41071704 0.0018520427 463 68
-0.11955667 0.12693226 0.40996477 0.0018879841 448 64
-0.11739013 0.12673463 0.41000223 0.001850771 462 67
-0.11560116 0.12694484 0.41134238 0.0018517933 455 66
-0.11371606 0.12705497 0.41234317 0.0020456796 426 58
-0.11090343 0.12611426 0.40991226 0.001891435 475 71
-0.10896597 0.12615272 0.41064224 0.0018138023 487 73
-0.10734112 0.12656121 0.41256148 0.0017788179 491 74
-0.10498933 0.12611185 0.41166669 0.0018987639 469 69
-0.10278951 0.12583129 0.41130245 0.002033487 432 60
-0.100757 0.12574863 0.4115662 0.0019237489 445 63
-0.098611251 0.12551855 0.411329 0.0020591412 432 60
-0.09628278 0.12504181 0.4102639 0.0018871031 449 64
-0.094116554 0.1247604 0.40982002 0.0019530067 452 65
-0.092117131 0.12469286 0.410061 0.0019715575 438 61
-0.089977972 0.12442917 0.40963963 0.0018991875 443 63
-0.08796519 0.12433247 0.40975091 0.0020246855 432 60
-0.085904151 0.12416162 0.40960145 0.0020135914 438 61
-0.084115796 0.12438615 0.41074121 0.0019100504 434 60
-0.081910796 0.12399061 0.40981811 0.0019391901 437 61
-0.079826005 0.12376226 0.4094311 0.0018970253 464 68
-0.07778617 0.12359399 0.40922758 0.0018825124 447 64
-0.076201528 0.12415884 0.4114387 0.0019768083 441 62
-0.073910028 0.1235714 0.40981773 0.0020212033 432 60
-0.072008841 0.12362251 0.4102999 0.0019302592 435 61
-0.070134141 0.12372314 0.410934 0.002089581 416 56
-0.068237498 0.12378971 0.41144285 0.0020252322 415 56
-0.066379495 0.12393229 0.41219255 0.0020525763 439 62
-0.064279713 0.12361845 0.41141206 0.0019564938 423 58
-0.062225308 0.12337516 0.41085351 0.0019121181 438 61
-0.060200792 0.12317746 0.41043484 0.0019456046 437 61
-0.058231749 0.12308393 0.41035181 0.0019579313 445 63
-0.056247983 0.12295184 0.41012919 0.001881292 443 63
-0.054253716 0.12278666 0.40978557 0.0019606061 441 62
-0.052378796 0.12288936 0.41032574 0.0018868337 453 65
-0.050211258 0.12228724 0.40850198 0.0018987041 461 67
-0.048350174 0.12241332 0.40910092 0.0019046625 441 62
-0.046317007 0.12209618 0.40820923 0.0019430069 443 63
-0.044296008 0.12178525 0.40732858 0.0020736184 436 61
-0.042420868 0.12186541 0.40774703 0.0018865465 444 63
-0.040569279 0.12202396 0.40841982 0.0019102036 436 61
-0.038653482 0.12199548 0.40845868 0.0018656062 465 68
-0.036765158 0.12205527 0.40878513 0.0018566363 460 67
-0.034821052 0.12192628 0.40847158 0.0018060827 474 70
-0.032915227 0.12192415 0.40857542 0.0018420061 469 69
-0.030901954 0.12149929 0.40725505 0.0018510701 489 74
-0.029003376 0.12149929 0.40735137 0.0016617344 545 88
-0.026878662 0.12048563 0.40404147 0.0016626017 585 98
-0.024966536 0.12034398 0.4036482 0.0016344463 564 92
-0.023140643 0.12062876 0.40467885 0.001592158 585 98
-0.021228535 0.12047476 0.40423113 0.0014992144 640 111
-0.01925726 0.11992235 0.40244001 0.0014328251 691 124
-0.017372495 0.11984766 0.4022454 0.001397306 715 130
-0.015522134 0.12002093 0.40287718 0.0014197204 704 127
-0.013655115 0.12009531 0.40317109 0.0014542682 673 119
-0.011776919 0.12007944 0.40315619 0.0014422191 685 122
-0.0099042542 0.12012463 0.40334052 0.0015671497 633 109
-0.008046329 0.12041154 0.40433088 0.001512651 631 109
-0.0061631035 0.12037941 0.40424418 0.0015351715 664 117
-0.0042803627 0.12033267 0.40410283 0.0016207113 582 97
-0.0024052316 0.12059423 0.40499115 0.0015490457 606 103
-0.00052164483 0.12079076 0.40565547 0.0015024053 641 111
0.0013628453 0.12052403 0.40475845 0.0015095077 631 109
0.0032419595 0.12036719 0.4042249 0.0015200649 674 120
0.005124921 0.12041591 0.40437603 0.0014183678 697 125
0.0070133866 0.12053308 0.40475145 0.0015065059 665 117
0.008901082 0.12059017 0.40491939 0.0014440194 680 121
0.010772491 0.12044524 0.40440315 0.0014474199 680 121
0.012649588 0.12039756 0.40420777 0.0014564369 672 119
0.014570563 0.12072578 0.40526849 0.0014968928 670 119
0.016480004 0.12089413 0.4057864 0.001423821 699 126
0.018329103 0.12063073 0.40484914 0.0014504845 711 129
0.020192591 0.12050232 0.40435898 0.0014325668 741 136
0.022078179 0.12051644 0.40434092 0.0014414835 693 124
0.023962064 0.12051979 0.40428036 0.0014441574 711 129
0.025852757 0.1205544 0.40431809 0.0013996215 716 130
0.027774842 0.12072074 0.40479094 0.0014409489 684 122
0.02964179 0.12064154 0.40443367 0.001436742 693 124
0.031474732 0.12044166 0.40366507 0.0014381801 680 121
0.033277687 0.12015607 0.40260246 0.0014470987 703 127
0.035161637 0.12017781 0.40256262 0.0014976871 708 128
0.037097678 0.12036635 0.40307385 0.001351241 759 141
0.038988572 0.12039729 0.40304944 0.0014152421 742 136
0.040868953 0.12039442 0.40290391 0.0015024797 688 123
0.042695932 0.12024141 0.40224797 0.0014447873 703 127
0.044538014 0.12014202 0.4017635 0.0015370316 678 121
0.046410631 0.12012973 0.40156183 0.0015277942 665 117
0.048315316 0.12019815 0.40162098 0.0014633692 683 122
0.050055243 0.11986693 0.40033624 0.0014521178 672 119
0.051872596 0.11973833 0.39971951 0.0014339626 688 123
0.053965092 0.12023166 0.40116891 0.001436619 696 125
0.055884715 0.12031963 0.40125486 0.0014082263 713 129
0.058056906 0.12092793 0.40306467 0.0013901893 721 131
0.059995331 0.12102633 0.40316319 0.0013819571 763 142
0.061893176 0.12103934 0.40296611 0.0013728755 741 136
0.063739568 0.12095396 0.40243056 0.0013793429 734 134
0.06556461 0.12083413 0.4017694 0.0013418106 762 141
0.067362309 0.12067202 0.40095654 0.001354733 754 139
0.069133408 0.12047242 0.40000787 0.0013613168 778 145
0.071083352 0.12058678 0.40008959 0.0013126181 795 149
0.073215604 0.12099651 0.40113723 0.001312575 801 151
0.075195476 0.12114012 0.40128815 0.0013436046 768 143
0.077114761 0.1211815 0.40108654 0.001350965 800 151
0.079044007 0.12123615 0.40091482 0.0013339908 830 158
0.081038252 0.1213856 0.40104198 0.0013039588 799 150
0.08289744 0.12133054 0.40047887 0.00132785 819 155
0.084723629 0.12123074 0.39975387 0.0012980618 826 157
0.086921588 0.12165563 0.40074295 0.0013276509 811 153
0.089208171 0.12218371 0.4020533 0.001306082 800 151
0.091178954 0.1222662 0.4018797 0.0013048525 803 151
0.092947327 0.12207945 0.40080559 0.0012939128 818 155
0.094705664 0.12188728 0.39969918 0.0012649526 836 160
0.096631363 0.12191384 0.39929423 0.0013095723 841 161
0.098876588 0.12233472 0.40016243 0.0012851865 858 165
0.100791 0.12233812 0.39964658 0.0012965035 858 165
0.10262254 0.12224263 0.3987914 0.0012988324 863 166
0.10462468 0.12235015 0.39858148 0.0012696591 867 167
0.10664128 0.12247042 0.39839536 0.0012802585 885 172
0.10894635 0.12291192 0.39923447 0.0012728811 839 160
0.11117836 0.12325709 0.39974022 0.0012864394 817 155
0.11324797 0.12341353 0.39961475 0.001336061 802 151
0.11552596 0.12378804 0.40017638 0.001298596 811 153
0.11751724 0.12384805 0.39970297 0.0012720805 885 172
0.11966553 0.12406888 0.39973176 0.0012089604 911 178
0.12177813 0.12424626 0.39960355 0.0012069123 914 179
0.12369468 0.12422122 0.39880931 0.0011705699 961 190
0.12553969 0.12412621 0.397778 0.0011805291 939 185
0.12778533 0.12442417 0.39799288 0.0011600233 972 193
0.1298968 0.12458453 0.39775419 0.001153059 992 198
0.13224626 0.12496501 0.39820579 0.0011709807 997 199
0.13438936 0.12514228 0.39799884 0.0011875585 996 199
0.13640353 0.12519613 0.3973923 0.0011798546 968 192
0.13858902 0.12540348 0.39726797 0.001232671 911 178
0.14095978 0.12577035 0.39764428 0.0013910257 794 149
0.14403993 0.12675138 0.3999556 0.0015421691 670 119
0.14654081 0.12720293 0.40059179 0.0015049111 630 109
0.14870508 0.12735416 0.40028614 0.0016266825 591 99
0.15089779 0.1275254 0.40005255 0.0017076235 566 93
0.15306349 0.12766968 0.39974713 0.0016792269 579 96
0.15544769 0.12799014 0.4000091 0.0016176639 566 93
0.15781423 0.12828809 0.40021962 0.0016824483 559 91
0.15996976 0.12840919 0.39990246 0.0016492751 546 88
0.1622678 0.12864028 0.39995632 0.0018722683 503 77
0.16424875 0.12861739 0.39925399 0.0017656767 496 76
0.16662605 0.12890169 0.39954239 0.0018631712 472 70
0.16932763 0.12942705 0.40061656 0.0018899285 455 66
0.17137216 0.12944372 0.40015981 0.0019364217 430 59
0.1738538 0.12978631 0.40075862 0.0019347256 434 60
0.17590736 0.12980513 0.40040872 0.0020840731 410 54
0.17798938 0.12984425 0.40017629 0.0020257107 404 53
0.17966488 0.1295893 0.39909545 0.0020998034 386 49
0.18205561 0.12985016 0.39966217 0.002172943 362 43
0.18376453 0.12962432 0.39879143 0.0021645913 366 44
0.18615451 0.12987861 0.39945939 0.0021976505 355 41
0.18799199 0.12974608 0.39899978 0.0023839392 359 42
0.18974188 0.12955655 0.39842752 0.0023965391 331 35
0.19175617 0.12954968 0.39847934 0.0023576086 324 33
0.19386223 0.12960428 0.39878222 0.0025493954 304 28
0.19597626 0.12966304 0.39915943 0.0025201496 295 26
0.1984196 0.12993623 0.40025786 0.002646819 274 21
0.20060611 0.1300374 0.40088651 0.0028871479 239 12
0.20153894 0.12933205 0.39908516 0.0031028967 238 12
0.20218442 0.12845814 0.396815 0.0029075763 245 14
0.20422718 0.12848042 0.397365 0.0032020023 226 9
0.20629112 0.12851547 0.39800742 0.003214332 208 5
0.20837452 0.12856185 0.39873657 0.0033689451 208 5
0.21212621 0.12962683 0.40267962 0.0035313009 197 2
-0.23735821 0.1304324 0.41185576 0.0049601789 139 0
-0.23652638 0.13108358 0.41291076 0.0046202601 141 0
-0.23533276 0.13154373 0.41331333 0.0042517977 151 0
-0.234947 0.13246733 0.41514957 0.0040326947 153 0
-0.23391348 0.1330387 0.41587758 0.0040332968 153 0
-0.23228669 0.13327977 0.41558653 0.0046635238 149 0
-0.23040576 0.133378 0.41487446 0.0041073719 156 0
-0.22900315 0.13375737 0.41506505 0.0044306167 150 0
-0.22685747 0.13370568 0.41395065 0.0041959044 159 0
-0.22541375 0.13407055 0.41416106 0.0041266298 149 0
-0.22447656 0.13474619 0.41536397 0.0041419109 149 0
-0.22323129 0.1352478 0.41606423 0.0038257176 164 0
-0.22160964 0.13552865 0.41612381 0.0041082967 164 0
-0.21858677 0.13494977 0.41359046 0.0037475291 171 0
-0.2173546 0.13547593 0.414491 0.0042765867 170 0
-0.21624772 0.13609113 0.41570678 0.0035574606 182 0
-0.21373196 0.13582301 0.41427335 0.0035200436 191 0
-0.21220838 0.13618635 0.41481784 0.0034006801 190 0
-0.20935623 0.13569582 0.41281596 0.0035457874 190 0
-0.2076173 0.13592422 0.41305801 0.00345757 210 5
-0.20546778 0.13588572 0.41254565 0.0030669458 226 9
-0.20353208 0.13598929 0.41252321 0.0032319131 214 6
-0.20217416 0.13648507 0.41374943 0.0029371418 238 12
-0.20062816 0.13686295 0.41467825 0.0028468554 252 16
-0.19925813 0.13737015 0.41606042 0.002854334 245 14
