# .PCD v0.7 - Point Cloud Data file format
VERSION 0.7
FIELDS x y z noise intensity gray
SIZE 4 4 4 4 2 1
TYPE F F F F U U
COUNT 1 1 1 1 1 1
WIDTH 880
HEIGHT 1
VIEWPOINT 0 0 0 1 0 0 0
POINTS 880
DATA ascii
0.016557051 0.10556266 0.36634001 0.0013028126 829 162
0.018483115 0.10685359 0.3707701 0.0013034793 802 155
0.020172635 0.10667343 0.37008992 0.0013453787 797 153
0.021838242 0.1064051 0.36909863 0.0013327701 818 159
0.023518318 0.10624123 0.36846447 0.0013110479 798 154
0.025255255 0.10633901 0.36873215 0.0013585085 781 149
0.026966892 0.10632463 0.36860517 0.0013295887 785 150
0.028661516 0.10624891 0.36825967 0.001312774 848 166
0.030378675 0.10626052 0.36821076 0.001310237 862 170
0.032157179 0.10647404 0.36885518 0.0013405862 820 159
0.033946611 0.10670023 0.36953655 0.0013612022 789 151
0.035633024 0.10659643 0.36906838 0.0013635027 776 148
0.037324261 0.10651594 0.36867431 0.0013995172 745 140
0.039035663 0.10649757 0.36848825 0.0013415714 764 145
0.040765863 0.10652985 0.36847022 0.0013324213 794 153
0.042494353 0.10655524 0.36842084 0.0013513471 800 154
0.044260446 0.10666928 0.36867017 0.0013865856 769 146
0.04596404 0.1066298 0.36838078 0.0013489097 768 146
0.047762055 0.10680431 0.36882225 0.001305901 810 157
0.049615383 0.10708605 0.36962494 0.001321082 782 150
0.051326722 0.10705265 0.36933079 0.0013296372 781 149
0.053033583 0.10701244 0.3690041 0.0013848922 784 150
0.055010382 0.10750227 0.37049517 0.0013077826 845 166
0.056668695 0.10735878 0.36979333 0.001325254 825 161
0.05836108 0.10728643 0.36932707 0.0012702782 848 166
0.060031835 0.10717964 0.36873245 0.0012806951 840 164
0.061665889 0.10701515 0.36792937 0.0012722383 842 165
0.063406244 0.10703905 0.36776373 0.0012624647 853 168
0.065205388 0.10715831 0.36791426 0.0012718624 845 166
0.067077778 0.10738867 0.36843401 0.0012639037 848 166
0.0687932 0.10736245 0.36806118 0.0012539788 863 170
0.070683524 0.10760379 0.36859316 0.0012751308 882 175
0.072766371 0.10811961 0.3700507 0.0012350744 892 178
0.074286692 0.10779502 0.36861873 0.0012504514 894 178
0.075898945 0.10761563 0.36767179 0.0012593508 919 184
0.077700302 0.10770641 0.36763477 0.0012051272 921 185
0.080010161 0.10848266 0.36992097 0.001228636 896 179
0.081626922 0.10830605 0.36894199 0.0012698818 859 169
0.083392836 0.10833058 0.36863455 0.0012440397 879 174
0.085177101 0.10837749 0.36838832 0.0012190064 895 178
0.087007441 0.10847994 0.36831549 0.0012417171 926 186
0.088645115 0.10834287 0.3674145 0.0012114471 901 180
0.090357743 0.10830095 0.36682165 0.0012632629 899 179
0.092437513 0.1086923 0.36767933 0.0012720639 900 180
0.094354481 0.10888124 0.36783403 0.0012084024 935 188
0.096338622 0.10913936 0.36820459 0.0011679905 965 196
0.098317742 0.10938263 0.36850676 0.0011615894 975 199
0.10027092 0.10958897 0.36866629 0.0011624091 967 197
0.10206533 0.10961764 0.36821082 0.0011689034 958 194
0.10389474 0.1096823 0.36785975 0.0011879023 946 191
0.10582188 0.1098462 0.36782449 0.0012308212 931 187
0.10768 0.10993429 0.36751828 0.0011567717 988 202
0.10945641 0.10993743 0.36691222 0.0011467962 998 204
0.11135515 0.11006138 0.36669362 0.0011448002 1036 214
0.1133129 0.11023887 0.3666372 0.0011662942 1028 212
0.11523029 0.11037218 0.36641827 0.0011270287 1028 212
0.11728558 0.11063154 0.36660236 0.0011392866 1027 212
0.11941179 0.11094901 0.36696339 0.0011566962 1015 209
0.12127605 0.11101732 0.36648685 0.0011561798 1047 217
0.12314494 0.11108778 0.36600697 0.0011442484 1043 216
0.12563315 0.11170693 0.36732215 0.0011351113 1014 209
0.12773587 0.11197063 0.36745641 0.0011872401 963 196
0.12956053 0.11198666 0.36677143 0.0011827858 943 190
0.1316185 0.11220114 0.36673257 0.0012070832 956 194
0.13370305 0.11243213 0.36674488 0.0011521503 991 203
0.13546818 0.11239196 0.36587408 0.0011766908 956 194
0.13731398 0.11241886 0.36522752 0.0011963244 940 190
0.13936441 0.11261042 0.3651233 0.0012526232 905 181
0.14129892 0.1127046 0.36471352 0.0012814436 884 176
0.14398097 0.11338507 0.36621189 0.0013576738 793 152
0.14648934 0.1139134 0.36723089 0.0014809559 659 118
0.14957027 0.11486837 0.36963969 0.001634379 553 91
0.15122524 0.11471824 0.3685151 0.0016981711 530 86
0.1533564 0.11492863 0.36857936 0.0017036248 526 85
0.15582165 0.11538136 0.36945248 0.0016824016 535 87
0.15819207 0.115754 0.37010399 0.0017146926 523 84
0.16028839 0.11591973 0.370134 0.0018337915 468 70
0.1620544 0.11584552 0.3694433 0.0019620568 448 65
0.16362269 0.11563327 0.36836213 0.0019295717 436 62
0.16618532 0.11612059 0.36956018 0.0019438226 434 61
0.16793038 0.11603215 0.36897841 0.002112315 415 56
0.17028067 0.11635922 0.36977333 0.0019749952 436 62
0.17237093 0.11650342 0.37004361 0.0020699587 388 50
0.17425171 0.11650445 0.36991745 0.0022272978 376 46
0.17604363 0.11644667 0.36966398 0.002226216 363 43
0.17804483 0.11652709 0.36990887 0.0023243518 357 42
0.179309 0.11612847 0.36869252 0.0023004059 335 36
0.1806132 0.1157638 0.36764246 0.0024068318 306 29
0.18352775 0.11642816 0.36991936 0.0025702873 286 24
0.18523724 0.11632232 0.36980769 0.002665922 274 21
0.18696646 0.11623087 0.36979797 0.0026811513 268 19
0.18858437 0.11607273 0.36963063 0.0029757153 257 16
0.19098535 0.11639494 0.37104744 0.0030175021 248 14
0.19222237 0.1160084 0.37025696 0.0028956884 250 14
0.19274871 0.11520455 0.36818039 0.0029865701 243 13
0.19401395 0.11485347 0.36759442 0.0030305777 223 8
-0.21264765 0.11325774 0.36800635 0.0035753152 179 0
-0.2107356 0.11319643 0.3668671 0.0035252676 191 0
-0.2098808 0.11370683 0.36756849 0.0034648073 186 0
-0.20909773 0.11426528 0.36842453 0.0039617871 175 0
-0.20782155 0.1145617 0.36844727 0.0034878149 185 0
-0.20648503 0.1148298 0.36839935 0.0038094565 188 0
-0.20525019 0.11515969 0.36857417 0.0034505865 191 0
-0.20355475 0.11523477 0.36796227 0.0035123648 193 0
-0.20143424 0.11506841 0.36661401 0.0036571226 195 1
-0.2018685 0.11637177 0.3699764 0.0034120444 195 1
-0.2004379 0.11661419 0.36999333 0.0035550885 198 1
-0.19794618 0.11623807 0.36808795 0.0033607264 220 7
-0.19628635 0.11634793 0.36776423 0.0031758051 234 10
-0.19523033 0.11682121 0.36862868 0.0031052425 220 7
-0.19423451 0.11733992 0.36967596 0.0031737403 225 8
-0.19285828 0.11763664 0.37006623 0.0029036563 241 12
-0.19126825 0.11780749 0.37010658 0.0028258685 255 16
-0.18970881 0.11800073 0.37026572 0.0029067604 239 12
-0.18665823 0.11726107 0.36755079 0.0027281649 262 18
-0.18517661 0.11750207 0.36796424 0.0030954971 257 16
-0.18379703 0.1178134 0.36865047 0.0028667059 256 16
-0.1821336 0.1179473 0.36883605 0.0026921362 293 25
-0.17983314 0.11766719 0.36778378 0.0024833807 305 28
-0.17809024 0.11774981 0.36792305 0.0025565813 301 27
-0.17636031 0.11784288 0.36815286 0.0024993056 302 28
-0.1750183 0.11819991 0.36926579 0.0026250458 303 28
-0.17310743 0.11817633 0.36924839 0.0023971866 314 31
-0.17019494 0.11746096 0.36712715 0.0023537891 327 34
-0.16943352 0.11823078 0.3697058 0.0022664331 347 39
-0.16822259 0.11870066 0.37140539 0.0024434682 345 39
-0.16649094 0.11880957 0.37203237 0.0022193075 354 41
-0.16306663 0.11769926 0.36889252 0.0021696074 363 43
-0.16040787 0.11712217 0.36746991 0.001993685 409 55
-0.15821731 0.11687742 0.3671357 0.0020716861 400 53
-0.15540515 0.11616222 0.36536539 0.0019727149 449 65
-0.15302986 0.11576032 0.36461788 0.0016911681 535 87
-0.15065563 0.11534945 0.36387691 0.0016777905 535 87
-0.14933874 0.115748 0.36572424 0.0015975012 601 104
-0.14729203 0.11558377 0.36582604 0.0015210328 644 115
-0.14516959 0.11535521 0.36574966 0.001404814 741 139
-0.14332676 0.11534584 0.36639079 0.0014105198 756 143
-0.1417326 0.11553892 0.3676962 0.0013970442 724 135
-0.13997498 0.1156021 0.3686063 0.0014475113 687 125
-0.13783079 0.11534344 0.36850208 0.001380705 764 145
-0.13557062 0.11497945 0.36806697 0.001334899 779 149
-0.13360466 0.11485845 0.36841333 0.0013271574 773 147
-0.13145684 0.11457559 0.36824152 0.001403433 754 142
-0.12947512 0.1144316 0.36851418 0.0013833303 733 137
-0.12742831 0.1142252 0.36858198 0.0013892035 726 135
-0.12508217 0.1137406 0.36774403 0.0013529356 761 144
-0.12305007 0.1135316 0.36778688 0.0013584358 759 144
-0.12130316 0.1135834 0.36866602 0.0013596653 757 143
-0.11936495 0.11345495 0.36895069 0.0013847527 773 147
-0.11721541 0.1131186 0.36854601 0.0013723486 744 140
-0.11455186 0.11226802 0.36644715 0.0013387477 775 148
-0.11246658 0.11196627 0.36612043 0.0014224799 724 135
-0.11049809 0.11177296 0.36613202 0.0013979619 720 134
-0.10852068 0.11156418 0.36607674 0.0013899333 724 135
-0.1065663 0.11137252 0.36606085 0.0014043377 719 134
-0.10487304 0.11145192 0.36692032 0.0014382155 711 132
-0.10294726 0.11128269 0.36694548 0.0014317305 726 135
-0.10097092 0.11105194 0.36675021 0.0013807215 728 136
-0.099353299 0.11121453 0.36783791 0.0013856061 753 142
-0.097592101 0.11121937 0.36838898 0.0013621161 749 141
-0.095829666 0.11122298 0.36892012 0.0013773442 732 137
-0.094116166 0.11128456 0.36962804 0.0014567834 701 129
-0.091831222 0.11065989 0.36803842 0.0014639236 668 121
-0.09000355 0.11057263 0.36821756 0.001540659 662 119
-0.088232711 0.11055312 0.36860633 0.001402868 717 133
-0.086297095 0.11032216 0.36827403 0.0014501665 674 122
-0.084468566 0.11022137 0.36836001 0.0014373466 682 124
-0.082761779 0.11027855 0.36895889 0.0015604646 646 115
-0.080949798 0.11019497 0.36907244 0.00151521 632 112
-0.078972764 0.10987809 0.36838889 0.0014977846 650 116
-0.077148288 0.10976392 0.3683697 0.0015184662 630 111
-0.075334132 0.10965951 0.36836886 0.0015315393 633 112
-0.073555432 0.109603 0.36851525 0.0015212056 650 116
-0.071700215 0.10942695 0.36824608 0.001497563 698 128
-0.069934957 0.10938286 0.36840767 0.0014087963 718 133
-0.067866497 0.10885025 0.36690989 0.0014092332 706 130
-0.066278763 0.10908099 0.3679724 0.0015021203 668 121
-0.064610779 0.10918844 0.3686083 0.0014557412 673 122
-0.062853597 0.10914696 0.36873022 0.0014630735 660 119
-0.061116558 0.10913909 0.36895439 0.0014690253 664 120
-0.059322242 0.10902549 0.36881006 0.0014807667 689 126
-0.05748035 0.10881499 0.36832681 0.0014071526 713 132
-0.055738844 0.1087874 0.36845198 0.0014920504 676 123
-0.054006424 0.10877633 0.36862326 0.0014386894 687 125
-0.052342869 0.10890781 0.36926812 0.0014403568 693 127
-0.05070632 0.10910639 0.37013179 0.0014739918 696 128
-0.049008258 0.10918199 0.37056971 0.001440496 684 125
-0.047323674 0.10929422 0.37112337 0.0014835829 656 118
-0.045279738 0.10855352 0.36877126 0.0014840848 657 118
-0.043970302 0.10958474 0.3724308 0.0014641861 669 121
-0.041771483 0.10839306 0.36852744 0.0014478521 680 124
-0.040124379 0.10859215 0.36934334 0.0014923966 685 125
-0.038344525 0.10843369 0.36893567 0.0014589676 669 121
-0.036569647 0.10827512 0.3685199 0.0014733296 703 130
-0.034828436 0.10820545 0.36839929 0.0014206016 710 131
-0.033091974 0.10814408 0.36829999 0.0014129333 726 135
-0.031385612 0.10817976 0.36852443 0.0013913066 735 138
-0.029640356 0.10807775 0.36827326 0.0013911796 728 136
-0.027931988 0.10810596 0.36845928 0.0013704696 764 145
-0.026215643 0.10810498 0.36853966 0.0013798396 770 147
-0.024514582 0.10817131 0.3688435 0.0014065997 711 132
-0.022772793 0.10805437 0.36851647 0.0015094157 664 120
-0.021019585 0.10785979 0.3679187 0.0015074238 664 120
-0.01926711 0.10763478 0.36721128 0.0015021341 690 126
-0.017527632 0.10744567 0.36662063 0.0014745664 665 120
-0.015803304 0.10731865 0.36623624 0.0014595012 667 120
-0.014152577 0.10772117 0.36765376 0.0014562528 693 127
-0.012413958 0.1074734 0.36684674 0.0014091531 713 132
-0.01070599 0.1074543 0.36681503 0.0014326035 689 126
-0.0089597488 0.10697101 0.36519355 0.0015042699 675 122
-0.0072353929 0.10658409 0.36389586 0.0014383189 718 133
-0.0055283178 0.10629326 0.36292118 0.0013763314 750 141
-0.0038451401 0.10640821 0.36332709 0.0013913341 745 140
-0.002161107 0.10666107 0.36419898 0.0013680316 742 139
-0.00046967241 0.10705669 0.36555365 0.0014825424 696 128
0.0012355258 0.10755704 0.36726105 0.0014284214 703 130
0.0029508732 0.10784776 0.36824775 0.0015137241 663 119
0.004673251 0.10808758 0.36905575 0.0015798896 639 113
0.0063965586 0.10821435 0.36947268 0.0014340229 702 129
0.0081120441 0.10818311 0.36934522 0.0013417115 776 148
0.0098329475 0.10822242 0.36945361 0.0013133952 799 154
0.011553546 0.10824719 0.36950728 0.0012893898 828 161
0.013269194 0.10822516 0.36939603 0.0013132766 803 155
0.015019466 0.10845821 0.37015018 0.0013510161 804 155
0.016630633 0.10774212 0.36766002 0.0012798856 844 165
0.018467685 0.10848653 0.37014818 0.0013272311 798 154
0.020237286 0.10874149 0.37096053 0.001316016 797 153
0.021871788 0.10828753 0.36934897 0.0013135404 802 155
0.023700302 0.10879029 0.37099475 0.0013723478 780 149
0.025301039 0.10825019 0.36907843 0.001301599 802 155
0.027022213 0.1082613 0.36903587 0.0013249142 786 151
0.028670536 0.10799672 0.36804745 0.0012753949 839 164
0.030352393 0.10788113 0.36756104 0.0013095489 838 164
0.03207529 0.10791599 0.36758074 0.0013243535 834 163
0.033880714 0.10821088 0.36847934 0.0013249908 800 154
0.035618603 0.10827205 0.3685748 0.0013463463 785 150
0.037329935 0.10825054 0.36838183 0.00141233 757 143
0.039079662 0.10833737 0.36855018 0.0013595179 750 141
0.040833622 0.10842814 0.36872438 0.001321952 786 151
0.042572685 0.10847361 0.36873657 0.0013391201 776 148
0.04420428 0.10825234 0.36783448 0.0013488012 760 144
0.045914866 0.10823385 0.3676137 0.0013442165 767 146
0.047711886 0.10841309 0.36805582 0.0014106636 754 142
0.049558874 0.10868943 0.36881825 0.0013219349 798 154
0.051274329 0.10866843 0.36856237 0.0013295703 804 155
0.053113099 0.10890163 0.36915916 0.0013249256 805 155
0.054829303 0.10887674 0.36887124 0.0013086859 803 155
0.056769073 0.10928375 0.37003615 0.0013614375 780 149
0.058393214 0.10907704 0.36911255 0.0013342623 824 160
0.059970692 0.10879758 0.36793342 0.0013093619 835 163
0.061510809 0.10846787 0.36657512 0.0012638904 855 168
0.063335255 0.10864386 0.36691535 0.0012718906 860 169
0.065287612 0.1090241 0.36793295 0.0012601879 846 166
0.067114249 0.10918021 0.36818117 0.0012995114 810 157
0.068898894 0.10926186 0.36816591 0.0012658035 847 166
0.070801266 0.1095216 0.36873764 0.0012922878 810 157
0.072657384 0.10969907 0.3690187 0.0013108079 831 162
0.074422657 0.10973427 0.36880773 0.0012420603 878 174
0.075909831 0.10936718 0.36723259 0.0012291452 888 177
0.077253215 0.10881399 0.36502218 0.0012220013 904 181
0.079950593 0.11015044 0.36913434 0.0012416368 875 173
0.08190427 0.11042698 0.36967507 0.0012552545 872 172
0.083593488 0.11034286 0.36899334 0.0012869742 859 169
0.085303374 0.11028891 0.36839846 0.0012662705 893 178
0.086750522 0.10990427 0.36668584 0.0012414638 914 183
0.088589452 0.11002134 0.36663321 0.0012311722 882 175
0.090579726 0.11031824 0.36716279 0.0012208011 901 180
0.092531189 0.11055748 0.36748293 0.0012200128 890 177
0.094486862 0.11079277 0.36777219 0.0012178477 931 187
0.096399195 0.11096953 0.36784971 0.0011801408 947 192
0.098415397 0.1112574 0.36827749 0.0011779098 959 195
0.10036452 0.11146064 0.36840701 0.0012342997 926 186
0.10240735 0.11175906 0.3688328 0.001209227 920 185
0.10418884 0.111767 0.36828279 0.0011971213 931 187
0.10637374 0.11220017 0.36911607 0.0012073033 917 184
0.1079468 0.11198434 0.36779785 0.0011908452 942 190
0.10974848 0.11200884 0.36725527 0.001189208 976 199
0.11166553 0.11214843 0.36707473 0.0011487497 994 203
0.11347727 0.11217954 0.36652446 0.0011527751 1010 208
0.1154533 0.11236957 0.3664791 0.0011815283 974 198
0.11749633 0.11261806 0.36660969 0.0011699771 994 203
0.11968359 0.11299526 0.36714455 0.0011679488 1033 213
0.1216334 0.11314045 0.36691245 0.0011495145 1059 220
0.12355481 0.11325539 0.3665722 0.001117366 1043 216
0.12584382 0.11369914 0.36728606 0.0011797765 1000 205
0.12788962 0.11391371 0.36725041 0.0012014224 959 195
0.12982105 0.11402187 0.36686689 0.0011918896 942 190
0.13210829 0.11443524 0.36746159 0.0012083171 933 188
0.13395749 0.1144631 0.36681759 0.0011887604 950 192
0.13550836 0.11423874 0.36537147 0.0012290549 948 192
0.13739023 0.11429565 0.36483383 0.0011953835 939 189
0.13945699 0.11450287 0.3647854 0.0012114847 911 182
0.14166738 0.1148212 0.3651022 0.0012565037 874 173
0.14446028 0.11559756 0.36688691 0.0013353868 765 145
0.14655162 0.11580007 0.36686647 0.0015161003 629 111
0.14900395 0.1162793 0.36774445 0.0016679886 551 91
0.15152168 0.11679719 0.36876893 0.0017029435 523 84
0.15386333 0.11716847 0.36935917 0.0016981694 535 87
0.15614887 0.11748869 0.36982226 0.0017143856 507 80
0.15812053 0.11756795 0.36956584 0.0019391944 468 70
0.16008796 0.11764226 0.36933717 0.0020019298 442 63
0.16169327 0.11745184 0.36832488 0.0019215847 440 63
0.16371375 0.11756387 0.3683112 0.0019533653 429 60
0.1665083 0.11822297 0.37006143 0.0019354442 439 62
0.16911431 0.11873502 0.37140289 0.0020742624 410 55
0.17037618 0.11830245 0.36984557 0.0021303785 404 54
0.17216748 0.11824293 0.36951268 0.0020661398 387 49
0.17403586 0.11823705 0.36940572 0.0021763491 367 44
0.17598036 0.11828247 0.36951759 0.0022794693 337 37
0.17767023 0.11815759 0.36915618 0.0022900011 338 37
0.17922673 0.11794754 0.36858702 0.0026045369 319 32
0.18124747 0.11804419 0.36903426 0.0025582088 291 25
0.18292259 0.11791607 0.36883587 0.0026318547 277 21
0.1846775 0.11784145 0.36886066 0.002855818 274 21
0.18576007 0.11734363 0.36761418 0.0028253249 255 16
0.18756257 0.11730596 0.36786139 0.0028573712 257 16
0.19044711 0.11793909 0.37026632 0.002930806 238 11
0.19233067 0.11794608 0.37075847 0.0030269595 221 7
0.1934018 0.11745949 0.36974627 0.003088325 222 7
0.19363581 0.11647864 0.36721861 0.0030873173 223 8
-0.21045119 0.1138672 0.36469159 0.0035324472 183 0
-0.2106795 0.11496274 0.36727953 0.003544376 191 0
-0.21030048 0.11574282 0.36882341 0.0036336037 184 0
-0.20968536 0.1164054 0.36998126 0.0037691444 171 0
-0.20888264 0.11697452 0.37084553 0.0037031614 175 0
-0.20641313 0.11661202 0.36877644 0.0038964241 169 0
-0.20480815 0.11673583 0.368274 0.0035384737 190 0
-0.20327502 0.1169032 0.36793703 0.0034790162 193 0
-0.20187034 0.11714814 0.36787373 0.0036133216 181 0
-0.20087534 0.11763746 0.3686074 0.0034258293 195 1
-0.20047504 0.11848734 0.3704983 0.0032446841 206 3
-0.19824055 0.11825887 0.36905134 0.0035375485 208 4
-0.19619419 0.11813939 0.36798647 0.0033860346 207 4
-0.19482583 0.11842978 0.36823869 0.0033396629 226 8
-0.1938066 0.11894002 0.36921328 0.0031787839 219 7
-0.19267122 0.11938813 0.37003514 0.0030038685 233 10
-0.19112599 0.11958859 0.37013298 0.0029990438 238 11
-0.18858536 0.11916403 0.36834544 0.0031437944 232 10
-0.18700829 0.11934592 0.36848328 0.0029444343 236 11
-0.18514724 0.11934841 0.36811769 0.0029576237 248 14
-0.18363079 0.11957536 0.36849645 0.0030604873 256 16
-0.18238454 0.11998472 0.36948988 0.0029987083 250 14
-0.1804328 0.11993366 0.36911997 0.0026870521 293 25
-0.17802794 0.11957716 0.3678669 0.002645388 288 24
-0.17638448 0.11972996 0.36823779 0.0028277263 278 22
-0.17499232 0.12005843 0.36920631 0.0025700338 297 26
-0.1729584 0.11994895 0.36888564 0.0025625324 312 30
-0.17098862 0.11988204 0.36875364 0.002402754 314 31
-0.16947505 0.12013706 0.36966944 0.0024305063 325 34
-0.16772723 0.12022986 0.37014323 0.0022815664 343 38
-0.16587819 0.1202514 0.37045327 0.0022403372 355 41
-0.16310377 0.1195949 0.36872715 0.0021781994 382 48
-0.16072623 0.11921755 0.3679108 0.0020488964 398 52
-0.15785113 0.11845797 0.36596075 0.0021405597 396 52
-0.1552203 0.11786585 0.36456987 0.001925271 443 64
-0.15318519 0.1177173 0.36459178 0.0017109297 531 86
-0.15159975 0.11791492 0.36572635 0.0017175141 515 82
-0.14939478 0.11762954 0.3653996 0.0017035306 579 98
-0.14742132 0.11752164 0.3656556 0.0015023338 641 114
-0.14534226 0.11732578 0.36566633 0.0013858544 731 137
-0.14339021 0.11722875 0.36600965 0.0013835811 725 135
-0.14171742 0.11736047 0.36708981 0.0014288711 725 135
-0.13993981 0.11740771 0.3679257 0.0014588182 694 127
-0.13794754 0.11727369 0.3682085 0.0013769724 744 140
-0.13590609 0.1170937 0.36835703 0.0013839052 772 147
-0.13393146 0.11696716 0.36868063 0.0013981251 767 146
-0.13189228 0.11677996 0.36881679 0.0013563798 757 143
-0.12973002 0.116477 0.36858729 0.0014103078 724 135
-0.12751174 0.11611443 0.36816528 0.0014519292 717 133
-0.12497213 0.11544453 0.36676046 0.001389322 749 141
-0.12318185 0.11545735 0.36751646 0.0013435016 763 145
-0.12151241 0.11558551 0.36863431 0.0013955791 768 146
-0.11953781 0.11542287 0.36881691 0.0013454919 768 146
-0.11740415 0.11509933 0.3684732 0.0013392606 778 149
-0.11506839 0.11456449 0.36743754 0.0013606856 760 144
-0.1125895 0.11386798 0.3658646 0.0014307402 712 132
-0.11052705 0.11357707 0.36557668 0.0014872414 695 128
-0.10814498 0.11294283 0.36416543 0.0014155678 717 133
-0.10660814 0.11318492 0.36556375 0.0013937039 727 136
-0.10525695 0.11363563 0.36762533 0.0014440471 683 124
-0.10344972 0.11360101 0.36810407 0.0014037712 710 131
-0.10114977 0.11301465 0.36677685 0.0014363035 741 139
-0.099158533 0.11275852 0.36650172 0.0014167592 751 142
-0.097306482 0.11265423 0.36670303 0.0013510748 755 143
-0.095826842 0.11298522 0.36830679 0.001391293 724 135
-0.093923181 0.11281932 0.36827594 0.0014184042 728 136
-0.092221983 0.11289491 0.36901751 0.0014493972 701 129
-0.090483449 0.11292683 0.36960137 0.0015011934 643 114
-0.088426366 0.11255459 0.36884564 0.0015175293 675 122
-0.086436987 0.11225514 0.36831066 0.0014498751 673 122
-0.08464554 0.11220567 0.36857954 0.0014766314 685 125
-0.082925059 0.11225016 0.36914235 0.0015190132 647 115
-0.081133105 0.11219773 0.36937189 0.0015379967 623 109
-0.079167806 0.11189801 0.36877179 0.0015168742 676 123
-0.077306755 0.11173537 0.368608 0.0015465181 635 112
-0.0754233 0.11153213 0.36829537 0.0015063307 652 117
-0.07348235 0.11123224 0.36764872 0.0015037196 637 113
-0.071792349 0.11130688 0.36822614 0.0015125253 663 119
-0.069902815 0.11106817 0.3677538 0.0014463995 684 125
-0.068029866 0.11084435 0.36731702 0.0015025523 664 120
-0.066377014 0.11097682 0.36804852 0.0015197392 662 119
-0.064745098 0.11115235 0.36891177 0.0014421059 684 125
-0.06302885 0.11118876 0.3693023 0.0015317587 671 121
-0.061390046 0.11136773 0.37015563 0.0014621431 682 124
-0.059288882 0.11069392 0.36816242 0.0014934805 694 127
-0.057558566 0.11069279 0.3683944 0.001446114 688 126
-0.055826947 0.11068901 0.36860719 0.0014701623 663 119
-0.054170318 0.11083845 0.36932051 0.0014671846 665 120
-0.05231728 0.11058257 0.36867329 0.001487467 673 122
-0.050593898 0.11059264 0.36890274 0.0014574925 674 122
-0.049029112 0.11096237 0.37032342 0.0014890002 671 121
-0.047182728 0.11069853 0.36962071 0.001468431 666 120
-0.045306522 0.11034197 0.3685987 0.0014652433 677 123
-0.043525148 0.11019729 0.36827537 0.0014621302 668 121
-0.042182054 0.11119604 0.37176633 0.0014588156 677 123
-0.040347815 0.11093028 0.37102252 0.0015298271 659 118
-0.03843582 0.11041729 0.369443 0.0014524361 683 124
-0.036673378 0.1103059 0.36919892 0.0014328025 696 128
-0.034922361 0.11021958 0.36903122 0.0014423401 686 125
-0.033141386 0.11002485 0.36849305 0.0014437041 682 124
-0.031371202 0.10984659 0.3680028 0.0013989732 722 134
-0.02966455 0.10988303 0.36822489 0.0014048818 715 133
-0.027965678 0.10995454 0.36855805 0.0013837696 769 146
-0.026333461 0.11031464 0.36985254 0.0013642316 753 142
-0.024564615 0.11011274 0.36925659 0.0014876887 693 127
-0.022787476 0.10984044 0.36841807 0.001462222 668 121
-0.021030419 0.10962847 0.36777568 0.00144427 690 126
-0.019287203 0.10945744 0.36726451 0.0014407308 688 126
-0.017467266 0.10877537 0.36503252 0.0014711809 667 120
-0.015854523 0.10937562 0.36709803 0.0014786539 649 116
-0.014130459 0.10926015 0.36675623 0.0014702606 664 120
-0.012394026 0.10900415 0.36593708 0.001416264 703 130
-0.010664049 0.10873243 0.36505961 0.0014532887 675 122
-0.0089830896 0.1089522 0.36582705 0.0014694725 677 123
-0.0072291945 0.1081833 0.36326957 0.0013990887 721 134
-0.0055317516 0.10804768 0.36283317 0.001394073 758 144
-0.0038448875 0.10809027 0.3629902 0.0013903392 723 135
-0.0021596446 0.10828093 0.36363941 0.0014085048 724 135
-0.0004696727 0.10875623 0.36523953 0.0014304339 696 128
0.0012363197 0.10933465 0.36718094 0.0014170423 704 130
0.0029490693 0.10949279 0.36770576 0.0015410056 656 118
0.0046653138 0.10961691 0.36811125 0.0014717169 672 122
0.0063856947 0.10974547 0.36852655 0.0014191089 720 134
0.008110147 0.10987474 0.36893895 0.0013812723 738 138
0.0098513681 0.11014634 0.36982387 0.0013412047 771 147
0.011589774 0.11031035 0.3703422 0.0013456505 781 149
0.013317083 0.11033995 0.37040398 0.0013700076 773 147
0.015008833 0.1101019 0.36956182 0.0013164107 793 152
0.016721942 0.1100534 0.36935055 0.0013318663 820 159
0.018489102 0.11033649 0.37024641 0.0013620111 786 151
0.020229487 0.11042513 0.37048388 0.0013222329 791 152
0.021984806 0.11057497 0.37092072 0.0013697434 774 148
0.023669494 0.11037359 0.37017348 0.0013617061 752 142
0.025353532 0.11019674 0.36950275 0.0013488247 760 144
0.027037563 0.11004238 0.36890149 0.0013263377 793 152
0.028724626 0.10991807 0.36839482 0.0012934929 816 158
0.030374067 0.10967194 0.36747366 0.0013128066 811 157
0.032138679 0.10984574 0.367953 0.0013750722 797 153
0.033980019 0.11025086 0.36919984 0.0013225988 786 151
0.035749208 0.11039409 0.36956212 0.0013690984 807 156
0.03737662 0.11010648 0.36847496 0.0013763749 787 151
0.039138239 0.11022214 0.36873013 0.0013694731 762 145
0.040834181 0.11015087 0.36835238 0.0014312232 752 142
0.042549979 0.11013678 0.36815804 0.0013790776 769 146
0.044220582 0.11001133 0.36758351 0.0013378527 773 147
0.045950685 0.11003777 0.36750844 0.0013993402 721 134
0.047896389 0.11055998 0.36907965 0.0013761715 741 139
0.049578983 0.11045962 0.36856318 0.0013435686 788 151
0.051312812 0.11047634 0.36842841 0.0013044765 802 155
0.053153798 0.11071514 0.36902446 0.0013323914 783 150
0.054970372 0.11088967 0.36939594 0.0013510769 789 151
0.056766141 0.11101283 0.36958569 0.0013379169 764 145
0.058509786 0.11102977 0.36941141 0.0013126296 791 152
0.060309764 0.11114956 0.36956853 0.0013000077 811 157
0.061865084 0.11082437 0.36823577 0.0012689218 847 166
0.063412137 0.11050249 0.36690444 0.0012972759 840 164
0.0652842 0.11074901 0.36744928 0.0012649694 851 167
0.067122966 0.11092778 0.36775658 0.0013026603 815 158
0.068980731 0.11112815 0.36812255 0.00128235 830 162
0.070810802 0.11127518 0.36829859 0.00131206 825 161
0.072566465 0.11130102 0.36806044 0.0013008476 851 167
0.074349321 0.11136638 0.36793983 0.0012599883 847 166
0.076177061 0.11149445 0.36801261 0.0012538328 896 179
0.077677533 0.11114851 0.36650807 0.0012453083 889 177
0.079688907 0.11153276 0.36739746 0.0012591379 881 175
0.081848249 0.11210322 0.36888281 0.0012583436 858 169
0.083592668 0.11209338 0.36844245 0.0012646281 850 167
0.085212179 0.1119199 0.36745027 0.0012486227 865 171
0.086987719 0.1119542 0.36712608 0.0012564944 849 167
0.088824838 0.11206483 0.36703658 0.0012893041 867 171
0.090828277 0.11237697 0.36759019 0.001240742 900 180
0.09270151 0.11251926 0.36757097 0.0012602402 893 178
0.094548956 0.11262549 0.36741745 0.0012848345 884 176
0.096404307 0.11273708 0.3672649 0.0012113103 914 183
0.098446682 0.11305947 0.36778161 0.0012592219 899 179
0.10037407 0.11324076 0.36782125 0.0012241373 902 180
0.10232139 0.11343787 0.36789513 0.0012299354 885 176
0.10450332 0.11388392 0.36875775 0.0012511803 894 178
0.10621747 0.11381382 0.3679322 0.0012318332 908 182
0.10807315 0.11389519 0.36758146 0.0012342747 927 186
0.1099404 0.1139859 0.36724588 0.0011769726 958 194
0.11180981 0.11407591 0.36689341 0.001157972 973 198
0.11373252 0.11421666 0.36668989 0.0011826232 955 194
0.11562233 0.11432052 0.36635444 0.0011752868 960 195
0.11778421 0.11468611 0.36684397 0.0011647628 974 198
0.11985684 0.11495515 0.36701101 0.001159125 982 200
0.12180107 0.11509492 0.36675438 0.0011375947 1045 216
0.12373785 0.11522368 0.36645401 0.0011600684 1022 211
0.12577628 0.11544205 0.36643133 0.0011734942 976 199
0.12783685 0.11567428 0.36644664 0.0012172177 931 187
0.1298441 0.11585245 0.3662872 0.001250655 928 187
0.13211432 0.11625715 0.36684176 0.0012020743 966 196
0.13395913 0.11628157 0.36619788 0.00116945 968 197
0.13581447 0.11631437 0.36558703 0.001218662 930 187
0.13803361 0.11665376 0.36594772 0.0012440932 914 183
0.14001603 0.11678684 0.36567184 0.0012777608 879 174
0.14192779 0.11685833 0.36521873 0.0012676837 843 165
0.14439668 0.11738089 0.36619246 0.0014107298 726 135
0.1468174 0.11785166 0.36702335 0.0015868628 580 98
0.14901228 0.11813176 0.36728421 0.0018146936 516 82
0.15146515 0.11860701 0.36817974 0.0017064146 524 84
0.15397139 0.11911205 0.36919853 0.0017696125 503 79
0.15607691 0.11929875 0.36926633 0.00183029 473 71
0.15790135 0.11926872 0.368705 0.001863887 452 66
0.15955082 0.11910877 0.36778817 0.0018818683 457 67
0.16221228 0.11969929 0.36923531 0.0019504984 452 66
0.1644219 0.11994671 0.36967233 0.0019755552 412 56
0.16683647 0.12033639 0.37059927 0.0019695798 420 58
0.16853182 0.12020441 0.36997375 0.001949142 422 58
0.17073445 0.12043314 0.37051457 0.0021071348 375 46
0.1715692 0.11970256 0.36816153 0.0021896132 366 44
0.17347082 0.11972402 0.36817962 0.0023531499 361 43
0.17596725 0.12015117 0.36950299 0.0023308892 336 36
0.1777568 0.12009176 0.36938789 0.0023957652 322 33
0.17937663 0.1199201 0.36898479 0.002307714 334 36
0.18117441 0.11986975 0.3690114 0.002575289 283 23
0.18253383 0.11953335 0.36821261 0.0026876058 272 20
0.18387052 0.11918902 0.36744252 0.0027322178 268 19
0.18552469 0.11905535 0.36737391 0.0029872437 250 14
0.18737809 0.11905093 0.36775553 0.0027975831 257 16
0.18937995 0.11913994 0.36847669 0.0031090004 222 7
0.19158073 0.11935117 0.36962596 0.0030924615 219 7
0.19336347 0.11930042 0.37001207 0.0033656766 211 5
0.19690289 0.12032411 0.37378117 0.0035720523 200 2
-0.21270235 0.11688358 0.36907375 0.0039633354 178 0
-0.21053872 0.11668114 0.36754334 0.0039160834 172 0
-0.21005334 0.11741331 0.36891526 0.0036477714 175 0
-0.20930807 0.11801164 0.36984578 0.0037999735 170 0
-0.20640194 0.11739147 0.36696452 0.0037715302 171 0
-0.20547737 0.11789732 0.36762172 0.0038995799 187 0
-0.2045294 0.11839861 0.36828086 0.003457865 192 0
-0.20355807 0.11889528 0.36894619 0.0038566701 184 0
-0.20209312 0.11911002 0.36876273 0.0039077201 177 0
-0.20097055 0.11953232 0.36925066 0.0036937683 175 0
-0.19958201 0.11980278 0.36929992 0.0035436763 187 0
-0.19755405 0.11969088 0.36820632 0.0033299925 199 2
-0.19570209 0.11968451 0.36747634 0.0036790203 197 1
-0.1945743 0.12012509 0.36815619 0.0032546902 209 4
-0.19319624 0.12041816 0.36842149 0.0033617639 217 6
-0.19213256 0.12091473 0.36934865 0.0030274498 227 9
-0.19034858 0.12096328 0.36894971 0.0032052833 222 7
-0.18823197 0.12079932 0.36794958 0.0031083857 220 7
-0.18629955 0.12075146 0.36735201 0.0030143107 235 11
-0.1849734 0.12109957 0.36800763 0.0029134648 253 15
-0.1834427 0.12131948 0.36832291 0.002864996 243 13
-0.1820958 0.12166671 0.36907569 0.0029370838 238 11
-0.18007247 0.12156452 0.36851835 0.0025095299 291 25
-0.17835064 0.12166584 0.36863285 0.0026613551 287 24
-0.1765483 0.12171382 0.36864123 0.0027074681 271 20
-0.17487566 0.1218532 0.3689827 0.0025348514 308 29
-0.17303494 0.12187721 0.36903158 0.0026646073 291 25
-0.17114796 0.12186879 0.3690393 0.0026251238 303 28
-0.16933703 0.12191499 0.36926916 0.0023396711 335 36
-0.16764885 0.12205155 0.3698293 0.0023670406 339 37
-0.16470438 0.12126624 0.36765036 0.0022049227 359 42
-0.16285861 0.12128113 0.36795008 0.002137094 376 46
-0.1621027 0.1221174 0.37079614 0.0020734388 388 50
-0.16039371 0.12224689 0.3715494 0.0020725611 389 50
-0.15574728 0.12011407 0.36546838 0.0020089082 436 62
-0.15364425 0.11991506 0.36530843 0.0017620027 497 77
-0.15178567 0.11990433 0.36576325 0.0017934303 486 74
-0.15011765 0.12004572 0.3667216 0.0016769154 554 92
-0.14819194 0.119982 0.36708933 0.0015063428 678 123
-0.14597332 0.11967653 0.36674777 0.0014057367 725 135
-0.14365362 0.1192793 0.36614993 0.0014499793 724 135
-0.14185569 0.11931065 0.36689055 0.0014209321 702 129
-0.14001203 0.11930387 0.36753547 0.0015356748 640 114
-0.13789509 0.11906095 0.36746919 0.0014028682 724 135
-0.13592875 0.11894327 0.36780161 0.0013902612 722 134
-0.13392362 0.11878797 0.36802727 0.0013691719 743 140
-0.13154192 0.11828973 0.36719447 0.0013531526 762 145
-0.12978373 0.11834607 0.36808556 0.0014129833 695 128
-0.12734452 0.1177742 0.36702192 0.001437924 710 131
-0.12524629 0.1175057 0.3668986 0.001354822 780 149
-0.12346607 0.11753208 0.36769202 0.0014323822 719 134
-0.121584 0.11746083 0.36817536 0.00137939 743 140
-0.11959725 0.11728479 0.36832261 0.0014247923 741 139
-0.1175651 0.11705814 0.36830071 0.0013540931 771 147
-0.11524627 0.11653457 0.36733091 0.0013551633 761 144
-0.11300493 0.11607403 0.36654368 0.0013946812 721 134
-0.11031706 0.11513267 0.3642188 0.0014335426 706 130
-0.10849565 0.11507963 0.3646861 0.0014383174 724 135
-0.10680632 0.11516727 0.36558646 0.0014509343 707 131
-0.10517812 0.11532488 0.36669663 0.0014021425 717 133
-0.10362204 0.11556833 0.36806759 0.0014457122 676 123
-0.10135198 0.11501011 0.36686909 0.0014456176 722 134
-0.099285394 0.11466702 0.36633763 0.0014174086 699 129
-0.097556889 0.11470904 0.36701989 0.0013931764 720 134
-0.095873475 0.11480659 0.36786541 0.0013642686 746 140
-0.094066821 0.11475749 0.36822584 0.0014345022 729 136
-0.09234003 0.1148058 0.36888358 0.0014531291 693 127
-0.090594932 0.11483277 0.36945787 0.0015222271 665 120
-0.088629864 0.11457646 0.36910447 0.0015224981 650 116
-0.086552739 0.11416194 0.36822373 0.001478999 686 125
-0.084652297 0.11396812 0.36803755 0.0014804959 667 120
-0.082913831 0.11398877 0.36852857 0.0015111951 633 112
-0.081168249 0.11400034 0.36897594 0.0015649296 618 108
-0.079277694 0.11380428 0.36873645 0.0015663471 639 113
-0.077376701 0.11358406 0.36840326 0.0014952683 655 117
-0.075467944 0.11334202 0.36798403 0.0014795912 661 119
-0.073786952 0.11343866 0.36865053 0.0016007238 621 109
-0.071961276 0.11331219 0.36857867 0.0015671522 639 113
-0.069988176 0.1129415 0.36769819 0.0014768856 661 119
-0.068134829 0.11275014 0.36738735 0.0015465396 642 114
-0.066509917 0.11293665 0.36829552 0.0014476788 685 125
-0.064842649 0.11305932 0.36898431 0.0014588931 685 125
-0.063135445 0.11311721 0.36945045 0.0014600091 670 121
-0.061378423 0.11308657 0.36961621 0.0014684265 678 123
-0.05973772 0.11327474 0.37048623 0.0015060216 679 123
-0.057651456 0.11260394 0.3685351 0.0015003844 656 118
-0.05595319 0.11267288 0.3689931 0.0014866424 648 116
-0.054179348 0.11258918 0.36894104 0.0015153192 639 113
-0.052586351 0.11288817 0.37013334 0.0014441467 683 124
-0.050756637 0.11268208 0.36966014 0.0014375045 695 128
-0.048968781 0.11255762 0.36944476 0.001470895 674 122
-0.047141623 0.11233038 0.36888227 0.0014773316 658 118
-0.045357019 0.1121911 0.36859915 0.0014732525 670 121
-0.043604556 0.11212344 0.3685424 0.0014718608 662 119
-0.041880962 0.11212751 0.36871284 0.0014527242 678 123
-0.040284917 0.11248808 0.37004793 0.0015095826 648 116
-0.038677644 0.11284826 0.3713747 0.0014735111 673 122
-0.036806285 0.11243557 0.37015018 0.0015073788 677 123
-0.035027385 0.11227853 0.36975911 0.0015442251 635 112
-0.033257533 0.11213574 0.36940721 0.0015195278 639 113
-0.031486526 0.11197319 0.36898285 0.001511956 680 124
-0.029711967 0.11177848 0.3684451 0.0014615682 699 129
-0.028046999 0.11199745 0.36926416 0.0014099163 703 130
-0.026352817 0.11212079 0.36976165 0.0014353005 702 129
-0.024612341 0.11205065 0.36961466 0.0014409836 687 125
-0.022825783 0.11174438 0.36868197 0.0014444339 684 125
-0.021087239 0.11164238 0.36841688 0.0015057006 661 119
-0.019330306 0.1114163 0.36773604 0.0015616746 649 116
-0.017566053 0.11109993 0.36675104 0.001509281 655 117
-0.015868777 0.11118463 0.36708403 0.0015181148 675 122
-0.014137623 0.11102374 0.36660033 0.0014473269 701 129
-0.012354272 0.11035239 0.36442524 0.0014516626 689 126
-0.010664688 0.11043812 0.36474457 0.0014873247 672 122
-0.0089537781 0.11029366 0.36429808 0.0015258747 675 122
-0.0072178775 0.10970178 0.36236835 0.0014028641 713 132
-0.0055291457 0.10968435 0.36233059 0.0014610772 725 135
-0.0038477357 0.10986064 0.3629275 0.0014963353 694 127
-0.0021592374 0.10995221 0.36323929 0.0014692227 700 129
-0.00047331344 0.11131189 0.36773533 0.0014295561 698 128
0.0012346264 0.11089104 0.36634383 0.0014749822 689 126
0.002946808 0.11111847 0.36708865 0.0015307663 665 120
0.0046641636 0.11130237 0.3676843 0.0014438903 691 126
0.0063865753 0.11147574 0.36823982 0.0014013248 724 135
0.0081279045 0.11183601 0.36940733 0.0014827319 712 132
0.0098899649 0.1123058 0.37093085 0.0014469187 736 138
0.01161641 0.11229157 0.37085018 0.0013700108 786 151
0.013329824 0.11217138 0.37041396 0.0013404501 771 147
0.015019158 0.11189931 0.36947072 0.0013359268 797 153
0.016736468 0.11187019 0.36932418 0.0013631919 774 148
0.018502362 0.11214101 0.37016171 0.0013498762 773 147
0.020235242 0.11218257 0.37023658 0.0013559497 763 145
0.021894012 0.11183903 0.36903465 0.0013869933 762 145
0.023628486 0.11190411 0.36917499 0.0013798358 730 136
0.025334923 0.11183655 0.36887154 0.0013594935 762 145
0.027046792 0.11180007 0.36866429 0.0013243366 781 149
0.028740065 0.11169566 0.36822662 0.0012911168 828 161
0.03045027 0.11166513 0.3680259 0.0012837154 836 163
0.03217154 0.11167628 0.36795574 0.0013219679 812 157
0.033917718 0.11176836 0.36814514 0.0013249244 815 158
0.035799403 0.11227655 0.36969724 0.0013452402 780 149
0.037517432 0.11224832 0.36947501 0.0013390081 778 149
0.039137773 0.11194316 0.36833411 0.0014070857 763 145
0.040869627 0.11196923 0.36827561 0.0014197268 747 141
0.042587604 0.1119567 0.36808208 0.0013422549 768 146
0.044292901 0.11191312 0.36777821 0.0013502511 771 147
0.046067007 0.11204015 0.36802652 0.0013668967 757 143
0.04789884 0.11229336 0.36867982 0.0013837887 762 145
0.04971005 0.11248226 0.36911231 0.0013788461 792 152
0.051417902 0.11243244 0.36875203 0.0013333426 784 150
0.053160779 0.11245997 0.36863589 0.0013310416 776 148
0.054952987 0.11258683 0.36883521 0.0013331559 784 150
0.056724656 0.11266514 0.3688651 0.0013254037 788 151
0.058563791 0.11286884 0.36929452 0.0013310479 778 149
0.060350336 0.11296235 0.3693521 0.0013230158 790 152
0.061943591 0.11269896 0.36823222 0.0012763566 843 165
0.063543193 0.11246116 0.36718592 0.0012605607 855 168
0.065310232 0.11252446 0.36711162 0.0012783793 847 166
0.067056917 0.11255029 0.3669031 0.0012776076 827 161
0.068945289 0.11280668 0.3674334 0.0013043733 803 155
0.070821837 0.1130316 0.3678475 0.0013335664 821 160
0.072540075 0.11299911 0.36741063 0.0012582854 861 170
0.074393697 0.11317412 0.36763504 0.0012823651 835 163
0.076347716 0.11349037 0.36830348 0.0012565171 851 167
0.078049429 0.1134258 0.36772183 0.0012461242 872 172
0.079792663 0.11342308 0.36732697 0.0012929683 853 168
0.081720233 0.11367689 0.36774802 0.0012673858 856 168
0.083516434 0.11374114 0.36754042 0.001278487 871 172
0.085189879 0.11363903 0.36678085 0.0012505456 867 171
0.087020628 0.11374662 0.36668342 0.0012506995 860 169
0.088985085 0.11402132 0.36710814 0.0012328359 880 174
0.090972058 0.11431367 0.36757255 0.0012278052 884 176
0.092880942 0.11449868 0.3676745 0.0012838292 866 171
0.094479069 0.11430085 0.36653182 0.00127391 878 174
0.09680251 0.11497169 0.36815733 0.0012246703 894 178
0.098461837 0.11484385 0.36720768 0.0012481251 890 177
0.10036256 0.1149971 0.36714154 0.0012251537 887 176
0.1023992 0.11529808 0.36752972 0.0012351562 876 173
0.10430314 0.11544196 0.36740023 0.0012360772 880 174
0.1062274 0.1156031 0.36730954 0.0012274045 916 184
0.10799337 0.11558953 0.36664909 0.0011580529 997 204
0.10996527 0.11579326 0.36666337 0.0011673365 974 198
0.11194014 0.11599354 0.36665168 0.0011811598 983 201
0.11391162 0.11618411 0.36659515 0.0011603715 971 198
0.11600749 0.11649369 0.36690032 0.0011951572 938 189
0.11798692 0.11667868 0.36680028 0.0011905205 931 187
0.11994752 0.11683979 0.36661458 0.0011787943 952 193
0.12190132 0.11698963 0.36638448 0.001146758 1005 206
0.12388813 0.11716633 0.36623114 0.0011584476 981 200
0.12582815 0.11729433 0.36592025 0.0011811984 942 190
0.12767027 0.11732873 0.36531499 0.0012038632 915 183
0.13007812 0.11787486 0.36630049 0.0012053532 928 187
0.13207039 0.11803454 0.36608425 0.0011709365 971 198
0.13423599 0.11834268 0.36633199 0.001200336 989 202
0.13636626 0.11861186 0.36646503 0.0012373612 904 181
0.13835227 0.11875013 0.36620361 0.0012788656 859 169
0.14017399 0.11874558 0.36551672 0.001256463 861 170
0.14221494 0.11892451 0.36541301 0.0013005942 813 157
0.14469005 0.11945731 0.36641559 0.0015105434 677 123
0.14696389 0.11981267 0.36689571 0.0015875867 603 104
0.14921942 0.12014449 0.36733043 0.0017274688 511 81
0.15149158 0.12048141 0.36781138 0.0017691538 491 76
0.15385944 0.12088536 0.36853099 0.0017799236 492 76
0.15584798 0.12098522 0.36836213 0.0018641624 491 76
0.15758124 0.12088685 0.36763331 0.0018345464 470 70
0.1603018 0.12153939 0.36923286 0.0018658014 458 67
0.1623352 0.12166186 0.36926892 0.001935594 441 63
0.1638826 0.12142144 0.36825517 0.0020469436 420 58
0.1661061 0.12168176 0.36881325 0.0020121047 410 55
0.16853908 0.122088 0.3698673 0.0020366982 403 53
0.16980515 0.12164932 0.36841729 0.0021256316 389 50
0.17133836 0.12140946 0.36762652 0.0021118862 391 50
0.17369038 0.12174876 0.36864626 0.0022422913 349 40
0.1756621 0.12181707 0.36890236 0.0023426714 330 35
0.17760296 0.12186278 0.36914679 0.0023688374 328 34
0.17953458 0.12190125 0.36942554 0.002434822 298 27
0.18103208 0.12164719 0.368873 0.0026890663 273 20
0.18219291 0.12117445 0.36771014 0.0029754783 252 15
0.18403499 0.12115977 0.36798927 0.0028781383 243 13
0.18603027 0.12124524 0.36862475 0.00289447 240 12
0.18774059 0.12114514 0.36874637 0.0031242431 234 10
0.18951666 0.121089 0.36905023 0.0029165137 242 12
0.19111626 0.12092232 0.36906376 0.0033984149 218 6
0.19275874 0.12078571 0.36921364 0.0032632228 207 4
0.19618282 0.12175742 0.37279993 0.0034324799 195 1
-0.21293689 0.11881279 0.36994395 0.0041853567 161 0
-0.20802104 0.1170596 0.36364564 0.0036674477 176 0
-0.20857671 0.11838173 0.36684594 0.0037791014 170 0
-0.20783584 0.11898452 0.36777875 0.0039996505 158 0
-0.20540792 0.11862361 0.36572918 0.0042090821 169 0
-0.20466103 0.11923566 0.36668944 0.0038731373 175 0
-0.2040389 0.11993196 0.36791909 0.0037313481 180 0
-0.20297717 0.12038006 0.3684046 0.0035948753 174 0
-0.2019525 0.12085848 0.36900532 0.0038402791 167 0
-0.20110629 0.12145342 0.36998618 0.0037942806 180 0
-0.19898385 0.12128147 0.36866161 0.0035959606 192 0
-0.19688909 0.12112336 0.36741674 0.0034301952 201 2
-0.19536729 0.12131807 0.36727881 0.0034985335 189 0
-0.19449367 0.12192279 0.3684161 0.0035012546 197 1
-0.1931825 0.12226221 0.36878666 0.0033995742 206 3
-0.19149129 0.12236533 0.36848387 0.0032671518 222 7
-0.19000559 0.12260307 0.36862829 0.0032044554 214 5
-0.18744271 0.12214362 0.36672235 0.0031409899 213 5
-0.1869859 0.12306105 0.36899507 0.0030127557 229 9
-0.18426234 0.12249012 0.36685157 0.0028309855 257 16
-0.1827752 0.12273785 0.36721051 0.0027741098 263 18
-0.18126297 0.12297364 0.36758319 0.002772775 270 20
-0.17974296 0.12320903 0.36800551 0.0027305346 291 25
-0.17792484 0.12324286 0.3678785 0.0026240135 274 21
-0.1769817 0.12388987 0.36963522 0.0026055442 285 23
-0.17492796 0.12376503 0.36914361 0.0026090681 295 26
-0.17282495 0.1236022 0.36859465 0.0024580099 307 29
-0.17092127 0.12357996 0.36852103 0.0024545887 311 30
-0.16902143 0.12356004 0.36851031 0.0023702206 321 33
-0.16711813 0.12353709 0.36854631 0.0022830551 330 35
-0.16498382 0.12334093 0.36812028 0.0022835482 335 36
-0.16294937 0.12321577 0.3679598 0.0021524264 370 45
-0.16141051 0.12346682 0.36897552 0.0021910968 360 42
-0.15978138 0.12365389 0.36985224 0.0021205111 383 48
-0.15617745 0.12229897 0.3661623 0.0020374455 398 52
-0.15368415 0.12179169 0.36505067 0.0017740829 492 76
-0.15179341 0.12175537 0.36539227 0.001745366 514 82
-0.1500995 0.12187799 0.36625174 0.0016757982 547 90
-0.14825349 0.12187862 0.36678246 0.0015566082 605 105
-0.14619043 0.1216986 0.36680287 0.0014050098 716 133
-0.14403762 0.12143828 0.36660987 0.0013733628 741 139
-0.14214724 0.12139534 0.36709878 0.0014620358 701 129
-0.14014885 0.12125786 0.36732441 0.0015603066 644 115
-0.13797341 0.12096148 0.36708653 0.0014447521 730 136
-0.13580132 0.12066008 0.3668468 0.0014455958 722 134
-0.1333105 0.12006344 0.36571768 0.0014848518 706 130
-0.13165912 0.12021674 0.3668806 0.0015086781 644 115
-0.12935714 0.11977196 0.36622378 0.0014544966 675 122
-0.12723048 0.11947918 0.36603177 0.0014185586 756 143
-0.12544739 0.11950521 0.36681682 0.0013560565 753 142
-0.1234145 0.11929058 0.36686146 0.0014070659 703 130
-0.12142476 0.11911188 0.36701158 0.0013656867 772 147
-0.11955348 0.11904574 0.36750242 0.0013932299 749 141
-0.11762277 0.1189175 0.3677941 0.0013702478 752 142
-0.11556068 0.11865038 0.36764613 0.0014341621 734 137
-0.11273265 0.11757594 0.36497974 0.0014831206 697 128
-0.11073421 0.11734615 0.36491767 0.0014397539 686 125
-0.10886423 0.11724719 0.36524931 0.001452932 700 129
-0.10686968 0.11700859 0.36513186 0.0014045349 742 139
-0.10516634 0.11708615 0.36598721 0.001415813 713 132
-0.10343894 0.11713912 0.36675301 0.0014267113 696 128
-0.10178671 0.11728055 0.36778277 0.0014641591 689 126
-0.099422544 0.11659208 0.36619294 0.0013902935 722 134
-0.097675741 0.11661583 0.36682218 0.0013894899 732 137
-0.096018001 0.11674874 0.36778072 0.0014064925 697 128
-0.094473273 0.11702663 0.3691828 0.001437231 690 126
-0.092473842 0.11674111 0.3687925 0.0014784303 701 129
-0.090604752 0.11661222 0.36888003 0.0014226754 701 129
-0.08864554 0.1163599 0.36856064 0.0014449015 687 125
-0.086615741 0.1160028 0.367892 0.0014789497 650 116
-0.084713548 0.11580534 0.36771262 0.001532032 663 119
-0.082966909 0.11581668 0.36818099 0.0014739283 662 119
-0.081288047 0.11592518 0.36894414 0.0015031565 641 114
-0.079376437 0.11569919 0.3686282 0.0015123207 662 119
-0.077370182 0.11532194 0.36781418 0.0014806073 654 117
-0.075579807 0.11525647 0.36797938 0.0015062676 639 113
-0.073739327 0.11510967 0.36787081 0.0015734795 594 102
-0.071983755 0.11509153 0.36815968 0.0015639092 602 104
-0.069951005 0.1146183 0.3669785 0.0015439808 637 113
-0.068238743 0.1146595 0.36743039 0.0015002852 642 114
-0.066619046 0.11486246 0.36838901 0.0015127868 654 117
-0.064887434 0.11487812 0.36873543 0.0014454754 680 124
-0.06299983 0.11461089 0.36816135 0.0014600513 684 125
-0.061478619 0.11501396 0.36972934 0.0014494971 679 123
-0.059692692 0.11493088 0.36972395 0.0014477825 687 125
-0.057926763 0.11488245 0.36981878 0.0014229344 717 133
-0.055994667 0.11449126 0.36879861 0.0014683328 677 123
-0.054388814 0.11476345 0.36990464 0.0014980537 646 115
-0.052671835 0.1148114 0.3702783 0.0015100832 656 118
-0.050872445 0.11467684 0.37005341 0.0015165044 654 117
-0.048912406 0.11415783 0.36857715 0.0015210626 657 118
-0.047120232 0.11400692 0.36827886 0.0014870905 654 117
-0.045442112 0.11413098 0.36885971 0.0015974052 633 112
-0.043756891 0.11424629 0.36940372 0.0015192733 628 110
-0.04187119 0.11382613 0.36820737 0.0014489793 686 125
-0.040277425 0.11419757 0.36956328 0.0015194486 660 119
-0.038612437 0.11439133 0.37033674 0.0015026493 642 114
-0.036868218 0.1143576 0.37036595 0.0015201417 676 123
-0.035044827 0.11406281 0.36954156 0.0014636723 661 119
-0.033267248 0.11389431 0.36911815 0.0015114476 630 111
-0.031510737 0.11378343 0.36887392 0.0015373302 650 116
-0.029763646 0.1136957 0.36869735 0.0015532844 648 116
-0.028035797 0.1136752 0.36873174 0.0014702155 661 119
-0.026329063 0.11374325 0.36904651 0.0014592268 677 123
-0.024603834 0.11373535 0.3691082 0.0014710081 678 123
-0.02286675 0.11366729 0.36896807 0.0014932614 641 114
-0.021090578 0.11337804 0.36810338 0.0015287818 638 113
-0.019323029 0.11308794 0.36722919 0.001489952 650 116
-0.017573971 0.11286014 0.36655092 0.0015096677 630 111
-0.015934486 0.11336277 0.36823902 0.0015306199 625 110
-0.014181439 0.11308133 0.36737442 0.0015001888 687 125
-0.012410508 0.11256032 0.36572531 0.0014405956 684 125
