# .PCD v0.7 - Point Cloud Data file format
VERSION 0.7
FIELDS x y z noise intensity gray
SIZE 4 4 4 4 2 1
TYPE F F F F U U
COUNT 1 1 1 1 1 1
WIDTH 892
HEIGHT 1
VIEWPOINT 0 0 0 1 0 0 0
POINTS 892
DATA ascii
-0.12538685 0.12142887 0.34702569 0.0021153933 403 54
-0.12330985 0.12109285 0.34666264 0.0019272522 435 62
-0.12118232 0.12069694 0.34613717 0.0019596191 445 64
-0.11888343 0.12011646 0.34508729 0.0019214749 439 63
-0.11731774 0.12027062 0.34615302 0.0020760177 422 58
-0.11544368 0.12010856 0.34631345 0.0018668926 461 68
-0.11394876 0.120342 0.34761712 0.0018716311 458 67
-0.11206441 0.12016502 0.34773612 0.0019098542 450 65
-0.11012344 0.11992087 0.34765702 0.0019111156 456 67
-0.10805141 0.11952402 0.34712872 0.0019789857 425 59
-0.10628491 0.11945785 0.34755355 0.0020196717 426 59
-0.10400997 0.11880871 0.34627241 0.0019333864 433 61
-0.10208129 0.11854013 0.34608838 0.0018441274 461 68
-0.10050092 0.11867378 0.34706953 0.0018683951 456 67
-0.098887041 0.11877178 0.34793815 0.0018624219 458 67
-0.096950509 0.1184789 0.34765038 0.0019161784 453 66
-0.095145017 0.11833856 0.34779727 0.0019201149 456 67
-0.093408898 0.11828103 0.34817496 0.0019298943 441 63
-0.091640122 0.11817925 0.34840965 0.0020303079 436 62
-0.089680023 0.11782228 0.3478775 0.0019412993 449 65
-0.087712586 0.11744184 0.34726015 0.0019204128 438 62
-0.086261153 0.11775091 0.34866837 0.0019738532 419 58
-0.084500931 0.11764243 0.34882775 0.0021366305 407 55
-0.082647629 0.11739729 0.34856737 0.002016356 429 60
-0.080667824 0.11695859 0.3477163 0.0019994371 426 59
-0.078792058 0.11665535 0.34725183 0.0020369685 432 61
-0.077023208 0.11650074 0.34721494 0.0019454305 430 60
-0.075105764 0.11610958 0.34645799 0.0019534109 464 69
-0.073608883 0.11636559 0.34761861 0.001948638 460 68
-0.071671955 0.11592171 0.34667498 0.0019102897 443 64
-0.069810681 0.11558209 0.34602782 0.0019983216 437 62
-0.068351075 0.11590715 0.34735802 0.0019284366 433 61
-0.066820666 0.11612529 0.34835699 0.0018864373 455 67
-0.06511464 0.11604159 0.34843868 0.0019950937 429 60
-0.063266523 0.11569367 0.3477138 0.0019795238 436 62
-0.061664551 0.11578926 0.34830937 0.001915149 443 64
-0.059881374 0.11554051 0.34785721 0.0020709685 429 60
-0.058111586 0.11530423 0.34743008 0.0020467769 430 60
-0.056470051 0.11531604 0.34773874 0.0020363217 422 58
-0.055061515 0.11581867 0.34951788 0.0019193456 441 63
-0.053262454 0.11550554 0.34882498 0.0019922203 428 60
-0.051115572 0.11439402 0.34570751 0.0019828929 418 58
-0.049465574 0.11435775 0.34582704 0.0019652219 421 58
-0.047940288 0.1146172 0.34683135 0.0019630268 426 59
-0.045724992 0.11318695 0.34271097 0.0020205257 431 61
-0.0444129 0.11396958 0.34528014 0.0019465581 426 59
-0.042899631 0.11427588 0.34639889 0.00211911 401 53
-0.041332889 0.11445834 0.34713405 0.0022090299 353 41
-0.039547574 0.11402564 0.34599432 0.0018645336 453 66
-0.037862826 0.11385814 0.34564996 0.001900619 446 64
-0.036372829 0.11428757 0.34710962 0.0019327829 434 61
-0.034801405 0.11448949 0.34787089 0.0018596131 462 68
-0.033159524 0.11446811 0.34794587 0.0018033657 485 74
-0.031558663 0.11459345 0.34845898 0.0018796953 455 67
-0.029752174 0.11394496 0.3466109 0.0019007038 457 67
-0.028204942 0.11427181 0.3477217 0.0020624944 418 58
-0.026597189 0.11437856 0.34815577 0.0020188042 411 56
-0.02500103 0.11455238 0.34878704 0.0019695254 420 58
-0.023391338 0.11468422 0.34928358 0.0019824947 416 57
-0.021738987 0.11461103 0.34914878 0.0019599581 425 59
-0.020066069 0.11440863 0.34861317 0.0020006145 443 64
-0.018380176 0.11408978 0.34771568 0.0018630591 459 68
-0.01668752 0.11366283 0.34648162 0.0018778907 458 67
-0.015176887 0.11451729 0.34914732 0.0019140546 454 66
-0.01361494 0.11514425 0.35111377 0.0019111467 444 64
-0.011911685 0.11458424 0.34945428 0.0019028607 450 65
-0.010205803 0.11381648 0.34715444 0.0019103754 442 63
-0.0085847648 0.11388322 0.3473933 0.0018509281 462 68
-0.0069636586 0.11398003 0.34771785 0.0020139508 447 65
-0.0053382432 0.11404391 0.34793577 0.0018592407 461 68
-0.003719846 0.1143797 0.34897718 0.0018836305 473 71
-0.0020896483 0.11459453 0.34964347 0.0018537455 465 69
-0.00045239562 0.11457721 0.34959537 0.0019019375 468 70
0.0011847058 0.11459313 0.34964254 0.0018656097 459 68
0.0028109832 0.11415103 0.34828618 0.0017959351 487 75
0.0044393674 0.11408771 0.34807944 0.0018417701 476 72
0.006070232 0.11410504 0.34811264 0.0019274066 467 70
0.0076971198 0.11405608 0.34793746 0.0017902897 488 75
0.0093312263 0.11411252 0.34807763 0.0017503535 503 78
0.010958808 0.11408424 0.3479532 0.0017620054 502 78
0.012578732 0.11399391 0.34763324 0.0018410296 503 78
0.014222813 0.11411808 0.34796107 0.0018202811 476 72
0.01585401 0.11412399 0.34792182 0.0017596809 497 77
0.01747587 0.11406784 0.34768686 0.0018138618 473 71
0.019127395 0.11419837 0.3480143 0.0019219861 457 67
0.020821577 0.11454308 0.3489874 0.0019561716 452 66
0.022403352 0.11426421 0.34805384 0.0018175459 474 71
0.024024909 0.11421236 0.34780496 0.0018468116 472 71
0.025679115 0.11431243 0.3480117 0.0018440548 468 70
0.027403856 0.11469577 0.34907323 0.0018425749 460 68
0.0290257 0.11462947 0.34875867 0.0018343258 506 79
0.030689975 0.11472887 0.34894064 0.0017903766 488 75
0.032266095 0.11450537 0.34813312 0.001815852 481 73
0.033839703 0.11429494 0.34735793 0.0018322805 491 76
0.035519868 0.11444721 0.34767723 0.0018035808 481 73
0.037214015 0.11462915 0.34807807 0.001748961 509 80
0.038953129 0.11492842 0.34882617 0.0018369762 504 79
0.040557165 0.11482107 0.34833133 0.001778863 512 81
0.042196061 0.11481693 0.34814101 0.0017224149 520 83
0.043915004 0.11502275 0.34857807 0.0018098075 495 77
0.045484055 0.11483528 0.34781408 0.0017247713 511 80
0.047106847 0.11479184 0.34747735 0.001804197 511 80
0.048778597 0.11486658 0.34748876 0.0018244755 498 77
0.050551604 0.11516718 0.34817281 0.0017516983 522 83
0.052195717 0.11516441 0.34792918 0.0016719386 541 88
0.053852484 0.11518889 0.34775755 0.0016964814 528 85
0.055550613 0.11529775 0.34782988 0.0017812549 515 81
0.057456627 0.11581939 0.34913534 0.0017979586 490 75
0.059001084 0.11560342 0.34820557 0.0017246371 516 82
0.060770269 0.11582753 0.34859008 0.0017665377 497 77
0.062342003 0.11567342 0.34782463 0.0018585721 487 75
0.06407512 0.11581896 0.34794864 0.0018361823 475 72
0.066048063 0.11637977 0.34930637 0.001864696 456 67
0.067579664 0.11615445 0.34829155 0.0017597878 499 78
0.069089942 0.11590417 0.34719092 0.0017459859 503 78
0.070964292 0.11626205 0.34789923 0.0016863901 541 88
0.073029697 0.11690945 0.34945801 0.0017078628 547 89
0.074542314 0.11666274 0.34832999 0.0017466021 545 89
0.076130092 0.11654186 0.34756601 0.0017081525 530 85
0.077865317 0.11664706 0.34746304 0.0017547731 501 78
0.079813011 0.11705946 0.34826025 0.001800048 509 80
0.081558995 0.11716519 0.34812981 0.0018058422 505 79
0.083310135 0.11727388 0.34799415 0.0016373202 560 93
0.085091643 0.11742021 0.34795591 0.0016898041 535 86
0.08700455 0.11773871 0.34841278 0.0016478109 568 95
0.088718258 0.11778066 0.34803665 0.0016426934 553 91
0.090378739 0.11775171 0.34743816 0.0015668096 594 101
0.092123829 0.11783204 0.34714925 0.0017152523 553 91
0.094104968 0.11820598 0.34771109 0.0016665715 577 97
0.096004635 0.11846621 0.34792373 0.00169863 559 92
0.097653113 0.11841283 0.34720296 0.0016932611 569 95
0.099368133 0.11844059 0.34670955 0.0016212267 591 100
0.10130914 0.11873227 0.34697729 0.0016795401 543 88
0.10324411 0.11900737 0.34718472 0.0017128602 551 90
0.10497391 0.11904091 0.34667775 0.0016960833 569 95
0.10662185 0.11898202 0.3458949 0.001637539 568 95
0.10856839 0.11925298 0.3460643 0.0015879313 591 100
0.11099816 0.12003814 0.34771633 0.0016421214 557 92
0.11292015 0.12025861 0.34772494 0.0015968535 589 100
0.11469541 0.12031859 0.34726733 0.0016787471 571 95
0.11641919 0.12032356 0.34665209 0.0017434696 535 86
0.11821423 0.12040096 0.34624851 0.0017127857 539 87
0.12016384 0.12063134 0.34628922 0.0017128484 527 84
0.12265917 0.12139527 0.34786496 0.0016941406 529 85
0.12465315 0.12164865 0.34798366 0.001718087 520 83
0.12676156 0.12200519 0.34840837 0.0017703529 501 78
0.12859917 0.12209497 0.34808597 0.0017723811 503 78
0.13074206 0.1224683 0.3485896 0.0017948133 485 74
0.13247375 0.12245168 0.34800455 0.0018439722 466 69
0.13505451 0.1232101 0.34964493 0.0018075524 479 73
0.13621894 0.12267349 0.34763822 0.0018923994 451 66
0.13773668 0.12246469 0.34659502 0.0019218164 434 61
0.13965428 0.12261213 0.34659481 0.001955878 423 59
0.14163999 0.12281504 0.34678718 0.0020519204 396 52
0.14323556 0.1226788 0.34606126 0.0020376581 403 54
0.14523499 0.12288757 0.34634992 0.0021027012 382 49
0.14740427 0.12323336 0.34706715 0.002123188 375 47
0.14894316 0.12305019 0.34633955 0.0024589743 331 36
0.15049839 0.12288464 0.34570876 0.0023673344 322 34
0.15286291 0.12337607 0.34697363 0.0023133885 334 37
0.15488736 0.12358499 0.34749192 0.0023136227 337 38
0.15660782 0.12354933 0.34737164 0.0025283156 317 33
0.1584532 0.12361196 0.34757718 0.0026037111 279 23
0.15981166 0.12329753 0.34677163 0.002541075 294 27
0.16147073 0.12321934 0.34667933 0.0026118706 284 24
0.1632448 0.12322965 0.34688464 0.0027303281 261 19
0.1650086 0.12323207 0.34711573 0.0027525728 263 19
0.16656965 0.12308463 0.3469716 0.0029208653 237 13
0.16857341 0.12326398 0.3477951 0.0028782026 243 14
0.17057694 0.12343948 0.34865394 0.0032559428 233 12
0.17182001 0.12306669 0.34800777 0.0032002705 216 8
0.17302525 0.1226746 0.34734729 0.0031303072 218 8
0.17454377 0.1225103 0.34737125 0.0033510877 207 5
0.17657056 0.12270246 0.34844646 0.0031983475 215 7
0.17762475 0.12222158 0.34764808 0.0034623428 187 0
0.17777748 0.12113585 0.34515923 0.0033944927 197 3
0.17933278 0.12101754 0.34545696 0.0039051997 175 0
0.17982203 0.12018895 0.34375659 0.0041130716 154 0
-0.20004559 0.12007651 0.3490164 0.0044624954 139 0
-0.19535804 0.11826272 0.34345397 0.0046261065 145 0
-0.19331993 0.11803539 0.34226862 0.0047320453 137 0
-0.19245133 0.11852438 0.34300497 0.0042461059 147 0
-0.19014943 0.11813148 0.34109613 0.0040508918 153 0
-0.19025099 0.119238 0.34346268 0.003985988 161 0
-0.18992047 0.12009101 0.34506503 0.0043894281 159 0
-0.18867046 0.12037271 0.34501645 0.0043509626 154 0
-0.18698359 0.12037826 0.34418508 0.0039789812 163 0
-0.18541607 0.12046148 0.34359348 0.0040114573 168 0
-0.18520488 0.12143554 0.34555849 0.0039158198 163 0
-0.18508567 0.12248865 0.34776103 0.0038029589 166 0
-0.18380825 0.12278785 0.34784296 0.0039829453 166 0
-0.18119448 0.12219153 0.34541982 0.0037416101 174 0
-0.17968635 0.12233657 0.34512645 0.00369424 181 0
-0.1782116 0.12250733 0.34493655 0.0038124691 184 0
-0.17504708 0.1215085 0.34149173 0.0034005484 194 2
-0.17609498 0.12344284 0.34632105 0.0035791218 207 5
-0.17551032 0.12425993 0.34803939 0.0034939128 189 1
-0.17418256 0.12456208 0.34834847 0.003317869 202 4
-0.17250714 0.12461924 0.34801048 0.0033139619 203 4
-0.16931981 0.1235741 0.34463868 0.0032890462 218 8
-0.16650198 0.12277976 0.3420144 0.0031383608 221 9
-0.16547894 0.12330613 0.34311265 0.0033309145 199 3
-0.1644446 0.12383513 0.34425911 0.0031479232 218 8
-0.16329908 0.12429088 0.34524432 0.0033461154 219 8
-0.16059883 0.12356029 0.34298071 0.0030059903 227 10
-0.15931943 0.12391888 0.34378764 0.0030227515 244 15
-0.15815714 0.1243775 0.3449184 0.0029764792 256 18
-0.15742846 0.1251912 0.34708053 0.0027464055 262 19
-0.1559353 0.12540853 0.347637 0.0025557172 292 26
-0.15352269 0.12488291 0.34618258 0.0026056697 282 24
-0.15174708 0.12486926 0.34619564 0.002492822 301 29
-0.15022106 0.12506309 0.3468318 0.0025552001 306 30
-0.14823371 0.12487292 0.34645009 0.0024503449 303 29
-0.14660399 0.12498305 0.34694764 0.0024635941 314 32
-0.14483905 0.12497917 0.34717384 0.0023895747 315 32
-0.1431597 0.12504998 0.34765103 0.0023372278 324 34
-0.14100698 0.12470387 0.34701005 0.0022358475 352 41
-0.13893417 0.12442063 0.34658194 0.0023150085 344 39
-0.13709548 0.12434249 0.3467612 0.0022880288 337 38
-0.13513952 0.12415458 0.34666809 0.0022745496 366 45
-0.13377291 0.12451029 0.34812567 0.0021438031 389 50
-0.13144478 0.12396861 0.34710264 0.0021130054 382 49
-0.12878542 0.12309576 0.34517312 0.0020659841 390 51
-0.12712726 0.12316912 0.34591684 0.0021614791 380 48
-0.12536834 0.12314554 0.34640899 0.0019428962 427 60
-0.12323196 0.12274529 0.34585723 0.0020526806 410 56
-0.12120938 0.12244864 0.34560874 0.0020173325 402 54
-0.11951956 0.12248446 0.34630942 0.0020310762 417 57
-0.11778846 0.12247837 0.34690118 0.0019232284 437 62
-0.11625726 0.12268306 0.34809777 0.001949399 432 61
-0.11382868 0.12193266 0.34658611 0.00194511 440 63
-0.11239314 0.12223932 0.34807923 0.0019077387 452 66
-0.11024482 0.12176821 0.34735698 0.0019548044 428 60
-0.1078893 0.12104975 0.34592155 0.0020502242 438 62
-0.10634212 0.12122973 0.34704766 0.0019560987 420 58
-0.10457748 0.12116362 0.34746504 0.0019406127 432 61
-0.10243133 0.12064597 0.34657851 0.001994591 424 59
-0.10049708 0.12036465 0.34635952 0.001940132 429 60
-0.098759905 0.12031375 0.34679368 0.0019702301 430 60
-0.097027592 0.12026712 0.3472304 0.0018930309 442 63
-0.09534438 0.12028075 0.34783074 0.0018957747 448 65
-0.093548253 0.12014984 0.34800196 0.0019834365 437 62
-0.091819286 0.120102 0.34840137 0.0020328995 434 61
-0.089891851 0.11978786 0.34801504 0.0019725722 438 62
-0.088090762 0.11963329 0.34807804 0.0019220534 432 61
-0.086343817 0.11954765 0.34832799 0.0019879185 417 57
-0.084753059 0.11967917 0.34919816 0.0019842617 417 57
-0.08265464 0.11908461 0.34793517 0.0019747044 420 58
-0.080704555 0.11868355 0.34722054 0.0019959218 418 58
-0.078955635 0.11856762 0.34732512 0.0020108807 426 59
-0.077328421 0.1186334 0.34794882 0.0020393229 414 57
-0.075529881 0.11843343 0.3477796 0.0019795238 432 61
-0.073678933 0.11814039 0.34732237 0.0019630832 424 59
-0.072007775 0.11812876 0.34767872 0.0019942671 446 64
-0.070175081 0.11784532 0.34722137 0.0020451338 428 60
-0.068540454 0.1178888 0.34771401 0.0020165979 428 60
-0.066719785 0.11760651 0.34723264 0.0019172241 434 61
-0.064868264 0.1172541 0.3465302 0.0020720277 413 56
-0.063235082 0.11728823 0.34695721 0.0019538759 431 61
-0.061636563 0.1173902 0.34757343 0.0021074167 421 58
-0.059980076 0.11738438 0.34785917 0.0020637109 402 54
-0.058092888 0.1169139 0.34675533 0.0019955786 424 59
-0.056656305 0.11734931 0.34832701 0.0020670432 392 51
-0.055025063 0.11739556 0.34873366 0.0020288138 424 59
-0.053303819 0.11724674 0.34854987 0.0019898529 436 62
-0.051408108 0.11669235 0.34714842 0.0019886084 415 57
-0.049835689 0.11685942 0.347882 0.001943795 433 61
-0.048076253 0.11658441 0.34728938 0.0019111983 449 65
-0.046385497 0.11646239 0.34714186 0.0018906856 443 64
-0.044554017 0.11596514 0.34586516 0.0020051959 410 56
-0.043056697 0.11633287 0.34715867 0.0020513432 415 57
-0.041448589 0.11641855 0.34760201 0.0020302651 431 61
-0.039800435 0.11639416 0.34770778 0.0018810742 455 67
-0.037966188 0.11580009 0.346102 0.0019182449 435 62
-0.036445599 0.1161523 0.34731552 0.0018836929 449 65
-0.034817114 0.1161776 0.34754363 0.0019364886 446 64
-0.033270855 0.11649327 0.34863257 0.001879844 455 67
-0.031532545 0.11613441 0.34769461 0.0019156403 436 62
-0.029870547 0.1160327 0.34751821 0.0019267461 450 65
-0.028180819 0.11580525 0.34695709 0.001977575 450 65
-0.02660981 0.1160677 0.3478561 0.0019687444 430 60
-0.025029877 0.11632302 0.34872681 0.0019917111 419 58
-0.02341249 0.11642788 0.34913945 0.001986583 420 58
-0.021782877 0.11648314 0.34939623 0.0020367717 423 59
-0.020109162 0.11629235 0.3489078 0.0019610464 447 65
-0.018410223 0.11590892 0.34783402 0.0019391571 449 65
-0.016803026 0.11608469 0.34843138 0.0019322385 442 63
-0.015239773 0.11663467 0.35014546 0.0019968054 444 64
-0.013630413 0.11692203 0.35106495 0.0019923586 418 58
-0.011924614 0.11634742 0.34938955 0.0019136462 437 62
-0.010212365 0.11551677 0.34693819 0.0019341198 445 64
-0.0085807052 0.11545561 0.346791 0.0019904745 439 63
-0.0069606258 0.1155581 0.34712902 0.0018685233 457 67
-0.0053471387 0.11586598 0.34807777 0.0019346442 445 64
-0.0037253436 0.11618526 0.34905449 0.0019405828 443 64
-0.0020915559 0.11633781 0.34952402 0.001950207 447 65
-0.00045367514 0.11654284 0.35014486 0.0018832722 453 66
0.0011850432 0.1162634 0.34930393 0.0019605297 452 66
0.0028152522 0.1159577 0.34837773 0.001876868 464 69
0.0044473391 0.11592543 0.34826681 0.0019301752 450 65
0.006083115 0.11598085 0.34841284 0.0018507991 460 68
0.0077019371 0.11575797 0.34771666 0.0019008921 468 70
0.0093556028 0.11604518 0.34854621 0.0017187899 517 82
0.011012509 0.11628117 0.34921527 0.0018026056 481 73
0.012587366 0.11570186 0.34742954 0.0017634004 503 78
0.014231035 0.11581535 0.34771776 0.0018224146 474 71
0.015875526 0.11591153 0.34794721 0.001861928 454 66
0.017523406 0.11601219 0.34818336 0.0018404408 485 74
0.01921167 0.11634023 0.34909487 0.0018702652 457 67
0.020791192 0.11600998 0.3480241 0.0018667487 456 67
0.022372946 0.11573938 0.34712568 0.0018155571 481 73
0.023990458 0.11567795 0.34684783 0.0018165654 471 71
0.025704555 0.11606047 0.34789351 0.0019190214 473 71
0.027371036 0.11619507 0.34818828 0.0017947338 484 74
0.029038012 0.11631647 0.3484357 0.0018358402 473 71
0.030632719 0.11615088 0.34781575 0.0018224855 478 72
0.032253075 0.1160944 0.34751502 0.0018645114 477 72
0.033875749 0.11605132 0.34724653 0.001920498 475 72
0.035493247 0.11599529 0.34693119 0.0017752161 510 80
0.037251409 0.11638366 0.34793633 0.001812621 504 79
0.038971532 0.11662546 0.34849381 0.001824505 473 71
0.040681578 0.11681876 0.34889713 0.0017956082 492 76
0.042364169 0.11692124 0.3490198 0.0018377374 479 73
0.044061713 0.1170558 0.34922859 0.0018312972 470 70
0.045612987 0.11680609 0.34828192 0.0018226707 475 72
0.047190331 0.11663818 0.34757033 0.001858071 478 72
0.048876554 0.11674163 0.34765771 0.0017712044 497 77
0.050615456 0.11696008 0.348077 0.001781966 513 81
0.052360259 0.11717797 0.34848362 0.0017230065 514 81
0.05405115 0.11726556 0.34849161 0.0017692505 500 78
0.05568479 0.11722745 0.34811535 0.0018250912 486 74
0.057194114 0.11693735 0.34698069 0.001743087 514 81
0.059353005 0.1179544 0.34971172 0.0018387488 469 70
0.060872462 0.11767989 0.34860048 0.0017823003 505 79
0.062391263 0.11741871 0.34751856 0.0018416542 474 71
0.064004898 0.11734489 0.34698036 0.001918774 459 68
0.066060282 0.11806428 0.34877384 0.0018671738 473 71
0.06792073 0.1184085 0.34944385 0.001801257 479 73
0.069506019 0.11826802 0.34867048 0.0017519742 499 78
0.071307667 0.11849367 0.34896374 0.0017645271 492 76
0.072955281 0.11845887 0.34847674 0.0017427247 513 81
0.07441663 0.11812994 0.34711289 0.0017174205 516 82
0.076116964 0.11818649 0.34686977 0.0017093073 527 84
0.078123331 0.11870561 0.34796923 0.0017550478 515 81
0.080004334 0.11901648 0.34844235 0.0017860919 514 81
0.081768021 0.11914364 0.34836286 0.0017333468 541 88
0.083414935 0.11909898 0.34776768 0.0016910506 530 85
0.085139431 0.11916466 0.3474817 0.0016647313 551 90
0.086769246 0.11909784 0.34679654 0.0017616613 535 86
0.08896938 0.11980151 0.34833968 0.0016789323 536 87
0.090706788 0.1198675 0.34801298 0.0016969625 529 85
0.092273034 0.11970904 0.34702307 0.0017150764 515 81
0.094117224 0.11991037 0.34706438 0.0016249474 563 93
0.096134916 0.12032177 0.3476997 0.0016213864 566 94
0.097875714 0.12037833 0.34729698 0.0016508562 549 90
0.099510603 0.12030496 0.34650981 0.0017223492 556 92
0.10135657 0.12048493 0.34644288 0.0016267358 563 93
0.10335016 0.12083158 0.34684467 0.0016637178 548 90
0.10514353 0.12093672 0.34654418 0.0016599216 550 90
0.10685149 0.1209418 0.34595093 0.0016764245 542 88
0.10879038 0.12120402 0.34608775 0.0016579828 569 95
0.11109117 0.1218551 0.34732774 0.0016893406 558 92
0.11318716 0.12226515 0.34787455 0.0016201346 582 98
0.1149995 0.12236109 0.34752631 0.0017223425 513 81
0.11682852 0.12247168 0.34722191 0.0017169067 517 82
0.11914828 0.12308602 0.34834754 0.0017388568 547 89
0.1211015 0.12330951 0.34837091 0.0017370249 513 81
0.12257028 0.1230404 0.34701332 0.0017628144 499 78
0.12454104 0.12327565 0.3470917 0.0018674154 477 72
0.1269978 0.12397888 0.34849942 0.0018570755 485 74
0.1293146 0.12452826 0.34948793 0.0018746026 478 72
0.13024436 0.12374511 0.34675962 0.0018983816 486 74
0.13286059 0.12456378 0.34854478 0.0018884212 454 66
0.13503446 0.12495179 0.34914786 0.0018594945 459 68
0.13690992 0.12505727 0.34899029 0.0020108023 428 60
0.13815932 0.12459543 0.34728426 0.0019808868 419 58
0.13991626 0.12459717 0.34690768 0.0020460701 404 54
0.14169608 0.12461898 0.34662524 0.0020912995 413 56
0.14370485 0.12483915 0.34693447 0.0020576499 404 54
0.14580114 0.12512913 0.34747878 0.0021938283 361 43
0.14758129 0.12514409 0.347303 0.0022162534 354 42
0.14912216 0.12495818 0.34661567 0.0022702902 342 39
0.15097483 0.12503485 0.34670335 0.002325902 330 36
0.15309009 0.12532471 0.34742951 0.0024447516 324 34
0.1545447 0.12507327 0.34670314 0.0024090295 311 31
0.15665409 0.12535149 0.3474935 0.0025144136 295 27
0.15870231 0.1255751 0.34818119 0.002692637 276 22
0.16043875 0.12554976 0.34822723 0.0028823069 268 20
0.16169567 0.12515385 0.34729308 0.002967899 260 19
0.16340443 0.12511243 0.34738943 0.0027800286 263 19
0.16488098 0.124896 0.34704617 0.0029787594 234 12
0.16645588 0.12475785 0.34696546 0.0030044413 239 13
0.16829656 0.1248197 0.34748554 0.0029400771 242 14
0.16976012 0.12460348 0.34727493 0.0031320464 223 9
0.17178088 0.12479646 0.34824732 0.0030866612 224 10
0.17326665 0.12460081 0.34817675 0.0033649981 214 7
0.17504956 0.12462063 0.34874779 0.0033436934 209 6
0.17578126 0.12389914 0.34728009 0.0033534185 201 4
0.17614743 0.12293668 0.34516698 0.0037445002 190 1
0.17728935 0.12252913 0.34464112 0.0037336259 175 0
0.17873152 0.12233493 0.34474698 0.0039194883 166 0
0.18011838 0.12210695 0.34478867 0.0039910334 161 0
-0.19832976 0.12072343 0.34604326 0.0045544221 148 0
-0.19552009 0.12002799 0.34394976 0.0041847597 156 0
-0.19384815 0.12002505 0.34354985 0.004453463 145 0
-0.19233775 0.12012292 0.3432382 0.004110747 157 0
-0.1927378 0.12142614 0.34623563 0.0043002567 142 0
-0.18959242 0.12049898 0.34279731 0.0041470304 157 0
-0.18953486 0.1215353 0.34490722 0.0038790815 169 0
-0.18856384 0.12199924 0.34537029 0.0040779868 151 0
-0.18598372 0.1214211 0.34288782 0.0041053123 162 0
-0.18494968 0.12185097 0.34326667 0.0037138383 173 0
-0.1840042 0.12234768 0.34384739 0.0037096331 180 0
-0.18470797 0.12396048 0.34757486 0.0038724928 169 0
-0.1826748 0.12374953 0.34620631 0.0037141792 174 0
-0.18074602 0.123606 0.3450571 0.0039976486 173 0
-0.17915492 0.12369283 0.34458148 0.0035122407 185 0
-0.17821242 0.1242335 0.34539798 0.0036241023 182 0
-0.17737079 0.12485572 0.34646776 0.003768133 179 0
-0.1759306 0.12506476 0.34642068 0.0034541197 189 1
-0.17399727 0.12492388 0.34543949 0.0035843921 189 1
-0.17316861 0.12558129 0.34669998 0.0036111765 195 2
-0.17237945 0.12628101 0.34810945 0.0033543003 200 4
-0.17056473 0.1262361 0.34750286 0.0034169168 205 5
-0.16710702 0.12496163 0.34355676 0.003373516 208 6
-0.16549438 0.12505463 0.34341571 0.0033132811 204 5
-0.16476077 0.12582086 0.34516329 0.0030962357 221 9
-0.16298549 0.12579954 0.34479186 0.0033122902 213 7
-0.16264103 0.12689407 0.34752104 0.0030695193 225 10
-0.15903857 0.12544282 0.34332421 0.0030766749 240 14
-0.15829654 0.12624058 0.34533018 0.0028405027 249 16
-0.15710081 0.12669036 0.34642932 0.0027458579 259 18
-0.15498184 0.12639737 0.34554452 0.0026008969 282 24
-0.15300755 0.12621702 0.34501529 0.0026531983 285 25
-0.15199158 0.12683214 0.34670788 0.002567651 287 25
-0.15054341 0.12709683 0.34749016 0.0024421932 314 32
-0.14805092 0.12647566 0.34589687 0.0024511064 306 30
-0.14609624 0.12630454 0.34557977 0.0023541567 328 35
-0.14461111 0.12654012 0.34642038 0.0023160828 336 37
-0.14304994 0.12671414 0.34713683 0.0023533516 325 35
-0.14147286 0.12687823 0.34786904 0.0025028251 323 34
-0.13941878 0.12661326 0.34746504 0.0023054506 331 36
-0.13754144 0.12650409 0.34752601 0.0022410315 349 40
-0.13617565 0.12686868 0.34892532 0.0022465605 343 39
-0.13449804 0.12694852 0.34957674 0.0021653762 369 45
-0.13237849 0.12660781 0.34910035 0.0021334456 379 48
-0.12945701 0.12548059 0.34647807 0.002192765 374 47
-0.12737232 0.12514481 0.34606084 0.002050342 396 52
-0.12534671 0.12485856 0.34580049 0.0020484114 401 53
-0.12307797 0.12431869 0.34485385 0.0020949959 383 49
-0.12142164 0.12439086 0.34561971 0.0020480121 400 53
-0.11976596 0.12446579 0.34640801 0.0020965079 405 54
-0.118218 0.1246565 0.34753135 0.0020696686 418 58
-0.11619638 0.12434598 0.34726554 0.0019940033 422 58
-0.11449595 0.12437501 0.34795326 0.0020249551 430 60
-0.1119317 0.12345219 0.34597796 0.0019466085 440 63
-0.11007621 0.12329453 0.34614378 0.0019337444 444 64
-0.10821536 0.1231258 0.346277 0.0019600075 427 60
-0.10655922 0.12318829 0.3470585 0.001958054 428 60
-0.10499517 0.12336104 0.34814841 0.0019609195 424 59
-0.10294843 0.12296296 0.34762144 0.0019262241 437 62
-0.1007283 0.12234087 0.3464503 0.0019421526 439 63
-0.09887369 0.12214901 0.34648636 0.0020443478 426 59
-0.097164407 0.12213312 0.34701234 0.0019703647 425 59
-0.095492437 0.12216438 0.34766328 0.0018587443 455 67
-0.093654171 0.1219802 0.34769043 0.0019599795 454 66
-0.091886207 0.12188248 0.34795222 0.0020616492 421 58
-0.090067118 0.12171198 0.34799391 0.0019895395 419 58
-0.08818049 0.12144197 0.34773761 0.0021200869 398 53
-0.086381607 0.12128462 0.34779012 0.0020799788 402 54
-0.084724322 0.12132376 0.34839344 0.0020076849 414 57
-0.08301267 0.12128508 0.34876075 0.0020137201 409 55
-0.080777913 0.12046468 0.34686419 0.0020110167 415 57
-0.079183519 0.12058475 0.34766021 0.0019757242 419 58
-0.077516429 0.12059691 0.34813291 0.0021603641 404 54
-0.075653493 0.12029818 0.34769428 0.0019101683 440 63
-0.073811196 0.12001954 0.34729889 0.0021079495 411 56
-0.072122872 0.11998415 0.34759367 0.0019668872 421 58
-0.070460699 0.11999164 0.34800002 0.0020976255 412 56
-0.068621144 0.11969008 0.34749663 0.0021307026 416 57
-0.066702574 0.1192323 0.34652501 0.0019656485 443 64
-0.064835936 0.11884643 0.34574759 0.0020262094 412 56
-0.06318903 0.11885368 0.34610093 0.0020886415 409 55
-0.061688542 0.11914411 0.34726781 0.0020193998 425 59
-0.059979554 0.11903676 0.34726414 0.0019816298 422 58
-0.058310159 0.11900414 0.34746665 0.0020299626 404 54
-0.056572508 0.11882623 0.34723321 0.0020501525 412 56
-0.055192657 0.11941174 0.34922051 0.0019947558 416 57
-0.053335596 0.11896911 0.34819031 0.0020599593 404 54
-0.051618833 0.11882111 0.34801066 0.0019183217 439 63
-0.049893949 0.118644 0.34773454 0.0020255072 408 55
-0.048197117 0.11852379 0.34761444 0.001934502 438 62
-0.046512142 0.11842527 0.34754756 0.0020352181 408 55
-0.044865321 0.11842025 0.34774503 0.0021412771 395 52
-0.043133993 0.11818328 0.34725139 0.0020964541 386 50
-0.041491613 0.11818091 0.34743729 0.0019330173 428 60
-0.039809454 0.11806039 0.34726644 0.0020054837 438 62
-0.03819748 0.11814661 0.34769469 0.0019852498 427 60
-0.036521666 0.1180342 0.34752962 0.0019290491 435 62
-0.035024595 0.11851609 0.34910616 0.0019068982 448 65
-0.033238448 0.11801909 0.34779078 0.0018543678 466 69
-0.031679865 0.11832046 0.34881961 0.0019864864 415 57
-0.029928949 0.11789713 0.3477037 0.001844765 467 70
-0.028264074 0.11778338 0.34749228 0.0019546084 435 62
-0.026666151 0.1179518 0.34810549 0.0019913332 428 60
-0.025039151 0.11800519 0.34837195 0.0019585916 424 59
-0.023405058 0.11803035 0.34854752 0.0019978676 421 58
-0.021773204 0.11807141 0.34876263 0.0020472652 417 57
-0.020084873 0.11778797 0.3480117 0.001892912 451 66
-0.01843608 0.11770666 0.34785065 0.001954274 429 60
-0.016845003 0.1180139 0.34883088 0.0018806915 449 65
-0.01527256 0.11853198 0.35042784 0.0019583593 430 60
-0.013611807 0.1184071 0.35011715 0.0020513041 409 55
-0.011923544 0.11797566 0.34889296 0.0019264196 431 61
-0.01024058 0.11746754 0.34743482 0.0019682487 422 58
-0.0085834498 0.11711931 0.34644264 0.0019314911 458 67
-0.0069722547 0.11738159 0.34724963 0.0019141857 451 66
-0.0053477888 0.11751232 0.34766105 0.0019061913 442 63
-0.0037206102 0.1176721 0.34815186 0.0019586324 441 63
-0.0020894676 0.1178587 0.3487156 0.0018682714 466 69
-0.00045310424 0.11803568 0.34924433 0.0019617737 456 67
0.001185786 0.11797492 0.3490631 0.0019131792 448 65
0.0028157888 0.11761346 0.34798566 0.0019064618 441 63
0.0044552069 0.11776629 0.34842327 0.0018501827 467 70
0.0061079054 0.11809382 0.34937117 0.0019782083 444 64
0.0077253855 0.11774588 0.34831414 0.0018471091 487 75
0.0093777049 0.11795773 0.34890652 0.0017310035 513 81
0.011040873 0.11822276 0.34964931 0.0018015136 483 74
0.012654235 0.11795489 0.3488093 0.001824239 494 76
0.014210753 0.1172793 0.34675732 0.001779884 494 76
0.01585548 0.11739578 0.34704056 0.0017977096 490 75
0.017599743 0.1181588 0.34922764 0.001923173 461 68
0.01921038 0.11797104 0.34859732 0.0018848144 452 66
0.020787973 0.11762583 0.34749496 0.0018738433 458 67
0.022369899 0.11735366 0.34660167 0.0018870534 467 70
0.023998449 0.11734642 0.34648368 0.0019295716 466 69
0.025681397 0.11758919 0.34709626 0.0017841283 492 76
0.027354931 0.1177624 0.34749556 0.0018177144 477 72
0.029016472 0.11786736 0.34768546 0.0018461855 465 69
0.030744737 0.11821765 0.34859076 0.0018567548 461 68
0.032461688 0.11849112 0.34926075 0.0018789078 451 66
0.033850446 0.11759807 0.3464849 0.0018351424 472 71
0.0355867 0.11793886 0.34733674 0.0018474663 466 69
0.037254337 0.11803228 0.34745085 0.0018044621 489 75
0.03900674 0.11837503 0.34828979 0.0018578825 465 69
0.04071505 0.11856169 0.34865969 0.0018953823 463 69
0.042495001 0.11893433 0.34956658 0.0018802424 454 66
0.044139262 0.11891352 0.34930712 0.0018794225 454 66
0.045795124 0.11892436 0.34913123 0.0018694034 456 67
0.047386963 0.11877393 0.34847236 0.0018428862 470 70
0.048987277 0.11865419 0.34789419 0.0018262106 468 70
0.050823547 0.11909515 0.34894919 0.001788403 495 77
0.052550089 0.1192593 0.34918159 0.0018849184 460 68
0.054130431 0.11909174 0.34843227 0.0018169089 482 73
0.055828195 0.11918481 0.34843478 0.0018153504 488 75
0.05735787 0.11892401 0.34739226 0.0018111999 475 72
0.059113022 0.1191322 0.34770873 0.001743068 501 78
0.060948197 0.11948597 0.34843722 0.0018875113 480 73
0.062383454 0.11905774 0.34687394 0.001869272 480 73
0.06431552 0.11957527 0.34805423 0.0018737221 468 70
0.066047147 0.11970347 0.3480874 0.0018412234 497 77
0.067896754 0.12003397 0.34869546 0.0017696549 504 79
0.069649264 0.12018108 0.34875694 0.0018030409 509 80
0.071351789 0.12023705 0.34854096 0.0017551902 494 76
0.073064588 0.1203074 0.34835356 0.0017366095 506 79
0.074508898 0.1199424 0.346894 0.001825815 485 74
0.076263167 0.12008141 0.34688011 0.001752063 508 80
0.078292638 0.12063851 0.34805879 0.0017704064 493 76
0.080264665 0.12108562 0.34890363 0.0017616095 502 78
0.082029536 0.12120827 0.34879866 0.0017557695 526 84
0.08354523 0.12096521 0.34762907 0.0017324738 527 84
0.085011683 0.12066183 0.34627575 0.0017963714 524 84
0.087255299 0.12145194 0.34804612 0.0017033039 529 85
0.08923047 0.12184551 0.34866315 0.0017524188 504 79
0.090940349 0.12186892 0.34820738 0.0017942238 482 73
0.092605352 0.12183242 0.34756902 0.0017383415 507 79
0.094392791 0.12195541 0.34737456 0.0017565013 499 78
0.096613728 0.12262428 0.34872091 0.0017081216 523 83
0.098181441 0.12245525 0.34767255 0.0017262683 526 84
0.099706702 0.12223993 0.34648588 0.0016688154 544 89
0.10153907 0.12240203 0.3463614 0.0017965504 527 84
0.10411857 0.1234446 0.34871599 0.0017474692 525 84
0.10556387 0.12313046 0.34722885 0.0017274398 543 88
0.10729936 0.12315939 0.34670657 0.0017391451 527 84
0.10915016 0.12331773 0.34654501 0.0016977586 544 89
0.11135422 0.12386412 0.34746966 0.0017046153 529 85
0.11341183 0.12423343 0.3478941 0.0017895499 522 83
0.11538117 0.12449645 0.34802073 0.0018454671 501 78
0.117459 0.12486701 0.34845027 0.0017735792 491 76
0.11955642 0.12524731 0.34891096 0.0017760093 494 76
0.12120712 0.12515545 0.34806499 0.0018565573 495 77
0.12277177 0.12497857 0.34699652 0.0018157685 472 71
0.1246326 0.12510397 0.34678301 0.0018204373 474 71
0.12697174 0.12569939 0.3478874 0.0018238194 477 72
0.12915036 0.12612192 0.34852999 0.0019034726 480 73
0.13057871 0.12581025 0.34716719 0.0018580275 463 69
0.1323867 0.12586778 0.3468509 0.0019670276 445 64
0.13526756 0.12693055 0.34933016 0.0018884394 448 65
0.13695352 0.12685914 0.34871688 0.0020002616 434 61
0.13853379 0.12669291 0.34787858 0.0019830409 412 56
0.14008901 0.12650819 0.34702772 0.0020723909 394 52
0.14205034 0.12669027 0.34722236 0.0021004786 382 49
0.14386353 0.12673737 0.34708777 0.0021931827 362 44
0.14584097 0.1269263 0.3473841 0.0022039921 357 42
0.14770816 0.1270159 0.34745255 0.0023171292 333 37
0.14949773 0.12703744 0.34738034 0.0023665684 322 34
0.15175049 0.12744747 0.34841666 0.0024977899 325 35
0.15296194 0.1269836 0.34711105 0.0024498675 311 31
0.15427591 0.12661442 0.34611189 0.0024823872 301 29
0.15546902 0.1261555 0.34491482 0.0025200963 295 27
0.15929872 0.12782246 0.34957826 0.0028650532 261 19
0.1609119 0.12769368 0.34937957 0.002893572 262 19
0.16249402 0.12754336 0.3491686 0.0028018213 259 18
0.16331431 0.12680474 0.34739184 0.0029426725 236 13
0.16429357 0.126204 0.34603536 0.0028951727 239 13
0.16642076 0.12648843 0.34714958 0.0031973869 232 12
0.16803817 0.12638351 0.34723911 0.00309974 223 9
0.17009191 0.12660554 0.34826967 0.0031919824 216 8
0.17231356 0.12694673 0.34967124 0.0033658498 202 4
0.1737124 0.12668097 0.34944147 0.0034294773 192 2
0.17436877 0.12588452 0.34778231 0.0033014636 205 5
0.17500944 0.12509266 0.3461664 0.0036096151 197 3
0.17445619 0.12347136 0.34227973 0.0036907818 174 0
0.17737924 0.12431801 0.34526551 0.0038632669 164 0
0.1795221 0.12460683 0.34674135 0.0042557893 141 0
0.18101519 0.12444343 0.34699181 0.0047119977 143 0
-0.19596842 0.12094294 0.34179765 0.0041368315 155 0
-0.19510028 0.12143386 0.34331363 0.0046142661 146 0
-0.19335102 0.12138011 0.34294051 0.0040787649 153 0
-0.19238202 0.12181945 0.34370759 0.0042220904 163 0
-0.19018322 0.12148096 0.34211147 0.0040026936 161 0
-0.19024526 0.12259337 0.34449276 0.0041621714 153 0
-0.18864112 0.12264235 0.34382063 0.00395827 169 0
-0.18798417 0.12331354 0.34486175 0.0042764405 160 0
-0.18729371 0.12397473 0.34586015 0.0039895889 160 0
-0.18482459 0.1234599 0.34358445 0.0036900735 176 0
-0.18550667 0.12505996 0.3472034 0.0038953486 164 0
-0.18377452 0.1250471 0.34635517 0.0037857196 168 0
-0.18219411 0.12513825 0.34581932 0.0040282225 172 0
-0.18041159 0.12509099 0.34492779 0.0037626557 171 0
-0.17915323 0.12540972 0.34507248 0.0036483402 190 1
-0.17796065 0.12578112 0.34538841 0.0037062871 176 0
-0.17717984 0.12645368 0.34655714 0.004006729 173 0
-0.17462072 0.12585779 0.34428188 0.0037681479 190 1
-0.17325403 0.12611805 0.34438425 0.0036108638 184 0
-0.17274447 0.12701373 0.34625161 0.0034346243 195 2
-0.17234857 0.12801212 0.34842709 0.0034453589 205 5
-0.17075086 0.12812915 0.34823704 0.0034097976 194 2
-0.16782062 0.12723836 0.34534976 0.0037146206 195 2
-0.16574138 0.12698084 0.34422556 0.0032708547 203 4
-0.16479567 0.1275955 0.34550568 0.0033235331 202 4
-0.16377941 0.12816815 0.34671083 0.003353813 216 8
-0.1628741 0.12884097 0.34822726 0.0032386305 221 9
-0.16004319 0.12798861 0.34566611 0.0029866318 235 12
-0.15828919 0.12798813 0.34545237 0.003024905 226 10
-0.15716031 0.12849873 0.346663 0.0028990407 244 15
-0.15501355 0.12817922 0.34568009 0.0027235441 263 19
-0.15262568 0.12765077 0.34418061 0.0026096029 281 24
-0.15170868 0.12835447 0.34605002 0.0026013933 287 25
-0.14919269 0.12770599 0.34432009 0.0026350652 296 27
-0.14790317 0.12810443 0.34545907 0.0025546669 295 27
-0.14600532 0.12797917 0.34523141 0.0023750593 322 34
-0.14419721 0.12793054 0.34525511 0.0025097306 297 28
-0.14297931 0.12841073 0.34675038 0.0025243703 290 26
-0.14136514 0.1285426 0.34734857 0.0023719089 320 33
-0.13950481 0.12845112 0.34738445 0.0023144125 335 37
-0.13791785 0.12861222 0.34814283 0.0023654257 350 41
-0.13626605 0.12871626 0.34878474 0.0022868647 339 38
-0.13441706 0.12863432 0.34895781 0.0021928328 360 43
-0.13200977 0.12800881 0.34768662 0.0020899661 387 50
-0.12984908 0.12760882 0.34705457 0.0022204721 354 42
-0.12754424 0.12705432 0.34602594 0.0021853538 364 44
-0.12520313 0.1264478 0.34487575 0.0020872261 393 51
-0.12348292 0.12646016 0.34543279 0.0021387236 393 51
-0.12178028 0.12649116 0.34605977 0.0021329969 376 47
-0.12049624 0.12696406 0.34791422 0.0021403846 390 51
-0.11834519 0.12652394 0.34728053 0.0020342462 403 54
-0.11637776 0.12626994 0.34716552 0.0020233912 404 54
-0.11424913 0.1258307 0.34654665 0.0020283924 403 54
-0.11250374 0.12580661 0.34707513 0.0021000335 410 56
-0.11039843 0.12537301 0.34647569 0.0021372901 399 53
-0.10859261 0.12527117 0.34679249 0.0020806913 420 58
-0.10692909 0.12533291 0.34756196 0.0019602703 427 60
-0.10529239 0.12542854 0.34842461 0.0020219181 418 58
-0.10355619 0.12540689 0.34895846 0.0019946718 418 58
-0.10119873 0.12461949 0.34735301 0.0020828045 423 59
-0.099034958 0.12404764 0.34633607 0.0019850263 414 57
-0.097253293 0.12394281 0.34661278 0.001928008 435 62
-0.095692068 0.12412016 0.347671 0.0019129214 439 63
-0.093705274 0.12374197 0.34716314 0.002017685 398 53
-0.09198074 0.12370256 0.3475942 0.00203963 411 56
-0.090309344 0.12373444 0.34821522 0.002119133 401 53
-0.088466622 0.1235283 0.34815481 0.002067572 407 55
-0.086454466 0.12307295 0.34737781 0.0020576799 419 58
-0.084630661 0.12287296 0.34730724 0.0020074898 407 55
-0.082710728 0.12252244 0.34679708 0.0020157185 408 55
-0.081047073 0.1225449 0.34732908 0.0020592057 416 57
-0.079432696 0.12264439 0.34806752 0.0021598875 401 53
-0.077639706 0.12246644 0.34800583 0.0019730914 423 59
-0.075814053 0.12222797 0.34775811 0.0019695836 419 58
-0.073982954 0.12196976 0.34743997 0.0020938772 415 57
-0.072226137 0.12182489 0.34743074 0.002019248 403 54
-0.070510164 0.1217437 0.34758994 0.0020241495 402 54
-0.06875588 0.12159083 0.34753129 0.0021694829 392 51
-0.066830225 0.12111977 0.34654906 0.0020113622 414 57
-0.064977743 0.12076073 0.3458727 0.0019664569 419 58
-0.06337738 0.12086373 0.34650701 0.0019486286 428 60
-0.061682951 0.12078806 0.34661728 0.0020678206 423 59
-0.060126271 0.12098539 0.34749961 0.0020237118 423 59
-0.058556583 0.12116699 0.34832618 0.0020116228 408 55
-0.056982365 0.12134954 0.34914505 0.0019709764 420 58
-0.055242389 0.12117945 0.34893814 0.0020523611 408 55
-0.05365704 0.12134853 0.34969687 0.0020770512 412 56
-0.051727738 0.12072568 0.34816176 0.0019988285 418 58
-0.049841601 0.12016572 0.3467949 0.0020705324 401 53
-0.048336931 0.12051868 0.34805191 0.0019979498 412 56
-0.046665598 0.12046632 0.34812886 0.0019852621 412 56
-0.044924129 0.12022246 0.34764192 0.0020887139 384 49
-0.04321016 0.12003641 0.34731162 0.0020520282 395 52
-0.041509975 0.11987545 0.34704387 0.0019962611 415 57
-0.039881285 0.11991622 0.34735054 0.0020207777 409 55
-0.038197048 0.11978626 0.34715343 0.0020145306 424 59
-0.036637742 0.12005404 0.34810016 0.0019990117 422 58
-0.034953009 0.11991667 0.34786361 0.0019002245 447 65
-0.033234257 0.11964326 0.34722322 0.001941959 432 61
-0.031635191 0.11979475 0.34780732 0.0020600264 411 56
-0.030017633 0.11988891 0.34821701 0.0020037161 412 56
-0.02838615 0.11993517 0.34847954 0.0020048234 410 56
-0.026738562 0.11991486 0.34854066 0.0019703594 424 59
-0.025052126 0.11970628 0.34804651 0.0019548938 428 60
-0.023360154 0.11944017 0.34737688 0.0021891773 398 53
-0.021721123 0.11942505 0.34742942 0.0020958569 416 57
-0.020061597 0.11928561 0.34711266 0.001954939 429 60
-0.018400105 0.11910872 0.34667936 0.0019948843 416 57
-0.016882777 0.11992142 0.34911945 0.0019660718 425 59
-0.015278328 0.12022376 0.35006732 0.0019607111 427 60
-0.013592119 0.11987811 0.34912109 0.0019237834 439 63
-0.011906982 0.1194482 0.34792215 0.001960533 428 60
-0.010239716 0.1190891 0.34692216 0.0020725527 431 61
-0.0086108632 0.11912533 0.34706673 0.0020056067 443 64
-0.0069758701 0.1190737 0.34694853 0.0020160857 425 59
-0.0053490265 0.11917212 0.34726074 0.0019500975 429 60
-0.0037156083 0.11914616 0.34720382 0.0019715799 438 62
-0.0020886289 0.11944779 0.34809476 0.0019357611 438 62
-0.00045246296 0.1195058 0.34826913 0.0019058001 441 63
0.0011852415 0.11955867 0.34842163 0.0019257113 438 62
0.0028222692 0.11952153 0.34830517 0.001921245 441 63
0.0044603865 0.11954086 0.34834644 0.0020024269 430 60
0.0061241719 0.120053 0.34981701 0.001867375 456 67
0.0077812322 0.12024435 0.35034576 0.001859354 464 69
0.0093571311 0.11933377 0.34765741 0.0018677996 455 67
0.011054094 0.12000839 0.34958026 0.0018481729 478 72
0.012620778 0.11927707 0.34740087 0.0018166059 491 76
0.014222032 0.11900268 0.3465457 0.0017803858 496 77
0.015901163 0.11936934 0.34755021 0.0019022095 449 65
0.017557371 0.11951157 0.34789392 0.0018710446 455 67
0.019233461 0.11975335 0.34851986 0.0019032859 443 64
0.020828392 0.11949152 0.34767294 0.0018536048 464 69
0.022445334 0.11938491 0.34727043 0.0018885998 473 71
0.024066754 0.11931497 0.34696716 0.0019234838 448 65
0.025726493 0.11943185 0.34719956 0.0018575272 462 68
0.027371779 0.11947166 0.34719992 0.0018989831 441 63
0.029048713 0.1196373 0.34755787 0.001882481 450 65
0.030779731 0.11999611 0.34846836 0.0019611758 452 66
0.032463972 0.1201454 0.34876165 0.0018620057 457 67
0.033879269 0.119333 0.34625569 0.0018286188 471 71
0.035568886 0.11951715 0.34663364 0.0018652319 490 75
0.037432391 0.12024368 0.34857467 0.001920545 458 67
0.039051313 0.12015639 0.34814674 0.0020366758 438 62
0.040845662 0.12059411 0.34923041 0.001950308 432 61
0.042425334 0.12038862 0.34844172 0.001876172 455 67
0.044177357 0.12066927 0.34905055 0.0019394509 434 61
0.045849107 0.12071832 0.3489792 0.0019129022 471 71
0.047449876 0.12058356 0.34836677 0.0017996976 480 73
0.049058389 0.12047692 0.347826 0.0018649556 454 66
0.050645895 0.12032729 0.3471514 0.0017775627 495 77
0.052489739 0.12077691 0.34819457 0.0017917397 486 74
0.054334894 0.12120199 0.34915447 0.0018193545 480 73
0.056067765 0.1213588 0.3493295 0.0017609245 501 78
0.057555143 0.12099055 0.34798241 0.0017660194 496 77
0.059083894 0.12072741 0.34692803 0.0018057362 478 72
0.060882661 0.12101535 0.34744564 0.0018125576 482 73
0.062749907 0.12142051 0.34828651 0.0018712062 460 68
0.064274825 0.12115944 0.34720412 0.0018564998 463 69
0.066231593 0.12170507 0.34842068 0.001982043 457 67
0.06792099 0.12174466 0.34817481 0.0018311065 475 72
0.069638774 0.12183202 0.34805289 0.0018094354 484 74
0.071426444 0.1220347 0.34824711 0.0017737058 511 80
0.073102973 0.12204254 0.34787229 0.0018047839 510 80
0.074817672 0.12211235 0.3476612 0.0017545602 501 78
0.07664445 0.12235802 0.34793723 0.0017895588 492 76
0.078554869 0.12272383 0.34854013 0.0018290412 473 71
0.080518954 0.12315641 0.34931722 0.0018617387 458 67
0.082268119 0.12324926 0.34911627 0.0017906242 502 78
0.083575033 0.12268915 0.34705523 0.0018164342 514 81
0.085155271 0.12254445 0.34615982 0.0017314564 515 81
0.087085411 0.12289914 0.34666249 0.0017590872 510 80
0.089323334 0.12366649 0.34831294 0.0017876381 487 75
0.091132574 0.12382283 0.34822741 0.0017909616 515 81
0.09281572 0.12380524 0.34764156 0.0018115874 485 74
0.094931781 0.12435541 0.3486374 0.0017755277 491 76
0.096872546 0.12466059 0.34893325 0.0017783883 516 82
0.098481141 0.12453513 0.34801432 0.0017972676 521 83
0.099997304 0.12429906 0.34678024 0.0016424329 555 91
0.10200911 0.12467665 0.34725094 0.0016971614 531 85
0.10410754 0.12514597 0.34796783 0.0017999001 510 80
0.10593678 0.12528174 0.34775022 0.0017475829 508 80
0.10761379 0.125236 0.3470259 0.0017454231 526 84
0.10957196 0.12551378 0.34719592 0.0016549358 549 90
0.11153529 0.12578875 0.3473565 0.0017009005 532 86
0.11362114 0.12619148 0.34786949 0.0018051529 496 77
0.11568222 0.12655501 0.34827575 0.0017351599 512 81
0.11768455 0.12684451 0.34848249 0.0017803446 487 75
0.11951924 0.12694751 0.34818479 0.0017749645 497 77
0.12117936 0.12686479 0.34738976 0.0018275415 472 71
0.12300992 0.12696034 0.34709769 0.0019265107 458 67
0.12481807 0.12703039 0.34675273 0.0017896662 494 76
0.1269708 0.1274444 0.34736484 0.0018634712 461 68
0.12925866 0.12798096 0.34833038 0.0019714509 433 61
0.13065782 0.12763503 0.34691903 0.0018330257 466 69
0.13262011 0.12784107 0.34703699 0.0018957197 456 67
0.13456716 0.12802723 0.34713089 0.0018845682 451 66
0.13682666 0.12850207 0.348039 0.002129101 407 55
0.13809261 0.12804358 0.34645519 0.0020235886 401 53
0.14062886 0.12875965 0.34808704 0.0020961044 385 49
0.14219482 0.12858063 0.34733787 0.002126825 373 46
0.14386873 0.1285024 0.34690329 0.0022407002 351 41
0.14555939 0.12844083 0.3465572 0.0024809102 323 34
0.14746176 0.1285653 0.34675744 0.0025445544 303 29
0.15004203 0.12927091 0.34856978 0.0026577797 306 30
0.15187748 0.12932582 0.34867337 0.0024418989 304 29
0.15304682 0.12881881 0.3473087 0.0024514829 306 30
0.15422365 0.12832959 0.34603855 0.0025538788 295 27
0.15691903 0.12910075 0.34821397 0.0027402653 282 24
0.15883842 0.12922341 0.34868765 0.0026900736 270 21
0.16077201 0.12935477 0.34923148 0.0028363396 253 17
0.16198246 0.12890778 0.34825897 0.002831497 253 17
0.1635433 0.1287463 0.34810168 0.0031411964 238 13
0.16422343 0.12790233 0.34614068 0.0032068668 219 8
0.16582501 0.12778625 0.34618995 0.0030090001 234 12
0.1682858 0.1283278 0.34806412 0.0034108562 217 8
0.17000946 0.12830184 0.34844163 0.0034065847 210 6
0.17201409 0.12848631 0.3494311 0.0033275359 202 4
0.17349294 0.12827829 0.3493917 0.0034938292 188 1
0.17433381 0.12760743 0.34812555 0.003571942 184 0
0.17436722 0.12636474 0.34532678 0.0036940486 191 1
0.1754607 0.12590715 0.34470016 0.0039036081 179 0
0.17765169 0.12623838 0.34626582 0.0041189524 161 0
0.17944759 0.12628518 0.34708577 0.0043675527 139 0
0.18379 0.12810606 0.35282326 0.004421887 141 0
-0.1977566 0.12371852 0.34461609 0.0041306708 154 0
-0.19421533 0.1225391 0.34172368 0.0042553851 149 0
-0.19265291 0.1225987 0.34187639 0.0042386642 151 0
-0.19149871 0.12292133 0.34245393 0.0041205799 156 0
-0.19135167 0.12390178 0.34464261 0.0041813776 151 0
-0.18923725 0.1236144 0.34316024 0.0042480584 160 0
-0.18793471 0.12385693 0.34306431 0.0040690154 160 0
-0.18672447 0.12416524 0.34310234 0.0040019238 160 0
-0.18606542 0.12484895 0.34415337 0.0045281835 145 0
-0.18577392 0.12579408 0.34591365 0.0038722183 166 0
-0.18490984 0.12636536 0.34664682 0.0038077189 169 0
-0.18390179 0.126848 0.34714779 0.0043500783 149 0
-0.18155634 0.12640855 0.34514749 0.0040397299 164 0
-0.18006116 0.12655835 0.34478328 0.0038870228 163 0
-0.17967989 0.1275015 0.34660098 0.0039452408 162 0
-0.17870098 0.12803471 0.34732482 0.0040242784 168 0
-0.1746127 0.12632878 0.34201124 0.004077523 177 0
-0.17341253 0.12669925 0.3423577 0.0035181744 190 1
-0.17304371 0.12769061 0.34440738 0.0035503285 183 0
-0.1728335 0.12882014 0.34685346 0.0039670127 183 0
-0.1723382 0.12975802 0.34880948 0.0037600042 189 1
-0.17019059 0.12945829 0.34747237 0.0033367733 201 4
-0.16812399 0.12921463 0.34632558 0.0034584929 193 2
-0.1664634 0.12928118 0.34604964 0.0035641775 196 3
-0.16404426 0.12875375 0.34422508 0.0032941601 206 5
-0.16314475 0.12942053 0.34563372 0.0031301354 219 8
-0.16224362 0.13010046 0.34711558 0.0032609026 221 9
-0.15987802 0.12960808 0.34551191 0.0031048611 219 8
-0.15781048 0.12934913 0.34457576 0.0030424162 230 11
-0.1571358 0.13023877 0.34674281 0.0031045259 231 11
-0.15570673 0.13051626 0.34732324 0.0031067804 238 13
-0.15322921 0.12991121 0.34560093 0.0028362707 257 18
-0.15029688 0.12890205 0.34285024 0.0026990217 267 20
-0.14936903 0.12960854 0.34470844 0.0026226928 288 25
-0.14819017 0.13011138 0.34607053 0.0024396193 306 30
-0.14641945 0.13010043 0.34611124 0.0024283878 315 32
-0.14465599 0.13009574 0.34621334 0.0025548928 291 26
-0.14289415 0.13009238 0.34636268 0.0025139842 295 27
-0.14135577 0.13029493 0.34710339 0.0024607459 303 29
-0.13957067 0.13027233 0.34728605 0.0024879712 311 31
-0.13778441 0.13024803 0.34750393 0.0023462523 327 35
-0.13604951 0.13027227 0.34788945 0.0024498615 328 35
