# .PCD v0.7 - Point Cloud Data file format
VERSION 0.7
FIELDS x y z noise intensity gray
SIZE 4 4 4 4 2 1
TYPE F F F F U U
COUNT 1 1 1 1 1 1
WIDTH 862
HEIGHT 1
VIEWPOINT 0 0 0 1 0 0 0
POINTS 862
DATA ascii
0.048017565 0.077676982 0.42111394 0.0013333103 834 173
0.04989868 0.077582054 0.42054716 0.0013022916 805 166
0.051885784 0.077652842 0.42087367 0.00138055 786 161
0.053963732 0.077849589 0.42187741 0.0013192385 783 160
0.055898212 0.07783287 0.42171869 0.0013796968 802 165
0.057806123 0.077781521 0.42136645 0.0013934852 783 160
0.059887495 0.077959314 0.42224908 0.0014117657 743 150
0.061668944 0.077747785 0.4210164 0.0012908059 866 181
0.063581571 0.077709511 0.42071518 0.0012561594 853 178
0.065476879 0.077652976 0.42030782 0.0012843754 822 170
0.067586415 0.077846445 0.42124572 0.0013961265 757 153
0.069632903 0.07795848 0.42173433 0.0015426846 668 130
0.071758732 0.078150839 0.4226484 0.0015885414 609 115
0.073758379 0.0781992 0.42277431 0.0015095702 641 123
0.075729221 0.078215338 0.42271623 0.0014508488 677 132
0.077718817 0.078249522 0.42274591 0.0014621431 668 130
0.079737268 0.078310378 0.42290905 0.0014660815 663 129
0.081772633 0.078384526 0.42313287 0.0015712023 648 125
0.083857171 0.078501239 0.42357472 0.0015058672 641 123
0.085876092 0.078552581 0.42365173 0.0015358995 619 117
0.087737575 0.078460857 0.42294499 0.0015147964 638 122
0.089591756 0.078366742 0.42221311 0.0015089875 638 122
0.091595486 0.078404665 0.42217973 0.0015007334 640 123
0.093696259 0.078522339 0.4225615 0.0014439668 679 133
0.095767774 0.078611165 0.42277321 0.0015045578 648 125
0.097921282 0.07876236 0.42330486 0.0015620434 654 126
0.10010071 0.078928024 0.42389777 0.0015130156 661 128
0.1019159 0.078805663 0.42292789 0.0014870516 648 125
0.10415225 0.079007402 0.42368075 0.0015286893 639 123
0.10615134 0.079025008 0.42342839 0.0014971737 645 124
0.10814274 0.079036362 0.42312512 0.0014687378 660 128
0.11026621 0.079142086 0.42330855 0.0014674906 665 129
0.11248443 0.079310894 0.42380956 0.0015621316 660 128
0.11452643 0.079351753 0.42360681 0.0014990149 680 133
0.11628441 0.079197794 0.42234519 0.0014191219 703 139
0.1185177 0.07936728 0.42278838 0.0014373657 692 136
0.12039005 0.079293452 0.42191434 0.0015241593 677 132
0.12286349 0.079611503 0.42310289 0.0015337592 664 129
0.12495274 0.079674445 0.42291176 0.0014282233 703 139
0.12679875 0.079582736 0.42187795 0.0014526027 673 131
0.12901413 0.079722129 0.42204642 0.0014703423 711 141
0.13139361 0.07995712 0.42269546 0.0014600047 713 142
0.13375586 0.080174752 0.42322612 0.0014111169 712 141
0.13556588 0.080059826 0.42197689 0.0014145643 733 147
0.13771811 0.080147393 0.42177147 0.001361844 740 149
0.13993962 0.080272198 0.42173606 0.0013312367 779 159
0.14261243 0.080648683 0.42299449 0.0013700592 787 161
0.14471619 0.080697358 0.42250541 0.0013232591 781 159
0.1466828 0.080669269 0.42159015 0.0013012011 801 165
0.14899994 0.080832094 0.42164728 0.0013428044 772 157
0.15139876 0.081034288 0.42188248 0.0013299218 784 160
0.15362041 0.08113756 0.42157641 0.00132256 789 161
0.15575494 0.081192732 0.42099616 0.0013771171 765 155
0.15822643 0.08141987 0.42128286 0.001339481 769 156
0.16077629 0.081681058 0.42171985 0.0013760214 781 159
0.1630145 0.081779346 0.42129251 0.0013153835 785 160
0.16527383 0.081885658 0.42088661 0.0013617765 794 163
0.16822611 0.082328513 0.42218846 0.0013479345 768 156
0.17059843 0.082480244 0.42197716 0.0013557548 760 154
0.17289694 0.082593091 0.42155328 0.0013614725 748 151
0.17539762 0.082798712 0.42159176 0.0013889062 730 146
0.17800783 0.083050646 0.42185673 0.0013856598 727 145
0.18053396 0.083257996 0.42188984 0.0014955071 675 132
0.18278682 0.083336018 0.42126912 0.0014675094 657 127
0.18522339 0.083495103 0.42106497 0.0014965819 679 133
0.18803543 0.083818004 0.42169631 0.0014892443 650 125
0.19058387 0.084017575 0.42172185 0.0014852915 654 126
0.1933413 0.084303945 0.42220429 0.0015451339 611 115
0.1956014 0.084369607 0.42161068 0.0016349155 584 108
0.19774532 0.084384285 0.42080104 0.0016817705 555 101
0.20026621 0.084557824 0.42082742 0.001635854 553 100
0.203205 0.084902346 0.42175186 0.0016980122 525 93
0.2057175 0.085063472 0.421819 0.0018083306 503 87
0.20861171 0.085377529 0.42270461 0.0017377574 507 88
0.21104725 0.085499391 0.42270449 0.0017775312 490 84
0.21332286 0.085554674 0.42244786 0.0018844735 446 73
0.21562512 0.08561945 0.42231497 0.0021290916 391 58
0.21781696 0.085639536 0.42204201 0.0021764955 388 58
0.21980381 0.08557941 0.42145684 0.0021076659 380 56
0.22201633 0.085607469 0.42139062 0.0022387865 381 56
0.2238518 0.085490994 0.42069849 0.0022377956 386 57
-0.25200304 0.087344892 0.4257623 0.0032594448 212 12
-0.24891944 0.087011769 0.42324987 0.003186791 208 11
-0.24718478 0.087148525 0.42308068 0.0030074846 241 20
-0.24439374 0.086911947 0.42115837 0.0028365897 248 21
-0.24363346 0.087399766 0.42280549 0.0028536408 245 21
-0.24189331 0.08754155 0.42283785 0.0027790684 255 23
-0.24072638 0.08789517 0.42395714 0.0027914594 253 23
-0.23917438 0.088113293 0.42448938 0.0026637397 266 26
-0.23747292 0.088279814 0.42484418 0.0026754104 271 27
-0.23541641 0.088316157 0.42464751 0.002616219 280 30
-0.23295449 0.088199705 0.42379469 0.0027167487 298 34
-0.23087941 0.088228896 0.42372259 0.0025361958 326 42
-0.22936025 0.088473082 0.42476505 0.0023561204 325 41
-0.22625348 0.088103697 0.42294559 0.0023540403 325 41
-0.22417802 0.08813265 0.42312342 0.002393655 330 43
-0.22198632 0.088116042 0.42316762 0.0023336294 351 48
-0.21921375 0.087866269 0.42217663 0.0023598962 358 50
-0.21705788 0.08786121 0.42244461 0.0021897224 389 58
-0.21474172 0.087790504 0.42247903 0.0022494833 386 57
-0.21270198 0.087832525 0.42313591 0.0020472154 396 60
-0.21023396 0.087696753 0.42301247 0.0020789928 429 68
-0.20807718 0.087689333 0.42358041 0.0020621906 427 68
-0.20595299 0.087695658 0.42428333 0.0020175043 429 68
-0.20365041 0.087625355 0.42467836 0.0019411445 434 70
-0.20063522 0.087243699 0.42361835 0.0018667293 477 81
-0.19958906 0.087719232 0.42677334 0.0018282231 463 77
-0.19551009 0.086857721 0.42346507 0.0017566315 498 86
-0.19298044 0.086673163 0.42348561 0.0016394722 547 99
-0.19084802 0.086664915 0.42439845 0.0016653241 547 99
-0.18827382 0.086453609 0.42434108 0.0016905351 532 95
-0.18548526 0.086137973 0.42378628 0.0016735574 540 97
-0.18291299 0.085916705 0.42370448 0.0016987801 567 104
-0.18036518 0.08570192 0.42365927 0.0016114695 567 104
-0.17792481 0.08553376 0.42384464 0.001581692 587 109
-0.17535914 0.085300647 0.42370373 0.0015999771 597 112
-0.17266698 0.084999666 0.42321575 0.0014907275 649 125
-0.17028809 0.084847465 0.42345589 0.0015304954 617 117
-0.16804822 0.084761634 0.42401406 0.0015708526 598 112
-0.16566458 0.084600247 0.42417833 0.0015217076 619 117
-0.16334413 0.084467471 0.42446712 0.0015329978 662 129
-0.16095197 0.084293745 0.42452934 0.0015488485 607 114
-0.15841864 0.084040627 0.42416781 0.0015308587 621 118
-0.15581299 0.083742008 0.42355034 0.0015915437 636 122
-0.15334919 0.083512701 0.42325616 0.0015896964 635 122
-0.1509133 0.083292618 0.42298186 0.0015847704 639 123
-0.14881146 0.083253428 0.42360055 0.001525981 617 117
-0.1470425 0.083401956 0.4251518 0.0015408261 609 115
-0.14508821 0.083448067 0.42615891 0.0016146158 591 110
-0.14180039 0.082717583 0.42316979 0.0015822378 594 111
-0.13977717 0.082714342 0.4238705 0.0015480989 627 120
-0.13748395 0.082548894 0.42371458 0.0015798155 623 118
-0.13546343 0.082544707 0.42436093 0.0015222877 632 121
-0.13330013 0.082452066 0.42452821 0.0015638052 602 113
-0.13060522 0.082022749 0.42293456 0.0014807534 653 126
-0.12842344 0.08190731 0.42293224 0.0014919426 661 128
-0.1260622 0.081671968 0.42228571 0.0015258985 634 121
-0.12400313 0.081627987 0.42260453 0.0013672931 746 150
-0.12111644 0.081028864 0.4200232 0.0012996931 810 167
-0.1194212 0.081220202 0.42151558 0.0013386501 769 156
-0.11740642 0.081197001 0.4218747 0.0012795216 834 173
-0.11530863 0.081114605 0.4219054 0.0013422845 838 174
-0.11286646 0.080782853 0.42061707 0.0012800423 829 172
-0.11080299 0.080715157 0.42068228 0.001283808 827 171
-0.10888173 0.080750503 0.42126557 0.0013345501 770 156
-0.10732213 0.081060298 0.42326415 0.0013446746 766 155
-0.10524669 0.080984809 0.42323428 0.0013155024 795 163
-0.10272313 0.080555014 0.42133337 0.001295098 805 166
-0.10098656 0.080737635 0.42261794 0.0013283388 793 162
-0.099084631 0.080792703 0.42321956 0.0013001502 813 168
-0.097171515 0.080840692 0.42376894 0.0013684316 755 153
-0.094996192 0.08066801 0.42314598 0.0013255249 774 158
-0.092992887 0.080637179 0.42325181 0.0013948329 723 144
-0.091156334 0.080752753 0.42411217 0.0013838129 735 147
-0.089078009 0.080654509 0.42383599 0.0013699637 752 152
-0.087088332 0.080633901 0.4239544 0.0013620271 759 154
-0.085002102 0.080520891 0.42357394 0.0014165875 738 148
-0.082929358 0.080415606 0.42322147 0.0013660521 745 150
-0.080845699 0.080294386 0.42277279 0.0013962426 751 152
-0.0787936 0.080199257 0.42244992 0.0013203445 789 161
-0.076991193 0.080359906 0.42346373 0.0013204704 792 162
-0.074861802 0.080178745 0.42266598 0.0013554255 765 155
-0.07283663 0.080102481 0.42241091 0.0013147095 791 162
-0.070854507 0.08007066 0.42238057 0.0013368319 798 164
-0.068964936 0.080144592 0.42289916 0.0013355969 778 159
-0.067092389 0.080243193 0.42353964 0.0013367002 768 156
-0.065176822 0.080294721 0.4239237 0.0013743688 744 150
-0.063153371 0.080212407 0.42359322 0.0015067421 688 135
-0.061104648 0.08009173 0.42305252 0.0014182819 708 140
-0.059119217 0.080048762 0.42291507 0.001362311 754 152
-0.057102308 0.079958789 0.42252249 0.0014063937 755 153
-0.055130679 0.079928093 0.42243671 0.0013718866 790 162
-0.053251944 0.080034755 0.42307103 0.0013995257 732 147
-0.051391412 0.080177948 0.423893 0.0013595619 752 152
-0.049342833 0.080027476 0.42315716 0.0013686278 753 152
-0.047367208 0.079987809 0.42300206 0.0013840183 767 156
-0.045389183 0.079940505 0.42280182 0.0013238757 803 165
-0.043448713 0.079958051 0.42294031 0.0013513523 752 152
-0.041605849 0.080165341 0.42407835 0.0013547379 758 153
-0.03962246 0.080108941 0.42381778 0.0014197461 735 147
-0.037566464 0.079892293 0.42270571 0.0013586597 754 152
-0.035578415 0.079804324 0.42227107 0.0013660971 759 154
-0.033737611 0.080055587 0.42362845 0.0013948925 746 150
-0.031772166 0.08002378 0.42348507 0.0013540717 774 158
-0.029857472 0.080123991 0.42403781 0.0013502717 763 155
-0.027848393 0.079967253 0.42322823 0.0014245211 755 153
-0.025885789 0.07993038 0.42305076 0.0014329727 754 152
-0.023896663 0.079798929 0.4223707 0.0013027898 810 167
-0.021906169 0.079639211 0.4215391 0.0012836023 834 173
-0.02005345 0.079998001 0.42345032 0.0013716952 777 158
-0.018107817 0.080023549 0.42359608 0.0013443358 765 155
-0.016162457 0.080056638 0.42378035 0.001306943 821 170
-0.014212139 0.080070861 0.42386341 0.0013493489 756 153
-0.012251181 0.080020137 0.42360148 0.0013678134 762 154
-0.01028232 0.079888776 0.42291147 0.0013023526 807 166
-0.0083099511 0.07966236 0.4217172 0.0012547196 859 180
-0.0063781105 0.07980483 0.42247474 0.0012556909 871 183
-0.0044270307 0.079725996 0.42205989 0.0012977094 811 167
-0.0024783381 0.079600282 0.42139596 0.0012970356 815 168
-0.00053627702 0.079548568 0.42112282 0.0013469791 801 165
0.0014031334 0.079489619 0.42081049 0.0013663752 764 155
0.0033360515 0.079344653 0.4200421 0.0013806333 730 146
0.0052583339 0.07914605 0.41898873 0.0013045255 797 163
0.0071683326 0.078918889 0.41778341 0.0013382533 792 162
0.0090990448 0.078967676 0.41803789 0.001354728 752 152
0.011001606 0.078797787 0.41713372 0.0013968182 743 150
0.012915695 0.078748718 0.41686818 0.001406344 711 141
0.014832235 0.07872536 0.41673759 0.0013998188 768 156
0.016844535 0.079157367 0.41901612 0.0014006157 717 143
0.01895177 0.079900764 0.4229416 0.0014742163 682 134
0.020888548 0.079853877 0.42268226 0.0015529374 660 128
0.022835063 0.079849042 0.42264375 0.0014479246 679 133
0.024748629 0.079738803 0.42204574 0.0013780596 735 147
0.026756812 0.079927273 0.42302665 0.0013260944 785 160
0.028740045 0.080020659 0.42350224 0.0012760554 835 173
0.03071152 0.080071524 0.42375046 0.0012654082 853 178
0.032737877 0.080250844 0.42467579 0.0013109373 830 172
0.034623608 0.080084652 0.42377013 0.0013030001 806 166
0.036460411 0.079829082 0.4223887 0.0013114028 793 162
0.038317904 0.079642437 0.42136893 0.0014100507 755 153
0.04025951 0.079640195 0.42132151 0.0012996076 839 174
0.042248301 0.079727188 0.42174253 0.0012925896 823 170
0.044214904 0.079766512 0.42190731 0.0012571833 857 179
0.046204649 0.079842508 0.4222618 0.0013303668 818 169
0.048097987 0.079752505 0.42173389 0.0013107619 798 164
0.049938891 0.079585925 0.42079654 0.0012650538 884 186
0.051900622 0.079617172 0.42090002 0.001257082 853 178
0.053985536 0.079828322 0.42194897 0.0013327713 847 176
0.055884387 0.079759218 0.42151079 0.0012956993 877 184
0.057829175 0.0797581 0.42142588 0.0012786429 859 180
0.059826337 0.079826951 0.42170414 0.001333506 840 175
0.061798777 0.07985951 0.42178369 0.0013024169 798 164
0.063496925 0.079546459 0.42003116 0.0013207637 786 161
0.065553702 0.079687953 0.4206714 0.0014325801 688 135
0.067814484 0.080062106 0.42253122 0.0015261547 621 118
0.069664963 0.079944491 0.42178699 0.0014848029 654 126
0.071700513 0.080039851 0.4221577 0.0014914182 646 124
0.073732316 0.080126114 0.42247099 0.0014533299 678 133
0.075726725 0.080168322 0.42254212 0.0014533045 663 129
0.077679835 0.080165781 0.42236727 0.0014800805 651 126
0.079672053 0.080202743 0.42239007 0.0014744329 655 127
0.08177793 0.080349602 0.42298022 0.0015047707 635 122
0.083781645 0.080391549 0.4230063 0.0015319248 636 122
0.085827239 0.080470853 0.42321676 0.0015624732 641 123
0.08795394 0.080620952 0.42378661 0.0014894364 650 125
0.089935273 0.080634147 0.4236235 0.0015079565 640 123
0.091839783 0.080579385 0.42309013 0.0015246167 635 122
0.093928598 0.080685228 0.42338601 0.0014498513 673 131
0.095886283 0.080676392 0.42306554 0.0015097073 632 121
0.098132789 0.080906048 0.42398006 0.001487895 651 126
0.10014541 0.080937609 0.42384025 0.001532048 666 130
0.10210892 0.080929033 0.42347416 0.0015416591 602 113
0.10368783 0.080621734 0.42152989 0.0015422368 616 117
0.10596061 0.080855355 0.42239726 0.0014758038 661 128
0.10812031 0.080995716 0.42275831 0.0015287168 678 133
0.11036526 0.08119376 0.42340082 0.0014883693 638 122
0.11247377 0.081286229 0.42347288 0.0014485498 695 137
0.11448319 0.081305094 0.42314187 0.0013587428 752 152
0.1167492 0.08150246 0.42371908 0.0013957773 721 144
0.11851748 0.081351563 0.42246547 0.0014095635 701 139
0.12068494 0.081475116 0.4226166 0.0014615902 695 137
0.12275051 0.08152701 0.42237383 0.0014399022 675 132
0.12490926 0.081638142 0.42241541 0.0014447391 707 140
0.12698562 0.081692785 0.4221417 0.0014234564 695 137
0.12910932 0.081775725 0.4219909 0.0013636715 752 152
0.13172691 0.082164191 0.42339039 0.001388561 721 144
0.13380553 0.082209893 0.42299718 0.0014441714 731 146
0.1357255 0.082158208 0.42207956 0.0013782084 736 148
0.13774793 0.082169123 0.42146009 0.0013892772 726 145
0.14045417 0.082581803 0.42287397 0.0013914758 747 151
0.14247361 0.082584694 0.42216188 0.0013422512 774 158
0.14426687 0.082458228 0.42076579 0.0013346931 782 160
0.14664367 0.082664199 0.42104125 0.0013910542 756 153
0.14899418 0.08284995 0.42118657 0.0012950202 808 166
0.15157743 0.083158419 0.42192766 0.0013002319 804 165
0.15398714 0.083364807 0.42212278 0.0013275736 811 167
0.15621556 0.083468921 0.42177507 0.0013445124 762 154
0.15827557 0.083481558 0.42094272 0.001324518 786 161
0.16074382 0.083706446 0.42115834 0.0013059222 796 163
0.16373123 0.084192649 0.42266259 0.0013162632 794 163
0.16585147 0.084226422 0.42187312 0.0013742377 778 159
0.16807334 0.084310345 0.42131904 0.0012873255 823 170
0.17046592 0.084476836 0.42116287 0.0013382959 808 166
0.17312838 0.084771514 0.42163131 0.0013580035 763 155
0.17580979 0.085068375 0.42209786 0.0014090468 730 146
0.17842025 0.085324407 0.42235333 0.0014872897 713 142
0.1804795 0.085313968 0.42128912 0.0014879067 697 138
0.18272156 0.085389189 0.42065397 0.001433186 689 136
0.18540263 0.085665569 0.42101759 0.0014942433 641 123
0.18793365 0.085867226 0.4210259 0.0015060928 651 126
0.19117314 0.086384557 0.42259699 0.0015554251 619 117
0.19355625 0.086507879 0.42226282 0.0016342695 602 113
0.19572987 0.086535916 0.4214974 0.0015812687 582 108
0.1981689 0.086679436 0.42133459 0.0016138623 575 106
0.20072025 0.086868547 0.42143837 0.0017617021 536 96
0.20324838 0.087043755 0.42152545 0.0017127637 526 93
0.20597726 0.087300427 0.42206359 0.0018237705 520 92
0.20878932 0.087586738 0.42280641 0.0017468925 497 86
0.21095231 0.087597728 0.42228854 0.0017752579 491 84
0.21329024 0.087680422 0.42219049 0.0020258739 431 69
0.21565381 0.087771893 0.42221203 0.001994435 423 67
0.21755902 0.087676845 0.42141744 0.002229037 387 57
0.21996789 0.087784663 0.4216809 0.0021088705 377 55
0.22207505 0.08777114 0.42144555 0.0022807843 378 55
0.22651809 0.08867228 0.42568615 0.0021447099 366 52
-0.25046319 0.088928781 0.42348385 0.0032775817 211 12
-0.24928999 0.089266971 0.4241882 0.0031052087 220 14
-0.24737157 0.089341827 0.42369139 0.0033028179 224 15
-0.24574132 0.089522928 0.42375338 0.003145495 226 16
-0.24398147 0.089659609 0.42366233 0.0031847146 231 17
-0.24150872 0.089534409 0.4223966 0.0028571063 245 21
-0.24013111 0.089816578 0.42311746 0.003189259 242 20
-0.23909403 0.09023235 0.42453182 0.0027622671 252 23
-0.23753861 0.090458252 0.42512095 0.0026795797 270 27
-0.23580144 0.090618454 0.42547399 0.0026880137 270 27
-0.23374178 0.090656526 0.42532989 0.0025306314 297 34
-0.23167455 0.090692364 0.42525449 0.0024745821 302 35
-0.22932382 0.090616837 0.42473844 0.0023972986 316 39
-0.22655551 0.090373307 0.42351824 0.0024681012 338 45
-0.22432008 0.090339713 0.42336592 0.0022965958 332 43
-0.22252309 0.090483747 0.42413074 0.0023413741 320 40
-0.22019361 0.090411954 0.42396864 0.0022094268 352 48
-0.21785785 0.090336144 0.4238714 0.0021527363 365 52
-0.21558352 0.090284534 0.42397013 0.0021463712 372 54
-0.21353465 0.090327278 0.42459241 0.0021795356 376 55
-0.21079004 0.090073578 0.42389807 0.0019908829 411 64
-0.2085931 0.0900511 0.42436445 0.0021782059 411 64
-0.20635732 0.090011217 0.42481849 0.002034924 425 67
-0.20332266 0.089618362 0.42366853 0.0018989597 441 71
-0.20167448 0.08983478 0.42545724 0.001896232 440 71
-0.19930187 0.089729697 0.42577833 0.0018795617 458 76
-0.19600868 0.089203373 0.42414254 0.0018208151 510 89
-0.19323115 0.088902757 0.42361346 0.0017820337 490 84
-0.19067207 0.088697098 0.42356694 0.0017598043 521 92
-0.1881761 0.088516541 0.42366508 0.001669557 537 96
-0.18560813 0.088297613 0.42359829 0.001639553 549 99
-0.1830626 0.088084489 0.4235718 0.0017120342 538 96
-0.18054193 0.08787851 0.4235867 0.0016411385 559 102
-0.17808025 0.087696746 0.42372081 0.0016134686 588 109
-0.17552863 0.087465875 0.42361513 0.0016074 595 111
-0.17279039 0.08713533 0.42301831 0.0015243626 622 118
-0.17032079 0.086933866 0.42303643 0.0015072298 644 124
-0.16809063 0.086851165 0.42362037 0.0015631517 600 113
-0.16592149 0.086798333 0.42433658 0.0016264364 618 117
-0.16331494 0.086512454 0.42389545 0.0015875316 622 118
-0.16103253 0.08639317 0.4242498 0.0015359882 619 117
-0.15868734 0.086236671 0.42440018 0.0016162718 617 117
-0.15582487 0.08579129 0.42310289 0.0014935735 639 123
-0.15359007 0.085684232 0.42344761 0.0015234548 631 121
-0.15108578 0.08542192 0.42299941 0.0015827635 626 119
-0.14871201 0.085227259 0.42285934 0.0016089614 629 120
-0.14629999 0.085004985 0.42255527 0.0014888979 646 124
-0.14473517 0.085275628 0.42467833 0.0015788369 588 109
-0.14279686 0.085330799 0.42570752 0.0015773652 590 110
-0.13995619 0.084840544 0.42398798 0.0016091976 589 110
-0.13794753 0.084847681 0.4247261 0.0015826109 586 109
-0.13545077 0.084550336 0.42391405 0.0015150957 631 121
-0.13320644 0.084403984 0.42383188 0.0015201713 623 118
-0.13133371 0.084492207 0.42490378 0.001554595 635 122
-0.12845059 0.083923034 0.42264327 0.0015028459 638 122
-0.12668489 0.084077477 0.42400131 0.001586583 611 115
-0.12422832 0.083771013 0.42301175 0.0014357946 685 135
-0.12149094 0.083262093 0.42097276 0.0013687788 808 166
-0.11945625 0.083225854 0.42129883 0.0012993962 814 168
-0.11752712 0.083263181 0.42197651 0.0013049081 798 164
-0.1152761 0.083069809 0.42146388 0.0012721759 832 173
-0.11338204 0.083131433 0.42222425 0.0012745862 834 173
-0.11094115 0.082787171 0.42090234 0.001276621 833 173
-0.10914997 0.082924053 0.42200682 0.0012931867 818 169
-0.10737114 0.083075561 0.42316872 0.0013587455 789 161
-0.10547774 0.083142415 0.42388266 0.0013202055 795 163
-0.10288981 0.08265391 0.42174599 0.0012898964 818 169
-0.10089117 0.082628965 0.42195582 0.0013146608 822 170
-0.099272802 0.082920671 0.42376742 0.0013318829 773 157
-0.097067527 0.082724042 0.42306796 0.0013976636 755 153
-0.094940051 0.082586929 0.42265657 0.0013418058 762 154
-0.09302374 0.082631603 0.42316031 0.0013573876 751 152
-0.091136351 0.082704432 0.42379448 0.0013442138 795 163
-0.08912912 0.08266934 0.42386201 0.0013570092 748 151
-0.087065466 0.082579143 0.4236334 0.0013687523 748 151
-0.084968366 0.08245232 0.42320356 0.0013142418 794 163
-0.082997397 0.082444787 0.42337331 0.0014639287 738 148
-0.080930606 0.082339428 0.42302865 0.0014268275 747 151
-0.079102933 0.082478113 0.42392653 0.0013494737 763 155
-0.076808125 0.08212442 0.42228228 0.0013671626 756 153
-0.074915849 0.082193866 0.42280284 0.0013626998 767 156
-0.072947115 0.08218091 0.42288965 0.001330283 778 159
-0.070991248 0.082182139 0.42303988 0.001358519 746 150
-0.068964928 0.082099572 0.42274946 0.0013785237 759 154
-0.067082383 0.082188331 0.42333248 0.0013541128 776 158
-0.065207601 0.082292199 0.42398542 0.0013634608 746 150
-0.063158154 0.082175285 0.42349273 0.0014305791 705 140
-0.061134644 0.082085706 0.42313311 0.0014900592 712 141
-0.059158746 0.082056239 0.42307609 0.0013937082 723 144
-0.057184808 0.082027584 0.42301637 0.0013570106 745 150
-0.055244666 0.08204709 0.42319852 0.0014123634 736 148
-0.053303715 0.082066782 0.42337561 0.0013763531 729 146
-0.051303223 0.081992812 0.42306358 0.0013752949 733 147
-0.04940502 0.082082935 0.4235929 0.0013748724 738 148
-0.04748686 0.082145959 0.42397735 0.0013726476 740 149
-0.045539621 0.082161933 0.42411411 0.0013808401 749 151
-0.043547012 0.082093813 0.42381221 0.0013252003 779 159
-0.041737843 0.08238136 0.42534241 0.0014346954 733 147
-0.039751738 0.082330815 0.42512307 0.0013922146 718 143
-0.037563462 0.081834584 0.42259833 0.0014137452 768 156
-0.035645608 0.081905402 0.42299831 0.001355494 760 154
-0.033637032 0.081763931 0.42229855 0.0013325353 781 159
-0.031778757 0.081992827 0.42350882 0.0013364016 778 159
-0.029824268 0.08198721 0.42350513 0.0013355684 768 156
-0.02786026 0.08195281 0.42335001 0.001343097 786 161
-0.025871743 0.081835717 0.42276534 0.0013389373 786 161
-0.023913436 0.081802875 0.42261368 0.001337499 817 169
-0.022008866 0.081964329 0.42346385 0.0013702787 798 164
-0.020101644 0.082146376 0.42441848 0.0013332986 775 158
-0.018111957 0.08199434 0.42364526 0.0013729498 743 150
-0.016143646 0.08191403 0.42324102 0.0013130552 792 162
-0.014204071 0.081977509 0.42357823 0.0013291909 819 169
-0.012263995 0.082057841 0.42400116 0.0013316962 778 159
-0.010289315 0.081893206 0.42315698 0.0014037512 766 155
-0.0083204806 0.081708997 0.42221037 0.0012977594 808 166
-0.0063611749 0.08153446 0.42131251 0.0012869138 823 170
-0.0044360664 0.08183746 0.42288119 0.0012826647 820 169
-0.0024853281 0.081771985 0.42254475 0.0013413841 817 169
-0.00053673098 0.081558004 0.42143983 0.0012875122 825 171
0.0014064196 0.081619337 0.42175651 0.0013904122 732 147
0.0033467133 0.081539907 0.42134479 0.001445143 726 145
0.005267906 0.081224285 0.4197115 0.0013775146 758 153
0.0071943528 0.081137441 0.41925943 0.0013612802 744 150
0.0090686232 0.080623507 0.41659912 0.0013602899 750 151
0.011005977 0.080751993 0.41725743 0.0013550428 755 153
0.01292068 0.080700792 0.41698593 0.0013901034 774 158
0.014825497 0.080609106 0.41650382 0.0013837268 780 159
0.016897433 0.081342921 0.4202857 0.0013866815 721 144
0.018970039 0.081928708 0.42330083 0.0014520723 673 131
0.020936573 0.081989855 0.42360368 0.0014889829 657 127
0.022800243 0.081672095 0.42194712 0.0013823831 733 147
0.024792705 0.081829377 0.42274284 0.0013769078 776 158
0.026785819 0.081965722 0.42342821 0.0013151416 833 173
0.028751176 0.082004383 0.42360666 0.0013158689 821 170
0.030804753 0.082273751 0.4249742 0.0013155604 834 173
0.032694224 0.082098804 0.4240441 0.0013072767 800 164
0.034638178 0.082072705 0.42387986 0.0012880372 825 171
0.036573905 0.082030945 0.4236317 0.0012963905 809 167
0.038389597 0.081737816 0.42208228 0.0013528005 802 165
0.040252104 0.081567876 0.42116559 0.0013830776 771 157
0.042287204 0.081747204 0.42204842 0.0013491194 821 170
0.044247501 0.081772529 0.42213196 0.001296006 817 169
0.046175472 0.081738494 0.42190477 0.001321164 795 163
0.048133828 0.081758805 0.42195341 0.0013436863 828 171
0.049957104 0.081557028 0.42085105 0.001352085 821 170
0.051831663 0.081450932 0.42023745 0.0012677768 865 181
0.053992249 0.081785761 0.42189297 0.0012575877 852 178
0.055917118 0.081752643 0.42164421 0.0013270794 839 174
0.0578756 0.081769258 0.42164579 0.0013035028 802 165
0.059916206 0.081897035 0.42221376 0.0014611674 702 139
0.06190265 0.081945054 0.42236346 0.0014766532 659 128
0.063829787 0.081914037 0.4220984 0.0015023391 641 123
0.065833956 0.081980787 0.42232937 0.0015738663 635 122
0.067608058 0.081765436 0.42109925 0.0014707956 675 132
0.069676332 0.081907958 0.42170382 0.0014958405 640 123
0.071729101 0.082024984 0.42216784 0.001490207 675 132
0.073840246 0.08220081 0.42292461 0.0014566875 673 131
0.075815402 0.082220055 0.42286572 0.0014355998 698 138
0.077784538 0.082231984 0.42275897 0.0014501433 681 133
0.079811469 0.082302921 0.42294469 0.0014793862 658 128
0.081792302 0.082324058 0.42286333 0.0014603096 669 130
0.083876058 0.082445368 0.42328453 0.0014966368 642 123
0.086021379 0.082620263 0.42396814 0.0015977515 640 123
0.088053539 0.082681082 0.42405322 0.001516446 635 122
0.090015732 0.082674988 0.42378199 0.0015085712 639 123
0.092009149 0.082697205 0.4236424 0.001528488 645 124
0.093962826 0.082683533 0.42330483 0.0014242558 696 137
0.096093975 0.082823381 0.42373854 0.0015505377 654 126
0.09831024 0.083029479 0.42449486 0.0015148999 654 126
0.10013488 0.082903236 0.42353627 0.0014894571 649 125
0.10192281 0.082752056 0.42243546 0.0015804661 627 120
0.10394169 0.082790576 0.42228684 0.0014859403 651 126
0.10591942 0.082795486 0.42194974 0.001464133 667 130
0.10833378 0.083135292 0.42330033 0.0015050651 675 132
0.1103278 0.08314611 0.42295605 0.0014207924 705 140
0.11233909 0.083169349 0.42265609 0.0014396911 693 137
0.11449103 0.083294101 0.42285222 0.0014336737 707 140
0.11661035 0.083391264 0.42288744 0.001378102 727 145
0.11883573 0.083559774 0.42326283 0.0014522015 691 136
0.12090258 0.083613075 0.42303276 0.0014708076 700 138
0.12308297 0.083741926 0.42316264 0.0014436572 733 147
0.12516586 0.083801374 0.42291903 0.0014798254 702 139
0.12718913 0.083819665 0.42244524 0.0013831543 727 145
0.12938909 0.083952039 0.4225229 0.0013807674 721 144
0.1316521 0.084120668 0.42275819 0.0014286236 743 150
0.13370062 0.084149249 0.42226499 0.0014273559 730 146
0.13570207 0.084147781 0.42159763 0.00135503 766 155
0.13811582 0.084398322 0.42216712 0.001385265 724 145
0.14052293 0.084637657 0.4226529 0.0013736583 727 145
0.14256258 0.084652029 0.42198932 0.0013614086 751 152
0.14467566 0.084709004 0.42151386 0.0013284767 773 157
0.1469167 0.084838316 0.42137307 0.0013792906 768 156
0.14946342 0.085138224 0.42205235 0.001351109 805 166
0.15195285 0.085397922 0.42250407 0.0013176774 800 164
0.15437981 0.085616119 0.42272362 0.0013153042 787 161
0.15648587 0.085652962 0.42202368 0.0013852329 759 154
0.15841988 0.085595898 0.42084113 0.0013086447 819 169
0.16104238 0.085907586 0.42144978 0.001370101 786 161
0.16383724 0.086302221 0.4224405 0.0013156369 789 161
0.16605157 0.086385086 0.42188436 0.0014119761 770 156
0.16815849 0.086410709 0.42103437 0.0013144764 796 163
0.1707371 0.086675175 0.42133424 0.0013752324 767 156
0.1736528 0.087102406 0.42241001 0.0013436446 763 155
0.17623529 0.087354384 0.42262411 0.0013983401 723 144
0.17854761 0.087468132 0.42216507 0.0014054889 721 144
0.18068543 0.087494776 0.42128819 0.0014170541 703 139
0.1826061 0.087416835 0.41991737 0.0014948945 689 136
0.18507843 0.087601773 0.41982234 0.0014950481 651 126
0.18895736 0.088440955 0.42287093 0.0015475878 649 125
0.19127874 0.088540643 0.4223991 0.0015313879 616 117
0.19340892 0.088550635 0.42152992 0.0015663248 599 112
0.19596648 0.088753976 0.42161676 0.0017077423 538 96
0.19851357 0.088948272 0.42170104 0.0016394448 557 101
0.20092884 0.089080028 0.42153618 0.00164169 545 98
0.20317788 0.089136116 0.42106771 0.0017085876 520 92
0.20550567 0.089225225 0.42081597 0.0017882449 501 87
0.20841685 0.089563213 0.42180184 0.0017977552 479 81
0.21119453 0.089837573 0.42255574 0.001831519 483 82
0.21349461 0.089905299 0.42241141 0.0019281397 430 69
0.21539605 0.089805476 0.42155874 0.002060174 409 63
0.21808603 0.090033151 0.4223243 0.0021385665 393 59
0.22044817 0.090122357 0.42252249 0.002189653 394 59
0.22220413 0.089964435 0.42164621 0.0021728815 365 52
0.22231914 0.089151494 0.4177849 0.0021373476 371 53
-0.2528547 0.091915749 0.42786735 0.0033241105 200 9
-0.24941424 0.091438182 0.42472142 0.0032282367 217 13
-0.24716033 0.091391154 0.42363381 0.0032023666 208 11
-0.24542563 0.091536954 0.42349511 0.0031655517 219 14
-0.24308044 0.091455624 0.42236358 0.0033405626 232 17
-0.24115583 0.091532499 0.42202398 0.0029697339 230 17
-0.24022336 0.091990665 0.42350277 0.0032378316 240 19
-0.23897325 0.09233433 0.4245165 0.0029534192 258 24
-0.2376197 0.092643902 0.42543972 0.0028627547 249 22
-0.23573866 0.0927516 0.42550689 0.0027280175 261 25
-0.2342578 0.093020193 0.42638633 0.0026321721 272 28
-0.23204961 0.093002297 0.4260298 0.0025374051 288 32
-0.22932169 0.092773795 0.42478925 0.0024242285 310 38
-0.2265463 0.092521556 0.42352262 0.0023582336 319 40
-0.22472203 0.092656665 0.42411226 0.0023359864 326 42
-0.2228808 0.092787303 0.42476532 0.0023003581 333 43
-0.21824887 0.091747358 0.42014241 0.0021827528 361 51
-0.21852371 0.092769943 0.42504826 0.0021840348 361 51
-0.21672235 0.092922725 0.42605489 0.0022875555 354 49
-0.21391274 0.09264192 0.425154 0.0021586721 364 51
-0.21074197 0.092197418 0.42357713 0.0020105564 408 63
-0.20854323 0.092173398 0.42400473 0.0020482114 395 60
-0.20660518 0.0922653 0.42503732 0.0021289894 372 54
-0.20377819 0.091957964 0.42429596 0.0020262238 419 66
-0.20112194 0.091721989 0.42394122 0.0018624465 454 75
-0.1988712 0.091667876 0.42448068 0.0018226965 468 78
-0.19631818 0.091471724 0.42441028 0.0018556884 489 84
-0.19331536 0.091059417 0.4233751 0.001730548 518 91
-0.19067506 0.090810627 0.42313144 0.0017896995 516 91
-0.18841128 0.090737589 0.42373478 0.0017161124 533 95
-0.18604949 0.090615161 0.42413098 0.0016301573 559 102
-0.18319686 0.090248115 0.42339665 0.0016639201 545 98
-0.18070664 0.090053186 0.42347774 0.0016633323 542 98
-0.17817603 0.089833319 0.42344597 0.0016172248 585 109
-0.17594472 0.089760914 0.42411038 0.0015934887 589 110
-0.17354123 0.089597881 0.42434391 0.0015750929 599 112
-0.17059188 0.089145638 0.42319694 0.0016597861 604 114
-0.16806017 0.088903196 0.42303097 0.0015853924 611 115
-0.16573714 0.088766471 0.42335337 0.0015154289 636 122
-0.16341856 0.088628724 0.42365503 0.0015442631 618 117
-0.16111451 0.088495426 0.42395973 0.0015999855 629 120
-0.15895128 0.088437036 0.42460406 0.0015282028 618 117
-0.15602477 0.087946877 0.42315099 0.0015247514 635 122
-0.15362383 0.087743871 0.42305237 0.0015286678 620 118
-0.15131578 0.087589167 0.42316198 0.0016266971 606 114
-0.1489659 0.087405704 0.42310739 0.0014891834 650 125
-0.14641747 0.087099053 0.42242935 0.0015377915 638 122
-0.14477102 0.087327883 0.42432445 0.0015229123 633 121
-0.14272062 0.087316088 0.42502901 0.0015430039 607 114
-0.1405528 0.087231077 0.42535275 0.0015860021 590 110
-0.13812807 0.086981796 0.42484894 0.001553206 608 115
-0.13540353 0.086533509 0.42334393 0.0016989115 580 107
-0.13333413 0.086496688 0.4238247 0.0015646161 613 116
-0.13151957 0.086626597 0.42509985 0.0015688902 606 114
-0.12920123 0.086423561 0.42471761 0.0015107697 634 121
-0.12677202 0.086138777 0.42390758 0.0016065844 604 114
-0.12481938 0.086173862 0.42464775 0.0015171317 632 121
-0.12186393 0.085506476 0.4219003 0.0014017759 729 146
-0.11962052 0.085324831 0.42152286 0.0013262854 782 160
-0.11766354 0.085344829 0.42211974 0.0013049948 801 165
-0.1156815 0.085347004 0.42260823 0.0013153724 804 165
-0.1135096 0.085206747 0.4223707 0.0012786387 837 174
-0.11154255 0.08521802 0.42286414 0.0013450038 822 170
-0.10912894 0.084882326 0.42161542 0.0013255476 820 169
-0.10749696 0.085153446 0.42336193 0.0013524359 814 168
-0.10548564 0.08512862 0.42362022 0.0013551017 752 152
-0.10311203 0.084804863 0.42237213 0.0013441443 768 156
-0.10122342 0.084875159 0.42306858 0.001321875 803 165
-0.099131994 0.084774807 0.42289793 0.0013161526 803 165
-0.096780375 0.084443353 0.42155701 0.0013152134 806 166
-0.094851904 0.084475018 0.42201239 0.0013760516 741 149
-0.092918321 0.084503375 0.42243662 0.0013864798 768 156
-0.09106043 0.084603295 0.42320472 0.0013084008 802 165
-0.089065261 0.084577255 0.42332917 0.0014242422 760 154
-0.08703763 0.084518522 0.42327625 0.0013242865 792 162
-0.08494918 0.084396645 0.42289379 0.0013075443 801 165
-0.0830134 0.084424287 0.42324793 0.0013518777 754 152
-0.081217997 0.084599465 0.42433023 0.0013908526 726 145
-0.078986354 0.084317669 0.42310867 0.00145171 735 147
-0.077014975 0.084306434 0.42323315 0.0014285817 712 141
-0.074904881 0.084138781 0.42256156 0.0013734937 747 151
-0.073083743 0.084295437 0.42350844 0.0014065934 742 149
-0.071133338 0.084307499 0.42371953 0.0014249714 719 143
-0.069116816 0.084239669 0.42351964 0.001383537 726 145
-0.067031927 0.084082134 0.42285955 0.0013607865 771 157
-0.065077305 0.084083445 0.42298949 0.0013512262 769 156
-0.063193694 0.084179424 0.42358789 0.0014109681 727 145
-0.061226718 0.084166944 0.42363286 0.0014178773 754 152
-0.059152611 0.084001496 0.42290023 0.0013503234 760 154
-0.057268679 0.084104031 0.42350987 0.0013801006 730 146
-0.055313502 0.084105499 0.42360401 0.0014120351 768 156
-0.053269859 0.083967634 0.42299002 0.0013464339 774 158
-0.051306408 0.083950467 0.42297798 0.00138915 726 145
-0.049372826 0.083982758 0.42320949 0.0013869929 726 145
-0.047497816 0.084121458 0.42397204 0.0014414202 734 147
-0.045534585 0.084109113 0.42396834 0.0014359126 733 147
-0.043671329 0.084288605 0.42492723 0.0013724155 737 148
-0.041755818 0.084379375 0.4254345 0.0014395239 709 141
-0.039740276 0.084267005 0.42491335 0.0014585662 729 146
-0.037714362 0.084119827 0.42421263 0.0014230137 759 154
-0.035613887 0.083781146 0.42254233 0.0013038622 802 165
-0.033696763 0.08385957 0.42297205 0.001389223 774 158
-0.031770434 0.083923288 0.42332453 0.0013775269 778 159
-0.02985549 0.084027402 0.42387792 0.0013864477 775 158
-0.027864408 0.083916813 0.42334542 0.0013968085 755 153
-0.025914378 0.083922498 0.42339697 0.0013676881 759 154
-0.024019295 0.084121548 0.42442164 0.0013543811 771 157
-0.022039406 0.084032543 0.42399079 0.0013751227 765 155
-0.020107461 0.084126815 0.42448255 0.0013805151 727 145
-0.018127313 0.084017985 0.42394766 0.0014704174 698 138
-0.016142482 0.083858572 0.42315558 0.0013312952 783 160
-0.014200944 0.083911113 0.42343137 0.0012933043 818 169
-0.012279815 0.084120214 0.42449564 0.001321389 782 160
-0.010310314 0.084014393 0.42396927 0.0013848329 723 144
-0.0083246203 0.083696306 0.4223702 0.0014427997 740 149
-0.0063752178 0.083660275 0.42219314 0.001306314 803 165
-0.0044326629 0.083721928 0.42250776 0.0013017169 808 166
-0.0024854797 0.083724283 0.42252186 0.0013413173 814 168
-0.00053976855 0.08397267 0.42377633 0.0012859823 820 169
0.0014085686 0.083690576 0.42235243 0.0013339092 798 164
0.0033548307 0.08368405 0.42231798 0.0013492391 763 155
0.0052889595 0.083490781 0.42133987 0.0013561557 749 151
0.0072007864 0.0831438 0.41958484 0.0013356819 772 157
0.009103409 0.082859971 0.41814712 0.0013509257 762 154
0.011024242 0.082812101 0.41789886 0.0013428811 764 155
0.012961633 0.082884349 0.4182553 0.001366331 807 166
0.014867858 0.082764409 0.41764039 0.0013303587 774 158
0.016870096 0.083145164 0.41955048 0.001400997 717 143
0.01894135 0.083752781 0.42260334 0.0015362498 664 129
0.020882895 0.083727017 0.42245838 0.0014228318 703 139
0.022832887 0.083736621 0.42248988 0.0013979001 754 152
0.024799852 0.083802074 0.42280096 0.0013819392 762 154
0.02677978 0.083898604 0.42326653 0.0012591406 867 182
0.028852811 0.084253885 0.42503488 0.0012682467 845 176
0.030707821 0.083967835 0.42356524 0.0013308317 808 166
0.032650422 0.083941169 0.4234013 0.0013465238 776 158
0.034618169 0.083978511 0.4235571 0.0013687497 763 155
0.03658488 0.084009491 0.42367747 0.0012991984 805 166
0.03844168 0.083797738 0.42257032 0.001335817 765 155
0.040398136 0.083813168 0.42260522 0.0014052328 715 142
0.042392854 0.08390291 0.42301059 0.0013748987 743 150
0.044267204 0.083757013 0.4222239 0.0013704378 752 152
0.046149205 0.083637267 0.42156458 0.0013840413 769 156
0.048037793 0.083538681 0.42100728 0.0012365666 872 183
0.050000459 0.083571568 0.42110741 0.001299986 859 180
0.051999491 0.083660498 0.42148447 0.0012901939 830 172
0.054007076 0.083756275 0.4218902 0.0013254798 777 158
0.056077052 0.083938777 0.42272639 0.001397635 715 142
0.058131117 0.084085971 0.42337808 0.001527926 620 118
0.060218763 0.084270604 0.42421108 0.0015478024 629 120
0.062162988 0.084249206 0.42399961 0.00146987 694 137
0.063937426 0.084006034 0.42266479 0.0014572655 670 131
0.065825745 0.083922476 0.42212576 0.0014835511 656 127
0.067882389 0.084052145 0.42265078 0.0015604283 644 124
0.069990285 0.084236242 0.4234404 0.0015794733 610 115
0.071863919 0.084136046 0.42279178 0.0015083881 629 120
0.073900513 0.084226899 0.42309374 0.0014934398 647 125
0.075888187 0.084258735 0.42308912 0.0014996147 658 128
0.077873126 0.084286019 0.42305112 0.001572795 645 124
0.079908893 0.084365614 0.42326483 0.0015049247 633 121
0.08185263 0.084346555 0.42297208 0.0015441023 608 115
0.08390864 0.084441386 0.42323869 0.0015309204 632 121
0.086149931 0.08471407 0.42438361 0.001531975 613 116
0.088000573 0.084599011 0.42357308 0.0015303368 631 121
0.089990944 0.084620371 0.42343268 0.0014791908 656 127
0.092057027 0.084710486 0.42362237 0.0015875432 626 119
0.093934312 0.084626734 0.42292851 0.0015109102 660 128
0.095995791 0.084708966 0.42304966 0.0015177679 634 121
0.097960606 0.084704295 0.42272145 0.0014669197 661 128
0.10021041 0.084941372 0.42358315 0.0014799362 658 128
0.10212836 0.08489345 0.42300686 0.0014718162 666 130
0.10414639 0.084928945 0.42282963 0.0015706944 646 124
0.10638672 0.085141025 0.42351338 0.0014795639 675 132
0.10848768 0.085235849 0.4235948 0.001502216 692 136
0.11042158 0.085198388 0.42300043 0.0014093068 710 141
0.11228883 0.085111715 0.42214361 0.0014690065 687 135
0.11449772 0.085282512 0.42254415 0.0013851043 729 146
0.11646853 0.085273199 0.42203173 0.0013665119 742 149
0.11891149 0.085604079 0.42318106 0.001415387 719 143
0.12103895 0.085700668 0.42314911 0.0013876634 726 145
0.12319566 0.085814521 0.42317986 0.0014662937 684 134
0.12548576 0.086016171 0.42362002 0.0014382689 701 139
0.12736945 0.085937269 0.42265561 0.001394867 719 143
0.12941235 0.085966587 0.42220145 0.0013571746 746 150
0.13155147 0.086057946 0.42202845 0.0013728322 739 148
0.13359694 0.086086236 0.42152223 0.0013703688 740 149
0.13572806 0.086168058 0.42125404 0.0013226432 780 159
0.13817279 0.086443678 0.42190719 0.0013401527 766 155
0.14072086 0.086775146 0.42280436 0.0013366068 773 157
0.14305572 0.086967602 0.42299622 0.0013308151 778 159
0.14514321 0.08700642 0.42241547 0.0013294232 782 160
0.14791074 0.087446213 0.42375377 0.0014010257 753 152
0.14997362 0.087463118 0.42301589 0.0013627817 792 162
0.1523276 0.087647088 0.42306164 0.0013138754 794 163
0.15454276 0.087747358 0.42267898 0.0013398522 801 165
0.15652779 0.087716058 0.42164123 0.0013304662 772 157
0.15920216 0.088066906 0.42241758 0.0013511679 749 151
0.16163625 0.088277593 0.4224979 0.0013873078 743 150
0.16391234 0.088397786 0.42212528 0.0013654315 742 149
0.16620332 0.088522941 0.42175937 0.0013496883 758 153
0.16854107 0.088669643 0.4214814 0.0013615633 751 152
0.17114784 0.088952601 0.42183718 0.0014097827 757 153
0.17392285 0.089315213 0.42255789 0.0013518289 758 153
0.17640214 0.089519188 0.42251945 0.0013823285 732 147
0.17876998 0.089662492 0.42219257 0.0013982836 750 151
0.18119293 0.089829847 0.42198184 0.0014176177 694 137
0.18394224 0.090153314 0.42251027 0.0015061443 636 122
0.18568347 0.08998099 0.42073005 0.0015778269 632 121
0.18899325 0.090564147 0.42250007 0.0015753926 610 115
0.19123936 0.090630352 0.42187956 0.0015792171 604 114
0.1931732 0.090548761 0.42060536 0.0015796749 592 110
0.19589895 0.090836108 0.42108318 0.0016674909 580 107
0.19879301 0.091194533 0.42193097 0.0016811391 536 96
0.20101342 0.091239639 0.42137796 0.0017823572 530 94
0.20302854 0.091191575 0.42045289 0.0017745515 518 91
0.2053819 0.091294885 0.42028856 0.0017618773 499 86
0.20912664 0.092008211 0.42299569 0.0018128104 475 80
0.21171261 0.092202447 0.42338362 0.0018475511 465 78
0.21373291 0.092148893 0.42270961 0.0021533112 407 63
0.21608044 0.092236094 0.42276043 0.0021613664 394 59
0.21884304 0.092497006 0.42368796 0.0021700603 380 56
0.22079965 0.092415504 0.42312968 0.0021815193 382 56
0.22233078 0.092159197 0.42185515 0.0022405379 359 50
0.22381242 0.091887482 0.42059413 0.00220216 355 49
-0.25445029 0.094647065 0.43092301 0.0032954616 194 8
-0.24914993 0.093465753 0.42460665 0.0034476304 220 14
-0.2468437 0.093396969 0.42340896 0.0031573523 214 13
-0.24491082 0.093469501 0.42290631 0.0030383375 227 16
-0.24335083 0.093686841 0.42311358 0.0030228163 236 18
-0.24152049 0.093803033 0.42292133 0.0029852937 231 17
-0.23990382 0.094005011 0.42317638 0.0029516085 241 20
-0.23927948 0.09460295 0.42527428 0.0031359287 247 21
-0.23794061 0.094926693 0.42620289 0.0027282052 262 25
-0.2358381 0.094948895 0.42584732 0.002705998 271 27
-0.23407921 0.095111139 0.42619327 0.0026082185 277 29
-0.23296811 0.095542066 0.42781797 0.0025527286 282 30
-0.22975977 0.095112927 0.42567024 0.0026786223 293 33
-0.22684978 0.094800293 0.42412612 0.002519876 313 38
-0.22452629 0.094729125 0.42374465 0.002353959 336 44
-0.22267886 0.094859377 0.42434707 0.0023055561 338 45
-0.22039278 0.094803475 0.42420021 0.0024104977 343 46
-0.21775158 0.094592221 0.42344096 0.0023076292 360 50
-0.21642762 0.094954662 0.42533278 0.0022354489 347 47
-0.21422465 0.094934881 0.42559493 0.0023099019 352 48
-0.21068788 0.094317593 0.42325455 0.0021112317 376 55
-0.20835717 0.094233073 0.42337763 0.0020942923 378 55
-0.20632483 0.094283134 0.42417753 0.0021040679 384 57
-0.20441036 0.094388679 0.42529613 0.0021473323 411 64
-0.20133252 0.093953572 0.4240396 0.0018680723 453 75
-0.19889934 0.093813203 0.42416686 0.0018927745 472 79
-0.1964533 0.093663648 0.42430234 0.0018332188 465 78
-0.19314499 0.093095213 0.42258003 0.0017720853 495 85
-0.19101298 0.09308742 0.42343745 0.0018350316 465 78
-0.18873854 0.093009286 0.42400792 0.0017294909 521 92
-0.18621574 0.092805594 0.42403114 0.0016288219 564 103
-0.18379194 0.092647135 0.42427954 0.0016048164 576 106
-0.18129605 0.092448257 0.42435548 0.0016619401 584 108
-0.1792189 0.092460729 0.42541096 0.0016400856 554 101
-0.17561981 0.091679014 0.42281044 0.0016423897 585 109
-0.17378326 0.091809653 0.42441255 0.0016205902 598 112
-0.17161271 0.091764897 0.42520273 0.0016082894 615 116
-0.16848548 0.091201171 0.42357588 0.0015591654 633 121
-0.16601892 0.090985484 0.42354837 0.0014978831 633 121
-0.16353336 0.090753801 0.42342991 0.0015348006 618 117
-0.16148309 0.090760857 0.42440891 0.0015298437 632 121
-0.15908465 0.090569869 0.42444387 0.0015803558 608 115
-0.1563751 0.090194456 0.42359093 0.0015068698 631 121
-0.15383975 0.089910857 0.4231433 0.0016023627 604 114
-0.15209287 0.090086654 0.42483625 0.0015761435 601 113
-0.14956912 0.089800812 0.4243297 0.0015269605 626 119
-0.14742553 0.089738466 0.42485389 0.0015803695 621 118
-0.14535129 0.089717157 0.42554894 0.0016268059 585 109
-0.14285722 0.089432456 0.42496878 0.0015344918 612 116
-0.14053583 0.089249164 0.42484328 0.0015939821 616 117
-0.1381205 0.088999979 0.42437714 0.0016352033 601 113
-0.13566957 0.088720113 0.42373705 0.0016118321 597 112
-0.1335692 0.088664502 0.42414209 0.001642501 610 115
-0.13156164 0.088669755 0.42481482 0.0016008691 623 118
-0.12917684 0.088416956 0.42422658 0.0014899115 646 124
-0.12699518 0.088297389 0.42425242 0.0015606573 621 118
-0.1248286 0.088184662 0.42428732 0.0016148294 606 114
-0.12241409 0.08789023 0.42342344 0.0015496865 666 130
-0.11992754 0.087533452 0.4222337 0.001381091 750 151
-0.11787775 0.087488808 0.42252636 0.0013221293 784 160
-0.11583733 0.087449692 0.42282471 0.0012964952 813 168
-0.11372359 0.087352902 0.42282346 0.0012872405 823 170
-0.11149187 0.087160431 0.42233792 0.0012990813 810 167
-0.10947482 0.087131843 0.42262641 0.0012970606 830 172
-0.10749976 0.087136269 0.42305633 0.0013318629 772 157
-0.10551524 0.087133028 0.42343107 0.0014174038 709 141
-0.10337784 0.087001003 0.42316177 0.0013740479 736 148
-0.10122471 0.08685033 0.42278367 0.0013880014 743 150
-0.099053726 0.08667805 0.42228255 0.0013589306 747 151
-0.096807279 0.086431399 0.4214015 0.0014407965 714 142
-0.094750516 0.086347394 0.42129692 0.0013506664 786 161
-0.092798345 0.086357161 0.42163464 0.0013188781 786 161
-0.091009222 0.086522356 0.42271742 0.0013224074 776 158
-0.089258775 0.086732447 0.42400664 0.0013756956 743 150
-0.087019756 0.086466543 0.42295533 0.0013234392 784 160
-0.084976211 0.086387075 0.42280191 0.0013112163 793 162
-0.083154991 0.086535223 0.42375016 0.0013305451 771 157
-0.081265144 0.08661738 0.42436379 0.0014262341 717 143
-0.079188593 0.086499684 0.42398649 0.0015207198 675 132
-0.077093706 0.086355463 0.42346746 0.0014390589 693 137
-0.075264111 0.086508632 0.4243961 0.0014319778 755 153
-0.073235415 0.086435013 0.42420202 0.0013720916 739 148
-0.071246646 0.086405791 0.42421561 0.0013699706 744 150
-0.069181748 0.086279958 0.42374524 0.0013644614 751 152
-0.067144133 0.08618179 0.42340136 0.0013296535 777 158
-0.065239348 0.086253338 0.4238826 0.0013935794 726 145
-0.063248433 0.086211927 0.42380044 0.0013883361 725 145
-0.061211426 0.08610303 0.4233785 0.0013957114 726 145
-0.059261724 0.086113788 0.42353731 0.0014480704 745 150
-0.057318069 0.086134382 0.42373738 0.001353967 752 152
-0.055296026 0.086034477 0.42333773 0.0013493014 763 155
-0.053248789 0.085886613 0.42269552 0.0013902762 774 158
-0.051243126 0.085797086 0.42233405 0.0014004601 719 143
-0.049368106 0.085927851 0.4230513 0.0014461641 688 135
-0.0473959 0.085893296 0.42294917 0.0013804489 731 146
-0.045445822 0.085897595 0.42303318 0.0014545247 733 147
-0.043376394 0.085666552 0.42195311 0.0013347379 774 158
-0.041623279 0.086067863 0.42398328 0.00136226 751 152
-0.039775468 0.086303294 0.42519239 0.0013595343 758 153
-0.03778623 0.086240374 0.42492756 0.0013771601 746 150
-0.035842285 0.086279579 0.42516214 0.0013845651 741 149
-0.033750433 0.085946687 0.42355934 0.0013664259 742 149
-0.031825248 0.086023398 0.42397171 0.0013442435 769 156
-0.02985597 0.08598315 0.42380452 0.0013539309 768 156
-0.027901134 0.085981764 0.42382589 0.0013333128 779 159
-0.025962604 0.086034216 0.42410985 0.0014041819 767 156
-0.023993781 0.085986644 0.42389825 0.0013794054 774 158
-0.022057513 0.086057663 0.42426881 0.0013758172 773 157
-0.02009353 0.086023852 0.42412031 0.0013460289 770 156
