# .PCD v0.7 - Point Cloud Data file format
VERSION 0.7
FIELDS x y z noise intensity gray
SIZE 4 4 4 4 2 1
TYPE F F F F U U
COUNT 1 1 1 1 1 1
WIDTH 912
HEIGHT 1
VIEWPOINT 0 0 0 1 0 0 0
POINTS 912
DATA ascii
0.21452871 0.15567721 0.41375411 0.0045890301 127 0
nan nan nan 0 138 0
nan nan nan 0 139 0
-0.21749918 0.14402176 0.38558638 0.0046051312 137 0
-0.21497133 0.14358272 0.38481599 0.0044315057 139 0
-0.21309991 0.14357829 0.38477197 0.004613691 135 0
-0.21088795 0.14334229 0.38377693 0.0045636776 135 0
nan nan nan 0 144 0
-0.20913053 0.14470261 0.38606456 0.0042530689 143 0
-0.20786047 0.14512806 0.38635075 0.0048457319 135 0
-0.20694385 0.14581029 0.38726431 0.0043832008 140 0
-0.20605892 0.14652768 0.38824219 0.0046141166 153 0
-0.20527925 0.14733396 0.38944507 0.0041621635 146 0
-0.20352387 0.14744857 0.38882494 0.0042976611 142 0
-0.2017941 0.14758408 0.38827753 0.0042373333 149 0
-0.19981444 0.14753766 0.38727489 0.0042720838 154 0
-0.19798255 0.1476005 0.38658616 0.00435948 145 0
-0.19628282 0.14776407 0.38618934 0.0042712828 151 0
-0.19528648 0.14846565 0.38722488 0.0038854186 164 0
-0.19438933 0.14925735 0.3885203 0.0037970527 168 0
-0.19309773 0.1497591 0.38908824 0.0038307628 171 0
-0.19149852 0.15003005 0.38908812 0.0036933997 176 1
-0.18965396 0.15011236 0.38863355 0.0042340262 171 0
-0.18838184 0.1506542 0.38940373 0.0037403658 177 2
-0.18665124 0.1508369 0.38928148 0.0036382156 193 6
-0.18485357 0.15096869 0.38906679 0.0034813914 199 8
-0.18313974 0.15117252 0.38907769 0.0032935534 201 9
-0.18130501 0.15127991 0.38888168 0.0034736283 207 10
-0.17974207 0.15161887 0.3893232 0.0031799835 215 13
-0.17811215 0.15190826 0.38968006 0.0031477697 218 14
-0.17671105 0.15240145 0.39060336 0.0034940741 218 14
-0.17478792 0.1524505 0.39043349 0.003116217 222 15
-0.17268275 0.1523401 0.38990241 0.002986881 234 18
-0.17069346 0.15233052 0.38967732 0.0029495351 239 20
-0.16904327 0.15262692 0.39028263 0.0029097449 249 23
-0.16733479 0.15287708 0.39081776 0.0029896216 250 23
-0.16515942 0.15270157 0.39031309 0.0026486663 275 30
-0.16308349 0.15261486 0.39008397 0.0026793769 268 28
-0.16111338 0.15262623 0.39015362 0.0028954437 259 26
-0.15907812 0.15257545 0.39011189 0.0029752471 251 23
-0.15706956 0.1525493 0.39017981 0.0026601038 293 36
-0.15477623 0.15224235 0.38957486 0.0023734218 317 43
-0.15183941 0.15128633 0.38735163 0.0023400467 331 47
-0.15077256 0.15219285 0.38993999 0.0025883908 301 38
-0.14927965 0.15268765 0.39151722 0.0024228955 308 40
-0.1467189 0.15208882 0.39032924 0.0022693104 342 50
-0.14484884 0.15219942 0.39099789 0.0022441042 346 51
-0.14285523 0.15218145 0.39137134 0.00226142 349 52
-0.14067739 0.15196398 0.3912634 0.0023249576 339 49
-0.13787511 0.15105617 0.38940427 0.0023391577 344 51
-0.13549952 0.15059638 0.38872257 0.0022033132 362 56
-0.13362963 0.15069342 0.38950115 0.0022351509 347 52
-0.13151349 0.1505115 0.38957986 0.0022864325 364 57
-0.12956402 0.1505177 0.39016363 0.0021810003 364 57
-0.12759586 0.15050209 0.39070693 0.0021702137 361 56
-0.12574495 0.15062642 0.39162746 0.0021227892 371 59
-0.12363552 0.1504401 0.39175099 0.0022704585 359 55
-0.12128923 0.14995497 0.39110216 0.0021463456 368 58
-0.11903059 0.14956413 0.39070186 0.0021315247 376 60
-0.11691345 0.14934108 0.39074132 0.0022149102 340 50
-0.114703 0.14898932 0.39044365 0.0022576766 346 51
-0.11275689 0.14897469 0.39102796 0.0022422287 349 52
-0.11095643 0.14915538 0.39212397 0.002235434 352 53
-0.10913225 0.14931002 0.39314973 0.0021854399 365 57
-0.1070109 0.14905635 0.39309523 0.0021310875 374 60
-0.1047345 0.14857334 0.39242688 0.0021345865 372 59
-0.10284747 0.14863494 0.39318812 0.0020936176 380 61
-0.10057383 0.14812948 0.39243931 0.0020948139 388 64
-0.098579623 0.1480239 0.39273849 0.0020856403 380 61
-0.096404627 0.14763723 0.39228001 0.0021940463 364 57
-0.094562121 0.1477544 0.39314866 0.0021050344 379 61
-0.09271387 0.14786728 0.39399558 0.0020017917 406 69
-0.090737343 0.14777599 0.39428684 0.0020317114 401 68
-0.088550635 0.14733107 0.39362052 0.002055157 396 66
-0.08681228 0.14762895 0.39492577 0.0021031809 380 61
-0.084982038 0.14778046 0.39582831 0.0021879054 363 56
-0.082725257 0.14718014 0.39470258 0.0021601778 372 59
-0.080457449 0.14653133 0.3934297 0.0020414253 394 65
-0.078459039 0.14635362 0.39340588 0.002049691 397 66
-0.076698236 0.14662127 0.39456633 0.0020848564 411 70
-0.074987762 0.14700122 0.39601761 0.0022617027 368 58
-0.073100358 0.14704515 0.39655161 0.0022415174 364 57
-0.07097695 0.14660396 0.39576295 0.0022525457 362 56
-0.068951219 0.14634573 0.39545321 0.0021814369 378 61
-0.066988803 0.14621109 0.39546323 0.0021023769 383 62
-0.064850166 0.14567271 0.39436662 0.0020757068 391 65
-0.062873922 0.14547773 0.39418519 0.0020543318 389 64
-0.06105914 0.14565584 0.39500192 0.0021497747 401 68
-0.059135284 0.14557685 0.39510909 0.0020662784 394 65
-0.057295997 0.14570768 0.39577353 0.0021652624 369 58
-0.055356458 0.14558379 0.39573389 0.0021670652 367 58
-0.053380966 0.14535324 0.39539164 0.0021555044 366 57
-0.051298495 0.14480381 0.39416862 0.0021413863 373 59
-0.049656522 0.14550331 0.39633384 0.0022130902 358 55
-0.047860272 0.14578821 0.39736003 0.0021172676 375 60
-0.045944218 0.14571664 0.39740357 0.0020765252 388 64
-0.043966822 0.14543594 0.39686513 0.002153314 372 59
-0.041955426 0.14501257 0.39592528 0.0022226439 378 61
-0.040059924 0.14496881 0.39601031 0.0022474763 367 58
-0.038248107 0.14523847 0.39694133 0.0021505449 368 58
-0.036323208 0.14508447 0.39670411 0.0021947569 379 61
-0.034449011 0.14512721 0.39699432 0.0020985943 373 59
-0.032477219 0.14473993 0.39609772 0.0020649696 390 64
-0.030586943 0.14469066 0.39611566 0.002099725 390 64
-0.028671505 0.14450814 0.39575875 0.0022663393 379 61
-0.026784694 0.14445443 0.39574462 0.0021945601 359 55
-0.025016585 0.14508104 0.39758518 0.0021232173 374 60
-0.02314801 0.14517963 0.39796993 0.0021740855 377 60
-0.021221317 0.14489888 0.39730525 0.0022297765 362 56
-0.019286886 0.1445055 0.39632198 0.0020790375 390 64
-0.017454416 0.14487362 0.39741808 0.0021876649 392 65
-0.015528043 0.14445712 0.39635262 0.0020783804 410 70
-0.013684277 0.1448002 0.39736235 0.0021094438 403 68
-0.011842459 0.14527655 0.39872909 0.0021000172 398 67
-0.0099500455 0.14519511 0.39855623 0.0020523574 402 68
-0.0080532879 0.14499739 0.3980552 0.0020726486 391 65
-0.0061572208 0.14469518 0.39725858 0.0021300297 397 66
-0.0042765625 0.14464864 0.39715493 0.0020738749 390 64
-0.0024000942 0.14478199 0.39753649 0.0021304251 374 60
-0.00052062469 0.14504413 0.39826304 0.0021303466 369 58
0.0013602328 0.14472947 0.39739704 0.0021788066 377 60
0.0032366586 0.14458194 0.39698139 0.0019717796 411 70
0.0051242323 0.1448579 0.39771971 0.002045749 399 67
0.0069903666 0.14454231 0.39682525 0.0020163259 416 72
0.008889419 0.14489691 0.39776185 0.002088601 418 73
0.010789644 0.14514337 0.39839271 0.0020142384 402 68
0.012680099 0.14520466 0.39850628 0.0020112165 412 71
0.01455734 0.14511834 0.39820585 0.0021105029 395 66
0.01642888 0.1450015 0.39781284 0.0020264231 404 68
0.018341403 0.14523321 0.3983669 0.0019241332 437 78
0.02030229 0.14576893 0.3997452 0.0019037034 436 78
0.022202684 0.14581598 0.39977381 0.0020270292 409 70
0.024060154 0.14559591 0.39906088 0.0020115166 421 73
0.025952615 0.14560422 0.39896446 0.0019904836 424 74
0.027923604 0.14602204 0.39998025 0.0020888534 424 74
0.029808385 0.14596458 0.3996841 0.0020294092 424 74
0.031688176 0.14589101 0.39933419 0.001954467 431 76
0.033642679 0.14615029 0.39988518 0.0019261705 437 78
0.035569426 0.14626779 0.4000375 0.0019266735 432 77
0.037318617 0.1456802 0.39825183 0.0020395913 425 75
0.039163284 0.14550406 0.39758143 0.0019114712 437 78
0.041067336 0.14555462 0.39752012 0.0019908531 443 80
0.043253805 0.14655764 0.40004772 0.0019945069 443 80
0.04533213 0.14712512 0.40137321 0.0021314223 423 74
0.047100756 0.14668223 0.39993092 0.0019637404 422 74
0.04904284 0.14679298 0.39998734 0.0020601072 394 65
0.051003404 0.14694865 0.40015429 0.0021094196 398 67
0.053099867 0.14747052 0.40130544 0.0020222778 399 67
0.055061847 0.14759557 0.40136355 0.0020765706 402 68
0.056802515 0.14713892 0.39982846 0.0020553742 408 70
0.058668669 0.14702648 0.39921761 0.0019347644 424 74
0.060592238 0.1470605 0.39899215 0.0019742798 424 74
0.062495481 0.14704457 0.39861864 0.0020343587 421 73
0.06466879 0.1476462 0.3999052 0.00199057 414 71
0.066847429 0.14822499 0.40111423 0.0019942094 414 71
0.068714738 0.14810039 0.40040556 0.0019540866 425 75
0.070547841 0.14791083 0.39950889 0.0019853362 425 75
0.07259132 0.14816073 0.39978579 0.0020545975 429 76
0.074882202 0.14888963 0.40133923 0.0020240084 403 68
0.076862939 0.14898066 0.40115747 0.0019224418 435 78
0.079017922 0.1493967 0.40183586 0.0019881723 439 79
0.081010744 0.14949355 0.40164074 0.001846351 462 85
0.082972355 0.14952961 0.40126836 0.001928803 452 83
0.0848056 0.14933795 0.4002721 0.0019431185 477 90
0.086867981 0.14954937 0.40034291 0.0018531167 460 85
0.089038417 0.14993347 0.40086088 0.0019777063 462 85
0.091081627 0.15009148 0.40075973 0.0020228617 439 79
0.093142085 0.15027072 0.40070149 0.0020199758 445 80
0.095258236 0.15053058 0.40084454 0.0018833723 448 81
0.097338714 0.15072478 0.40079939 0.0019727037 440 79
0.099584594 0.15116237 0.4013879 0.0019593881 448 81
0.10186125 0.15162888 0.40203923 0.0018964875 448 81
0.10391822 0.15175684 0.40178084 0.0018899721 439 79
0.10622525 0.15223844 0.4024474 0.0020072677 446 81
0.1082356 0.15228499 0.40195376 0.0021211815 410 70
0.11020099 0.15226778 0.4012849 0.0020133352 450 82
0.11248615 0.1526852 0.40175429 0.001907568 443 80
0.11460375 0.15286463 0.40159082 0.0019026753 437 78
0.11647703 0.15271766 0.40056714 0.0020026525 413 71
0.11884253 0.15321015 0.4012183 0.001896697 450 82
0.12122768 0.15371133 0.40188909 0.0019061527 434 77
0.12344161 0.15398274 0.40195876 0.0020459942 405 69
0.12546225 0.15400817 0.40139025 0.0019667712 413 71
0.12748353 0.1540336 0.40082893 0.0019509833 427 75
0.12984376 0.15446146 0.40132278 0.0020264217 429 76
0.13244405 0.15515752 0.40252155 0.0019658182 418 73
0.13468392 0.1554168 0.40259838 0.0020628017 427 75
0.13681261 0.15554203 0.4023445 0.0019715633 421 73
0.13905314 0.15578891 0.40242451 0.0019978553 407 69
0.14085083 0.15553974 0.40124655 0.0020547824 383 62
0.14302944 0.15571226 0.40118298 0.0020015561 402 68
0.1456168 0.15631875 0.40226409 0.002073979 381 62
0.14777669 0.15645604 0.40216729 0.0020737574 393 65
0.1495824 0.15621965 0.40114459 0.0021334318 378 61
0.15245867 0.15709272 0.40300611 0.0021794217 367 58
0.15466246 0.15725897 0.40309116 0.0023118232 333 47
0.15671934 0.15727343 0.40282822 0.0023718183 352 53
0.15892127 0.15743122 0.40297547 0.0024007205 340 50
0.16124687 0.15770595 0.40346646 0.0024535307 322 44
0.16330959 0.15771991 0.40333658 0.0023609514 316 42
0.16573474 0.15807921 0.40413728 0.0024954879 303 39
0.16757847 0.15788195 0.40356374 0.0026504667 292 35
0.16993125 0.15816325 0.40426296 0.0027789732 281 32
0.1718594 0.15804732 0.4039968 0.0026001837 282 32
0.173171 0.15737383 0.40235528 0.0027948618 259 26
0.1754985 0.15762851 0.40313667 0.002765124 254 24
0.17764093 0.15771301 0.40353298 0.003036381 258 25
0.18009369 0.15806793 0.40467152 0.0029550318 234 18
0.18254504 0.15841365 0.40583673 0.0032197053 220 14
0.18427271 0.15813066 0.40543997 0.0031663915 214 12
0.18554503 0.15746744 0.40411398 0.0032452864 213 12
0.18745446 0.15735351 0.4042424 0.0034622962 197 7
0.18883628 0.15680394 0.40329531 0.0033909641 193 6
0.19061886 0.15659527 0.40326732 0.0034356804 194 7
0.19243194 0.15641584 0.4033567 0.0034583185 190 5
0.19417915 0.15618716 0.40335971 0.0036745125 178 2
0.19682446 0.15667814 0.40526348 0.0037464402 171 0
0.19876118 0.15660076 0.40573856 0.0037850528 167 0
0.20113581 0.15686649 0.4071424 0.0040407302 154 0
0.20073321 0.15498264 0.40299666 0.004146602 152 0
0.20214221 0.15452102 0.40257382 0.0046121185 144 0
0.20486045 0.15505944 0.40479133 0.0044094324 138 0
0.20670792 0.15493467 0.40531319 0.0049236706 135 0
0.20886835 0.15504467 0.40648082 0.0043813004 133 0
0.21165755 0.15561481 0.40888876 0.0046981918 128 0
nan nan nan 0 129 0
nan nan nan 0 130 0
nan nan nan 0 130 0
nan nan nan 0 131 0
nan nan nan 0 137 0
nan nan nan 0 141 0
nan nan nan 0 141 0
-0.20977645 0.14703472 0.38779497 0.0043994226 141 0
-0.2078298 0.14699128 0.38689569 0.0045283586 138 0
-0.20584063 0.14691664 0.38583803 0.0043994198 142 0
-0.20551892 0.14804177 0.38788578 0.0042331959 149 0
-0.20338209 0.1478682 0.3865113 0.0041833883 148 0
-0.20228574 0.14845495 0.38712463 0.0043734103 139 0
-0.20047799 0.14852582 0.3864024 0.0043277079 146 0
-0.19939363 0.14913911 0.38710755 0.0042732083 161 0
-0.19804674 0.14956601 0.38734734 0.0042431555 153 0
-0.19656016 0.14989473 0.38735619 0.0040635699 155 0
-0.19536781 0.15045652 0.38799179 0.0038814268 158 0
-0.19431618 0.15113899 0.38896328 0.0040282151 158 0
-0.19249855 0.1512334 0.38845 0.004153478 164 0
-0.18982822 0.150653 0.38623956 0.0037947041 172 0
-0.18770601 0.15050015 0.38516343 0.0039132782 174 1
-0.18669079 0.15124094 0.38640764 0.0035609447 180 2
-0.18607281 0.15232244 0.38855213 0.0035076777 189 5
-0.18443073 0.15257964 0.38862687 0.0036726925 173 0
-0.18269502 0.1527641 0.38855436 0.0035554373 186 4
-0.18100992 0.15299527 0.38864014 0.0032979618 201 9
-0.17892928 0.15289356 0.38792154 0.0031393142 207 10
-0.17742579 0.15328823 0.38850433 0.0033431782 213 12
-0.17594522 0.15371178 0.38920191 0.0034170644 214 12
-0.1741952 0.15390682 0.38936421 0.0031813858 230 17
-0.17236918 0.15403843 0.38941091 0.0030722746 226 16
-0.17043832 0.15407833 0.38927159 0.0030825643 226 16
-0.16834964 0.15397479 0.38881668 0.0032350605 219 14
-0.16646178 0.15405467 0.38887203 0.0029268954 244 21
-0.16490324 0.15444489 0.38975772 0.0031359228 248 22
-0.1627474 0.1542784 0.38928562 0.0028217409 248 22
-0.16086498 0.15437016 0.38951251 0.0029540395 234 18
-0.15905274 0.1545324 0.38996422 0.0029915364 246 22
-0.15705246 0.15451376 0.39000577 0.0026586317 271 29
-0.15450747 0.15395188 0.38872114 0.0027741797 278 31
-0.15267533 0.1540949 0.3892605 0.0028353406 271 29
-0.15051313 0.15390421 0.38899994 0.0026162241 277 31
-0.14899804 0.15437892 0.3904632 0.0024834049 303 39
-0.14706245 0.15442488 0.39088306 0.0026139866 303 39
-0.14468086 0.15399736 0.39014179 0.0023597109 318 43
-0.14288867 0.15419403 0.39101741 0.0023741694 324 45
-0.14130639 0.15462597 0.39252502 0.0024350795 308 40
-0.13842359 0.1536268 0.39042947 0.0023415403 333 47
-0.13594991 0.15305938 0.38945547 0.0024121762 318 43
-0.13396449 0.15303312 0.3898828 0.0023925842 334 48
-0.13250831 0.15361962 0.39189675 0.0023725471 344 51
-0.13010208 0.15310581 0.39112484 0.0022800402 338 49
-0.12783542 0.15274301 0.39075392 0.0024726947 335 48
-0.12580843 0.15265977 0.39111224 0.0022703328 364 57
-0.12369568 0.15246814 0.39120504 0.0022445431 354 54
-0.12144116 0.15209284 0.39083511 0.0023157508 353 53
-0.11923209 0.15176313 0.39058781 0.0022502437 362 56
-0.11733478 0.15182586 0.39135569 0.0021869396 363 56
-0.11533136 0.15175115 0.39177313 0.002272699 334 48
-0.11284742 0.15103072 0.39052239 0.0024260117 344 51
-0.11098164 0.15112694 0.39138097 0.0022629877 337 49
-0.10914639 0.15126882 0.39235726 0.0022924331 356 54
-0.10710918 0.15113093 0.39260471 0.0022858391 336 48
-0.10497923 0.15085468 0.39248669 0.002148197 366 57
-0.10278434 0.15047297 0.39208594 0.002076485 389 64
-0.10077636 0.15035553 0.39236501 0.0021342325 379 61
-0.098368965 0.14962597 0.39103538 0.0021612947 373 59
-0.096345581 0.14946312 0.39117476 0.0022230039 354 54
-0.09460929 0.14974809 0.39247692 0.002152354 374 60
-0.09291324 0.15010984 0.39397252 0.0021194958 379 61
-0.090741426 0.14970201 0.39343724 0.0021043089 388 64
-0.088895805 0.14982633 0.39428809 0.0022394625 392 65
-0.086925499 0.14974135 0.39457652 0.0021186688 375 60
-0.085035555 0.1497941 0.39521554 0.0021811933 365 57
-0.08296521 0.14952415 0.39499 0.0022585227 371 59
-0.080562182 0.1486277 0.39309305 0.0021221384 378 61
-0.078640245 0.14859682 0.39346984 0.0021670316 384 63
-0.076972328 0.14905633 0.39513335 0.0021452163 380 61
-0.07525868 0.14944845 0.39660773 0.0021550434 362 56
-0.073090032 0.14893393 0.39566261 0.0021765903 358 55
-0.071062207 0.14868641 0.39541161 0.0021238022 375 60
-0.069277011 0.14894691 0.39649877 0.0022070319 374 60
-0.067163236 0.1484957 0.39567778 0.0021021785 377 60
-0.064982355 0.14786549 0.39436421 0.0023161669 372 59
-0.062971726 0.14759642 0.39399886 0.0021062186 382 62
-0.06119759 0.14788218 0.39510199 0.0021439227 370 58
-0.059361286 0.14803118 0.39582825 0.002134097 371 59
-0.05741924 0.14791757 0.39583996 0.0022036473 369 58
-0.055415038 0.14763068 0.3953748 0.0021288847 370 58
-0.053298298 0.14701305 0.39401004 0.0021377367 370 58
-0.051498797 0.14725725 0.39494237 0.002204783 371 59
-0.049569882 0.14713593 0.39488283 0.0021105316 370 58
-0.04778561 0.14745131 0.39598417 0.0021121206 384 63
-0.045940131 0.14759603 0.3966164 0.0021011489 383 62
-0.043946434 0.14725654 0.39593592 0.0021267985 378 61
-0.04194428 0.14685696 0.39508161 0.0021660936 368 58
-0.040018324 0.14669915 0.39486602 0.0021617643 382 62
-0.038248427 0.14712605 0.3962138 0.0021844958 360 55
-0.036517918 0.14775664 0.39810082 0.0022190337 354 54
-0.034465306 0.14708163 0.39645976 0.0021553505 364 57
-0.032536257 0.1468863 0.39610025 0.0023529022 357 55
-0.030653264 0.14688769 0.39626068 0.0021976924 359 55
-0.028840804 0.14724936 0.39738345 0.0022157945 388 64
-0.026939314 0.14717531 0.39732069 0.0021346835 369 58
-0.025009155 0.14692168 0.39676294 0.0022222034 358 55
-0.023141485 0.14702377 0.39715597 0.0022551925 371 59
-0.021203442 0.14665715 0.39627317 0.0020970511 379 61
-0.019298641 0.14647153 0.39586952 0.0022173573 384 63
-0.017410077 0.14638241 0.39571711 0.0022246207 395 66
-0.015569387 0.1467229 0.39671692 0.0020447974 398 67
-0.013777038 0.14767516 0.3993623 0.0020098588 403 68
-0.011889963 0.14775369 0.39963609 0.0021471616 396 66
-0.0099678803 0.1473445 0.39858145 0.0020689552 391 65
-0.0080712158 0.14720756 0.39825392 0.002123412 391 65
-0.0061896238 0.14734583 0.39866197 0.0021556693 392 65
-0.004292212 0.14706352 0.39792308 0.0021065893 385 63
-0.0024009061 0.14671201 0.39698777 0.0023151522 381 62
-0.00052043307 0.14687386 0.39743266 0.0021451404 380 61
0.0013623661 0.14683913 0.39733666 0.0021227128 380 61
0.00324561 0.14686482 0.39739525 0.0020786251 402 68
0.0051249182 0.14675891 0.39708883 0.0022671439 385 63
0.0070170998 0.14697956 0.39765686 0.0020938686 402 68
0.0089277634 0.14741196 0.39878875 0.0021542562 395 66
0.010848511 0.14783067 0.3998743 0.0021074961 374 60
0.012724582 0.14760658 0.39921182 0.002193453 377 60
0.014591455 0.14734761 0.39844617 0.0020188326 403 68
0.016440505 0.14698867 0.39740112 0.0020511302 403 68
0.018358411 0.1472559 0.39803979 0.0020543153 399 67
0.020296369 0.1476191 0.39892805 0.0019577488 431 76
0.022157125 0.14740674 0.39825144 0.0019789129 419 73
0.024019461 0.14723745 0.39768189 0.0019626608 431 76
0.025939785 0.14742237 0.39805928 0.0020020579 403 68
0.027866727 0.14761725 0.3984535 0.0021029823 407 69
0.029758027 0.14761055 0.3982935 0.0020990151 413 71
0.031676479 0.14773126 0.39846718 0.0020592138 421 73
0.033653568 0.1480964 0.39928937 0.0019477276 423 74
0.035649538 0.14850122 0.4002074 0.0020961459 423 74
0.037508637 0.14832368 0.39954519 0.0019288911 429 76
0.039162058 0.14738923 0.39683482 0.0019979475 421 73
0.041137207 0.14769591 0.39745623 0.001954135 425 75
0.043246627 0.14843649 0.39923283 0.0019261895 441 79
0.045290273 0.14889836 0.40024689 0.0019798893 418 73
0.047256961 0.1490801 0.40049577 0.0020586338 393 65
0.049115498 0.14891979 0.39981407 0.0020008455 418 73
0.051083997 0.14909241 0.40001461 0.0021193086 379 61
0.053060088 0.14927393 0.40022662 0.0020668528 391 65
0.055029534 0.14942476 0.40034363 0.0020400116 395 66
0.057022344 0.14962678 0.400585 0.0021704871 387 63
0.058889326 0.1494962 0.39992341 0.0020889735 426 75
0.060780697 0.14943382 0.39943221 0.0019996129 405 69
0.062839679 0.14977475 0.40000585 0.0020307228 397 66
0.06486275 0.1500124 0.40028962 0.0021629892 394 65
0.066909015 0.15028845 0.40066177 0.0020202876 396 66
0.068837784 0.15029255 0.40029511 0.0022034245 398 67
0.070715882 0.15018876 0.39962837 0.002053817 428 75
0.07283958 0.1505983 0.40031353 0.0020838683 428 75
0.075037137 0.15113541 0.40132201 0.0019952576 411 70
0.077180661 0.15153944 0.40196115 0.002087618 435 78
0.079213858 0.1517123 0.40197223 0.0020258501 422 74
0.081269868 0.15191953 0.40206003 0.0018990287 442 80
0.083135575 0.15176962 0.4011893 0.0018635828 453 83
0.085048057 0.15171003 0.40054503 0.0019633209 423 74
0.087082684 0.15186612 0.40045714 0.0019535779 428 75
0.089053549 0.15190659 0.40005124 0.0020429406 421 73
0.091140479 0.1521391 0.40013781 0.0019357135 434 77
0.093269415 0.15243049 0.40036577 0.0019691517 434 77
0.095345311 0.15262504 0.40032616 0.0019969849 431 76
0.097452134 0.15286028 0.40038094 0.0020083946 419 73
0.099733531 0.15335466 0.40110159 0.0019119158 438 78
0.10186451 0.15360311 0.40116668 0.0018998792 434 77
0.10418339 0.15412012 0.40192166 0.0020719238 427 75
0.10640765 0.15448049 0.40225708 0.0019560456 423 74
0.10840222 0.15450032 0.40169773 0.0019785734 420 73
0.11029952 0.15438332 0.4007777 0.0019192053 442 80
0.11251991 0.15471466 0.4010168 0.0019596722 428 75
0.11472736 0.15501703 0.40117577 0.0020860888 412 71
0.11666525 0.15495114 0.40037981 0.0019449362 438 78
0.11858938 0.15486942 0.39954475 0.0021007885 410 70
0.12142777 0.15596473 0.40174505 0.0019833499 409 70
0.12373559 0.15635411 0.40212616 0.0020174349 407 69
0.12576033 0.15637907 0.4015756 0.0019627449 423 74
0.12778784 0.15640661 0.40104118 0.0019822249 414 71
0.13000278 0.1566592 0.40109479 0.0019346416 434 77
0.13245976 0.15719131 0.40187576 0.0021132338 413 71
0.13484864 0.15762788 0.4024263 0.0019978553 410 70
0.13698792 0.15776411 0.40222815 0.0022244055 381 62
0.13891569 0.15765631 0.40143046 0.0020842953 388 64
0.14101838 0.15774728 0.40116447 0.0021957958 369 58
0.14334607 0.1580838 0.40154982 0.002171125 366 57
0.14560913 0.15834066 0.40176189 0.0023256894 362 56
0.1477467 0.15845586 0.401647 0.0022261709 359 55
0.14999989 0.15869027 0.40186915 0.0023275537 362 56
0.15225762 0.15892315 0.40212443 0.0022769223 335 48
0.15436442 0.15899442 0.40201035 0.0023190868 331 47
0.15627907 0.15886849 0.40143985 0.0023377077 324 45
0.15861361 0.15916717 0.40198568 0.002326078 331 47
0.16087855 0.1593893 0.40238276 0.0024282623 305 39
0.16368163 0.16013232 0.40414047 0.0025426319 288 34
0.1650885 0.15950793 0.40249449 0.0024720333 302 38
0.16752565 0.15988208 0.40341657 0.0026388245 278 31
0.16997652 0.16026014 0.40439719 0.0026988909 261 26
0.17224105 0.16045555 0.40496632 0.0029136187 262 27
0.17357893 0.1597933 0.40341961 0.0027040888 263 27
0.1754107 0.15959586 0.40309465 0.0027462882 257 25
0.17778073 0.15988709 0.40405264 0.0029521915 238 20
0.18032278 0.16032457 0.40542972 0.0030545937 225 16
0.18223907 0.16020215 0.40543914 0.0030441869 224 15
0.18382677 0.15979679 0.40477839 0.0032153358 214 12
0.1856629 0.15961394 0.40472597 0.0032469784 207 10
0.18742953 0.159376 0.40457779 0.0033502663 198 8
0.18864442 0.15867908 0.40330592 0.0038315717 193 6
0.18973656 0.15789488 0.40185007 0.0038521972 181 3
0.1914148 0.15760985 0.40170255 0.0040637869 176 1
0.1937855 0.15789495 0.40304878 0.0037405929 171 0
0.19633836 0.15832105 0.40479714 0.0040253173 162 0
0.19931993 0.15908062 0.40744165 0.0038889926 164 0
0.19956388 0.15766197 0.40454131 0.0040098494 155 0
0.20116885 0.15733625 0.4044731 0.0044714622 138 0
0.2007885 0.15547965 0.40049291 0.0050089881 131 0
0.20271119 0.1554254 0.40117857 0.0044597662 138 0
0.20520461 0.15580553 0.40301874 0.0046504722 127 0
0.20763475 0.15613073 0.40475079 0.0053879512 126 0
nan nan nan 0 122 0
nan nan nan 0 117 0
nan nan nan 0 127 0
nan nan nan 0 130 0
nan nan nan 0 132 0
-0.21526709 0.14880592 0.38862744 0.0049111089 135 0
-0.21293125 0.14849064 0.38791791 0.0046659485 133 0
-0.21094301 0.1484143 0.38746819 0.0044548758 138 0
-0.20883197 0.14824942 0.38652414 0.0047444808 135 0
-0.20694795 0.14824419 0.3858192 0.0044210679 144 0
-0.20543483 0.14850694 0.38569856 0.0046229665 135 0
-0.20393434 0.1487838 0.38554811 0.0043672724 142 0
-0.20322081 0.1496453 0.38687539 0.0043542241 138 0
-0.20107049 0.14945506 0.38547149 0.0049494547 136 0
-0.19938076 0.14960679 0.38495621 0.0043087234 149 0
-0.1985092 0.15038127 0.38605329 0.0043327953 148 0
-0.1977697 0.15127173 0.38745973 0.0043692691 154 0
-0.19692518 0.15209849 0.38871828 0.0043853004 160 0
-0.19477949 0.1519267 0.38744903 0.0040536793 159 0
-0.19366132 0.1525609 0.38826251 0.0038998944 163 0
-0.19072542 0.15176152 0.3854593 0.0037846314 169 0
-0.18861486 0.15160929 0.38433683 0.0041287509 166 0
-0.18691137 0.15178449 0.38407764 0.0038560769 167 0
-0.18609568 0.15269175 0.38570046 0.0038154423 181 3
-0.1853447 0.15367171 0.38753447 0.0035284054 181 3
-0.18440105 0.15451106 0.3890433 0.0034987419 188 5
-0.18247685 0.15453795 0.3885414 0.0035238154 190 5
-0.18095301 0.15490815 0.38894039 0.0036148992 180 2
-0.17931159 0.15518473 0.38914254 0.0036198359 187 5
-0.17700011 0.1548811 0.38793099 0.0034375722 195 7
-0.17525226 0.1550694 0.38799414 0.0033794213 210 11
-0.17343745 0.15520202 0.38796028 0.0031756593 215 13
-0.17174293 0.1554466 0.38824922 0.0031200235 215 13
-0.16976906 0.15544103 0.3879576 0.0031052246 225 16
-0.1684303 0.15602367 0.38917828 0.0030670969 222 15
-0.16673908 0.15628977 0.3896541 0.0030648857 240 20
-0.1646232 0.15615945 0.38918737 0.0030405067 225 16
-0.16244006 0.15596136 0.38859844 0.0030889721 223 15
-0.16077529 0.15626223 0.38929892 0.0030200249 230 17
-0.15919662 0.15665531 0.39027518 0.0030607956 241 20
-0.15723701 0.15667874 0.39037642 0.0028126293 251 23
-0.15491477 0.15633677 0.38961223 0.0029441984 252 24
-0.15282094 0.15621947 0.38945198 0.0025809593 278 31
-0.15226355 0.1576903 0.39329574 0.0029580935 267 28
-0.14911078 0.15647657 0.39048633 0.0026053789 287 34
-0.14715987 0.15650842 0.39082417 0.0026871052 295 36
-0.14496715 0.15628046 0.39055184 0.0025716401 301 38
-0.14285719 0.15613662 0.39052612 0.0024761311 307 40
-0.14082232 0.15607196 0.39073291 0.0024584893 313 42
-0.13847558 0.15565494 0.39008909 0.0024502836 309 40
-0.13635904 0.15548834 0.39010188 0.0025508902 291 35
-0.13464627 0.15578403 0.39130285 0.002528501 307 40
-0.13289484 0.1560431 0.3924391 0.0025130503 330 47
-0.13080968 0.15591224 0.39261812 0.002590168 310 41
-0.12818858 0.15512876 0.39117119 0.0025357092 324 45
-0.12595862 0.15480164 0.39088911 0.0023350504 326 45
-0.12381218 0.15456845 0.39085749 0.0023750183 317 43
-0.12145204 0.15405667 0.39013162 0.0023967563 339 49
-0.11937147 0.15388864 0.39028415 0.002321677 346 51
-0.11762331 0.15415064 0.39153594 0.0023756765 349 52
-0.11539011 0.15377508 0.39117405 0.0022465885 350 53
-0.11316503 0.15339766 0.3908084 0.0023191874 340 50
-0.11118229 0.15334131 0.3912611 0.0024282341 342 50
-0.10940507 0.15357141 0.39244574 0.002294417 362 56
-0.10739188 0.15347262 0.39278916 0.0021700924 364 57
-0.10518844 0.15309332 0.39240989 0.0022836167 357 55
-0.10314801 0.15294147 0.39260721 0.002309524 362 56
-0.10085093 0.15239598 0.39178595 0.0022327439 356 54
-0.098671928 0.15201111 0.39136758 0.0022790541 347 52
-0.096508659 0.15163566 0.39096299 0.0021716463 364 57
-0.094820909 0.1520073 0.39247602 0.002158826 369 58
-0.093114257 0.15236336 0.39394239 0.0023645661 357 55
-0.091245785 0.15246414 0.39474019 0.002182567 378 61
-0.088837758 0.15164821 0.39315152 0.0020994665 382 62
-0.086980797 0.15175773 0.39394853 0.002127887 372 59
-0.08498203 0.15161915 0.39409003 0.0021835268 358 55
-0.082906589 0.15133424 0.39383796 0.0022660377 381 62
-0.080942214 0.15124337 0.39407739 0.0022266223 367 58
-0.078893997 0.15098767 0.39387399 0.0022103456 359 55
-0.077185094 0.15138476 0.39536136 0.0021987874 355 54
-0.0752353 0.15131757 0.39562455 0.0023534871 339 49
-0.073079832 0.15082239 0.39475429 0.0021588462 373 59
-0.070938036 0.15032963 0.39387482 0.0022480828 365 57
-0.069277428 0.15085752 0.39565685 0.0021460585 373 59
-0.067450874 0.15104373 0.39653173 0.0022874922 346 51
-0.065268032 0.1504197 0.39526573 0.002268305 362 56
-0.063304089 0.15027779 0.39525193 0.0022370389 361 56
-0.061255269 0.14991938 0.39465496 0.0021881938 363 56
-0.059657447 0.15067714 0.39698458 0.0021659269 367 58
-0.057715349 0.15058668 0.3970685 0.00234247 360 55
-0.055518899 0.14980373 0.39531228 0.0023096136 347 52
-0.053518452 0.14951299 0.39484069 0.0023278825 344 51
-0.051518477 0.14920229 0.39430311 0.0023024618 351 53
-0.049624525 0.14918667 0.39453298 0.0022944012 359 55
-0.047754411 0.14924431 0.394945 0.0022192062 377 60
-0.045846697 0.14918438 0.39503425 0.0021565577 370 58
-0.043936469 0.14911075 0.39507571 0.0022455121 342 50
-0.041864444 0.14845674 0.39356703 0.0022464681 354 54
-0.039978921 0.14843373 0.39371914 0.0022040631 351 53
-0.038187899 0.14877659 0.39483124 0.0021901866 361 56
-0.036392096 0.14913544 0.39597595 0.0022720622 337 49
-0.034435991 0.14884068 0.39537463 0.0022280046 369 58
-0.03259429 0.14903495 0.39606166 0.0022484392 354 54
-0.030776801 0.14937054 0.39711452 0.0022034834 355 54
-0.028867383 0.14927474 0.39701039 0.0023034536 359 55
-0.026953161 0.1491389 0.39678949 0.0022033933 361 56
-0.025069017 0.14916161 0.39698026 0.0022295041 356 54
-0.023173347 0.14911383 0.39697343 0.0022358836 347 52
-0.021282248 0.14908957 0.39701939 0.0021594777 371 59
-0.019336525 0.14864074 0.3959246 0.0022479205 353 53
-0.017416289 0.14831212 0.39514002 0.0021307964 367 58
-0.015607711 0.14896986 0.39697394 0.0020973727 375 60
-0.013778558 0.14958504 0.3986856 0.0020591051 378 61
-0.011873269 0.14943798 0.3983565 0.0021222096 380 61
-0.0099598141 0.14911288 0.39754328 0.0021341832 374 60
-0.008071797 0.14910568 0.39756814 0.0020854997 384 63
-0.0061847772 0.14911813 0.39763612 0.0021939385 385 63
-0.0042974469 0.14913073 0.39769527 0.0021088107 376 60
-0.0024058095 0.14889652 0.39708698 0.002143133 361 56
-0.00051948027 0.14848465 0.39599565 0.0022278493 382 62
0.001362572 0.14874426 0.39668593 0.0022728227 371 59
0.003249096 0.14890756 0.39711025 0.0020840107 391 65
0.0051366976 0.14898221 0.39728889 0.0020329743 392 65
0.0070215575 0.14895861 0.39719629 0.0020472344 400 67
0.0089414045 0.1495301 0.39868116 0.0021752589 391 65
0.010854252 0.14980525 0.39936638 0.0021140771 377 60
0.012755417 0.14986137 0.39945811 0.0021142426 385 63
0.014583319 0.14915361 0.39750469 0.0020386204 402 68
0.016456019 0.14901376 0.39705563 0.0020672109 389 64
0.018291084 0.14859694 0.39585936 0.0019762393 426 75
0.020282537 0.14940986 0.39792934 0.0020864098 411 70
0.022203384 0.14960839 0.39835256 0.002021739 402 68
0.024049645 0.14931263 0.39745 0.0020473332 393 65
0.025942659 0.1493291 0.39736879 0.002082401 384 63
0.027870761 0.14953153 0.39777246 0.0019917677 405 69
0.029730501 0.14936481 0.39718387 0.0021460012 382 62
0.031684004 0.14966093 0.39781567 0.0020295114 405 69
0.033723038 0.15030484 0.39936054 0.0021558218 413 71
0.035473268 0.1496615 0.3974748 0.0019069931 447 81
0.037461936 0.15003836 0.39828807 0.00203889 419 73
0.039331187 0.14992367 0.3977854 0.0019684432 415 72
0.041381046 0.15047626 0.39904174 0.0019345724 431 76
0.043349363 0.15069677 0.39940506 0.0020512377 412 71
0.045387439 0.15113097 0.40032265 0.0020235253 412 71
0.047246937 0.15095946 0.39962387 0.0020156126 410 70
0.049137738 0.15089743 0.39920369 0.0020596685 392 65
0.051073514 0.15097298 0.39913574 0.0020893803 381 62
0.053092953 0.15128146 0.39967102 0.0021533393 367 58
0.055073287 0.15146093 0.39985245 0.0020380372 399 67
0.057100095 0.15175182 0.40031493 0.0020412107 401 68
0.058998276 0.15169308 0.3998422 0.0021189258 405 69
0.060994156 0.15188129 0.40000769 0.0020050521 425 75
0.063029155 0.15215246 0.40037805 0.0021605454 399 67
0.064935349 0.15210581 0.39989895 0.0020181078 406 69
0.066798568 0.15196408 0.3991574 0.0020571586 400 67
0.069088362 0.15277359 0.40089983 0.0021040491 405 69
0.071020022 0.15276861 0.40049005 0.0019928343 411 70
0.07298208 0.15282756 0.40023476 0.0019961132 420 73
0.075107098 0.15321591 0.40082774 0.0020146212 406 69
0.077235542 0.15359151 0.40137228 0.0019961416 427 75
0.079340957 0.15390399 0.401737 0.0020207774 436 78
0.081431165 0.15417272 0.40197289 0.0019045423 445 80
0.083451718 0.15430006 0.4018262 0.0020394323 421 73
0.085320726 0.15414776 0.40093896 0.0019842873 421 73
0.087239385 0.15409002 0.40028599 0.0019627248 423 74
0.08917173 0.15405841 0.39968935 0.0020009344 409 70
0.091343708 0.15443331 0.40013474 0.0020786333 421 73
0.093536034 0.15482619 0.40061292 0.0020401492 423 74
0.095703766 0.15516306 0.40093324 0.0019359696 430 76
0.09765099 0.15513606 0.40030223 0.0019390699 428 75
0.099681102 0.15523922 0.39999771 0.0019428491 422 74
0.10177916 0.15544216 0.39994085 0.0019720034 444 80
0.10395037 0.15574701 0.4001371 0.0019202745 429 76
0.10674552 0.15695794 0.40264902 0.001990522 413 71
0.10852157 0.15665351 0.40126503 0.0019050132 442 80
0.11035527 0.15644173 0.40011677 0.0020299179 425 75
0.1128014 0.15709034 0.40116492 0.0020480107 416 72
0.11503176 0.15742117 0.4013972 0.002016098 402 68
0.11682795 0.15715668 0.40011236 0.0019995826 428 75
0.12002506 0.15875399 0.40356541 0.0021273014 406 69
0.12249652 0.15935473 0.40448171 0.0020742458 388 64
0.12405111 0.15876259 0.40237734 0.0020655331 390 64
0.12602398 0.15871608 0.40166777 0.0021481591 362 56
0.1280316 0.15871413 0.40108305 0.0020335889 407 69
0.13015477 0.15885329 0.40086868 0.0021762382 404 68
0.13251115 0.1592685 0.40136591 0.0020631729 395 66
0.13502276 0.15985502 0.40231109 0.0020826852 374 60
0.13707459 0.15988794 0.40188307 0.0021717327 369 58
0.13918991 0.15999286 0.40166044 0.0021741614 357 55
0.14151025 0.16032708 0.40203956 0.0021639941 367 58
0.14362958 0.1604273 0.40186068 0.0022143594 354 54
0.1458797 0.16066881 0.4020673 0.0022113721 355 54
0.14805183 0.16081893 0.40207908 0.0024159071 340 50
0.1501931 0.16093192 0.40203446 0.0025038861 336 48
0.15213317 0.1608292 0.40148997 0.0025738187 314 42
0.15396817 0.16061957 0.40071991 0.0024638977 304 39
0.15618934 0.160813 0.40099788 0.0024190093 318 43
0.15823208 0.16082014 0.40085497 0.0025628714 304 39
0.16086893 0.16142324 0.40224209 0.002548354 301 38
0.16288432 0.1613954 0.40210274 0.0025030957 295 36
0.16477095 0.16124228 0.40169823 0.0028509765 261 26
0.16717231 0.16159043 0.4025901 0.0027216661 256 25
0.16958171 0.16193786 0.40352798 0.002816567 252 24
0.17112376 0.16145863 0.40245387 0.0028442487 247 22
0.17343204 0.16170509 0.40323639 0.0029161144 241 20
0.1754971 0.16172171 0.40349358 0.0031066262 230 17
0.17808136 0.16221088 0.40497801 0.0030761019 225 16
0.18009982 0.16217941 0.40521005 0.003382355 217 13
0.18157543 0.16166528 0.40428135 0.0035047377 212 12
0.18294854 0.1610724 0.40319836 0.0033254151 195 7
0.18488556 0.16098358 0.40341973 0.0036314817 179 2
0.1870022 0.16105138 0.40407705 0.0035019636 189 5
0.18824798 0.1603758 0.40290964 0.003621527 177 2
0.18950611 0.15972507 0.40184134 0.0037096518 180 2
0.19120714 0.15945742 0.40177354 0.0040421276 175 1
0.19295669 0.1592354 0.40185776 0.0040316004 168 0
0.19417301 0.15858249 0.40088859 0.0039920928 163 0
0.19747493 0.15962885 0.40425357 0.0039454857 161 0
0.20044619 0.16038939 0.4069387 0.0043840325 142 0
0.19988093 0.15833329 0.40250564 0.0044139377 139 0
0.20078033 0.15746672 0.40111485 0.0046786224 128 0
0.20210874 0.15695032 0.40064037 0.0055208327 121 0
0.2051468 0.15775873 0.40357921 0.0047504883 123 0
0.20675895 0.15746556 0.40373075 0.0051178192 122 0
nan nan nan 0 118 0
nan nan nan 0 124 0
nan nan nan 0 125 0
nan nan nan 0 132 0
nan nan nan 0 139 0
-0.21546261 0.15082654 0.38863233 0.0043972628 143 0
-0.21341436 0.15071157 0.38876277 0.0044340552 139 0
-0.21029155 0.14982893 0.38648069 0.0050188839 134 0
-0.20764577 0.1492734 0.38471505 0.0047978791 138 0
-0.2059751 0.14941512 0.38451463 0.0047288476 136 0
-0.20591976 0.1507419 0.3872025 0.0048060571 133 0
-0.20429716 0.15093532 0.38687614 0.0041198358 150 0
-0.20196079 0.15060011 0.38514283 0.0044511869 134 0
-0.20039447 0.15083817 0.38485318 0.0048179422 136 0
-0.19884446 0.15109318 0.38460019 0.004964612 137 0
-0.1972996 0.15135702 0.38437542 0.0042799055 147 0
-0.19759507 0.15305144 0.38778937 0.0042572566 144 0
-0.19633478 0.15356216 0.38821372 0.0042295614 142 0
-0.1948901 0.15393731 0.38831612 0.0040342044 157 0
-0.19296572 0.15393728 0.38749799 0.0042706011 160 0
-0.1915772 0.15436903 0.38779405 0.0042498023 144 0
-0.18860874 0.15352355 0.38491461 0.0038232994 167 0
-0.18751936 0.1542059 0.38589868 0.0038143464 166 0
-0.18629126 0.1547872 0.38665715 0.0038055778 171 0
-0.18555188 0.15579103 0.3884986 0.0042978935 173 0
-0.18406606 0.15618278 0.38884333 0.0036618633 177 2
-0.18260339 0.15660277 0.38929194 0.0039088568 181 3
-0.18103826 0.15694305 0.38957745 0.0034403934 196 7
-0.17921607 0.15706553 0.38935938 0.0036860039 181 3
-0.1772441 0.15705797 0.38885856 0.0034686653 190 5
-0.17495169 0.15676312 0.38768786 0.0032313447 206 10
-0.17306454 0.15682882 0.38745105 0.0031642977 212 12
-0.17113204 0.15685448 0.38715741 0.0031226117 215 13
-0.16946392 0.15712586 0.38751271 0.0031040597 220 14
-0.16844805 0.15801543 0.38943419 0.0032887799 228 17
-0.16717786 0.15868475 0.39085484 0.0029484234 235 19
-0.16493851 0.15843917 0.39006642 0.0030219008 231 17
-0.16244988 0.15794525 0.38871258 0.0032704966 219 14
-0.16080536 0.15826996 0.38941896 0.0030424234 224 15
-0.1593411 0.15878238 0.39063197 0.0032914379 222 15
-0.15767664 0.15910575 0.39142495 0.0028830243 243 21
-0.15565883 0.15907626 0.3913947 0.0028555864 259 26
-0.15362209 0.15902638 0.39135838 0.002817377 257 25
-0.15171914 0.15911554 0.39170766 0.0028085192 250 23
-0.15021522 0.15963113 0.3931497 0.002799246 256 25
-0.14740813 0.15875705 0.39120978 0.0026443643 270 29
-0.14541493 0.15874766 0.39143902 0.0025349436 293 36
-0.14312607 0.15841077 0.39089799 0.0027154598 280 32
-0.14047845 0.15766177 0.38937396 0.0027171229 284 33
-0.13848346 0.15763435 0.38966432 0.0025353762 286 34
-0.13682707 0.1579971 0.39095178 0.0025476341 287 34
-0.13488568 0.1580366 0.39147004 0.0025511591 284 33
-0.13288985 0.15801252 0.3918581 0.0026909602 285 33
-0.13069786 0.15775096 0.39168143 0.0024620241 305 39
-0.12830523 0.15723552 0.39089438 0.0026951351 296 37
-0.12624605 0.15711901 0.39111704 0.0026631453 303 39
-0.12413837 0.15693749 0.39119428 0.002524995 319 43
-0.12149594 0.1560633 0.38955638 0.0023454996 325 45
-0.1192656 0.15569851 0.3891983 0.0023201813 334 48
-0.11767396 0.15616925 0.39093944 0.0024025026 357 55
-0.11596304 0.15649492 0.3923285 0.0022636359 350 53
-0.11349488 0.15579231 0.39114428 0.0022689574 339 49
-0.11153609 0.15577661 0.39168614 0.0022772043 336 48
-0.10970967 0.15594846 0.39270234 0.0022716653 335 48
-0.10778799 0.15598869 0.3933883 0.0021953078 360 55
-0.10564673 0.15570679 0.39325994 0.002323145 335 48
-0.10326531 0.15505369 0.39218774 0.0021707248 356 54
-0.10134597 0.1550827 0.39283457 0.0022753002 345 51
-0.099372901 0.15502901 0.39326668 0.0023494081 336 48
-0.097144566 0.15456705 0.3926549 0.0023083505 352 53
-0.095189475 0.1545299 0.3931132 0.0022732329 369 58
-0.09318389 0.15440755 0.39334589 0.002301652 357 55
-0.090573378 0.15325643 0.39094448 0.0022146967 360 55
-0.089132838 0.15407805 0.39356449 0.0022734404 377 60
-0.087064937 0.1538275 0.39343768 0.0022967004 359 55
-0.085114762 0.15377833 0.39381421 0.0022500171 367 58
-0.083233342 0.153854 0.39449915 0.0021341476 376 60
-0.081024602 0.15331389 0.39359233 0.0021879422 374 60
-0.079416245 0.15391116 0.39559367 0.0022462353 353 53
-0.077132106 0.1531959 0.39420903 0.0022609723 343 50
-0.075189985 0.15314083 0.39450857 0.0022555939 339 49
-0.073662832 0.1539501 0.39702451 0.0022086885 358 55
-0.071104214 0.15258925 0.39392999 0.0023039065 364 57
-0.068970948 0.1520914 0.39304572 0.0022713332 345 51
-0.067391284 0.15282069 0.39532071 0.0024168824 353 53
-0.065547548 0.15297623 0.39610112 0.0023651535 354 54
-0.063635789 0.15297757 0.39647019 0.0021899845 351 53
-0.061730321 0.1529946 0.39686733 0.0021908856 357 55
-0.059757169 0.15283963 0.39680544 0.0021892933 359 55
-0.057823576 0.15277891 0.39697531 0.0023167282 361 56
-0.05580892 0.15249257 0.39654598 0.0023017046 342 50
-0.053747281 0.15205304 0.39570457 0.0023805001 347 52
-0.051762786 0.15180755 0.39535472 0.0023233423 354 54
-0.049942564 0.15204348 0.39624676 0.0022555625 351 53
-0.047815964 0.15132841 0.39464769 0.0022192574 366 57
-0.045942631 0.15138905 0.39505875 0.0023212964 356 54
-0.043990403 0.15118371 0.39476404 0.0021945133 363 56
-0.041982662 0.15076061 0.39388838 0.0023542803 340 50
-0.039984189 0.15033257 0.3929874 0.0022165279 355 54
-0.038185216 0.15064937 0.39402229 0.00218374 364 57
-0.036364898 0.1509105 0.39490134 0.002474492 339 49
-0.034554109 0.15124188 0.39595431 0.0024061974 355 54
-0.03268091 0.15132266 0.39634088 0.0022582419 353 53
-0.030819384 0.15147074 0.39689344 0.0023960311 346 51
-0.02889286 0.15129781 0.39659443 0.0021814415 358 55
-0.026953232 0.15102726 0.39602867 0.0022320019 351 53
-0.025068481 0.15104663 0.39621267 0.0022899113 336 48
-0.023210648 0.15124452 0.39685509 0.0022699896 345 51
-0.021338325 0.15137471 0.39731005 0.0020825986 387 63
-0.019442478 0.15134715 0.39734107 0.0023005165 359 55
-0.017503766 0.15094398 0.39637595 0.0022749051 363 56
-0.015592935 0.15071288 0.39585242 0.0022993728 368 58
-0.013756362 0.15123463 0.39729679 0.0021256201 378 61
-0.011855929 0.15110871 0.39703026 0.0021987697 354 54
-0.0099523691 0.15088765 0.39650407 0.0020962683 387 63
-0.0080590341 0.15075448 0.39619917 0.0021130813 383 62
-0.0061849612 0.15101033 0.39690721 0.0022273378 391 65
-0.0043013007 0.15115403 0.39731106 0.0020993142 395 66
-0.0024097483 0.15102829 0.39699727 0.0021483325 377 60
-0.00052056572 0.15067852 0.39608517 0.0021473754 372 59
0.0013626732 0.15063842 0.39597759 0.0022936764 333 47
0.0032532555 0.15098566 0.3968789 0.0021070594 380 61
0.0051456494 0.15113111 0.39724025 0.0020730854 393 65
0.0070479466 0.15141121 0.397946 0.0021977599 381 62
0.0089371484 0.15135092 0.39774761 0.0021420449 373 59
0.010844812 0.15156974 0.39827311 0.0023283008 368 58
0.012716997 0.15130135 0.39750889 0.0020939205 383 62
0.014615638 0.1513765 0.39763758 0.0023267553 359 55
0.016498201 0.15128696 0.39732403 0.002102088 378 61
0.018383129 0.1512353 0.3971003 0.0021412673 397 66
0.020417003 0.15230434 0.39980879 0.0021259044 373 59
0.022282453 0.15204182 0.39901134 0.0021860902 376 60
0.024147673 0.15181911 0.3983086 0.0020799758 388 64
0.026090877 0.15208341 0.39887354 0.002158748 397 66
0.027889932 0.15152864 0.39728022 0.0020385943 398 67
0.029774774 0.1514809 0.39700663 0.0021165689 406 69
0.031766079 0.15194811 0.39807165 0.0020385722 404 68
0.033799641 0.15255328 0.39948642 0.0020678423 405 69
0.035696115 0.15250815 0.39918703 0.0019547688 423 74
0.037456486 0.15191561 0.39744458 0.0019177108 431 76
0.039418623 0.15215905 0.39787883 0.0020120055 423 74
0.041479684 0.15274437 0.39919472 0.0021352905 403 68
0.043504421 0.15315031 0.40002918 0.0020480768 400 67
0.045615047 0.15381162 0.40151766 0.0020289863 403 68
0.047318585 0.15310231 0.39941663 0.0022082778 383 62
0.049178228 0.15293357 0.39871562 0.0020671964 389 64
0.051160559 0.15314472 0.39899316 0.0020810876 397 66
0.053160373 0.15339109 0.39934969 0.0020297579 396 66
0.055150028 0.15359201 0.39957488 0.0020668844 387 63
0.057040226 0.15351172 0.39905608 0.0020077347 399 67
0.058872383 0.15328558 0.39814639 0.0020022704 430 76
0.060900137 0.1535669 0.39854226 0.0019792134 416 72
0.06306833 0.15417433 0.39976996 0.0019544722 432 77
0.065195732 0.15464899 0.40063825 0.0021073634 403 68
0.067336999 0.15512824 0.40150353 0.0021278565 370 58
0.069146059 0.15483676 0.40036058 0.0020395995 411 70
0.071217738 0.1551332 0.40072522 0.0019954881 419 73
0.073075451 0.15496023 0.39986408 0.0019737496 419 73
0.075069748 0.15507834 0.3997415 0.0020676523 382 62
0.077235073 0.15553489 0.40047702 0.0021715893 402 68
0.07945668 0.15607962 0.4014242 0.0021797209 392 65
0.081442513 0.15614615 0.40112731 0.0020561495 389 64
0.083510272 0.156363 0.40120351 0.0020838636 383 62
0.085371464 0.15619199 0.40027246 0.0021648267 409 70
0.087313347 0.15617295 0.39971986 0.0020244664 424 74
0.089437053 0.15647286 0.39997146 0.0020432195 407 69
0.091506973 0.15666784 0.39994255 0.0020110754 420 73
0.094087325 0.15771022 0.40206248 0.0021262108 417 72
0.096000887 0.1576151 0.40126976 0.0020279158 398 67
0.097921953 0.15753588 0.40050918 0.0020098223 421 73
0.099773526 0.15735017 0.39947087 0.0020185893 438 78
0.10179929 0.15744105 0.39912811 0.0019821599 413 71
0.10471339 0.15887631 0.40218192 0.0019094873 435 78
0.1068006 0.15902688 0.40197298 0.002077709 401 68
0.10876566 0.15899341 0.40129489 0.0020961887 412 71
0.11077268 0.15902138 0.40076995 0.0019627765 424 74
0.11298165 0.15933317 0.40095842 0.0019826582 412 71
0.11523309 0.15969296 0.40126652 0.0022371283 382 62
0.11757258 0.1601605 0.40184537 0.0021815076 389 64
0.12016895 0.1609564 0.40324843 0.0021253279 391 65
0.12234533 0.16117285 0.40320325 0.0021518748 393 65
0.12412801 0.16087203 0.40187374 0.0020473714 397 66
0.12621747 0.16097206 0.40155795 0.0021094359 375 60
0.12840021 0.16118604 0.40153944 0.002140874 375 60
0.1305777 0.16138692 0.40150341 0.0021282306 373 59
0.13290834 0.16176811 0.40193322 0.0021672375 370 58
0.13502643 0.16188303 0.40172136 0.0022142883 362 56
0.1373453 0.16223173 0.40211251 0.0022838851 347 52
0.13959976 0.16249529 0.40231755 0.0023592999 342 50
0.14185868 0.16275643 0.40254435 0.0023215464 337 49
0.14430952 0.16322725 0.4033196 0.0024580741 336 48
0.14607108 0.16291617 0.40219635 0.0024484582 327 46
0.14820915 0.16302779 0.40215304 0.0024480904 325 45
0.15033546 0.16312367 0.40210843 0.0023011712 333 47
0.15237109 0.16311985 0.4018577 0.0023427219 317 43
0.15426019 0.16296136 0.40126741 0.0026588598 290 35
0.15627742 0.16294061 0.40105915 0.0025975485 288 34
0.15913731 0.16378765 0.40303034 0.0026987665 284 33
0.16118333 0.16378619 0.40295801 0.0026706345 274 30
0.162885 0.16343921 0.4020814 0.0026019253 274 30
0.16471995 0.16323292 0.40159729 0.0028900891 263 27
0.1669122 0.16338141 0.40203258 0.0029506907 247 22
0.16902192 0.16344652 0.40230957 0.0029191778 234 18
0.17120776 0.1635828 0.40280873 0.0032579603 228 17
0.17316858 0.16350339 0.40282342 0.0032216988 223 15
0.17582799 0.16407776 0.40449578 0.0029864414 227 16
0.17780654 0.16401082 0.40463409 0.0031862182 222 15
0.17954311 0.16372477 0.40427628 0.003209545 207 10
0.18076821 0.16298401 0.4028379 0.0033134928 192 6
0.18245722 0.16267338 0.40250364 0.0035399997 184 4
0.18416381 0.16238508 0.40226564 0.0033537168 197 7
0.18605521 0.16226426 0.40248305 0.0036585859 184 4
0.18810505 0.16228272 0.40308625 0.0038237595 184 4
0.18984292 0.16203453 0.4030661 0.0036032938 175 1
0.19169825 0.16189076 0.40334278 0.003910529 166 0
0.19347814 0.16168696 0.40350604 0.0040796977 149 0
0.19455656 0.16090721 0.40226424 0.0040433938 154 0
0.19735213 0.16154906 0.40461114 0.0041366313 155 0
0.19894132 0.16120039 0.40451276 0.0043658917 136 0
0.20034964 0.16071364 0.40409675 0.0049298774 135 0
0.2012891 0.15986419 0.40279365 0.0048100543 123 0
0.20292754 0.15958108 0.40294167 0.0049420018 125 0
nan nan nan 0 121 0
nan nan nan 0 122 0
nan nan nan 0 112 0
nan nan nan 0 126 0
nan nan nan 0 119 0
nan nan nan 0 129 0
nan nan nan 0 130 0
nan nan nan 0 131 0
-0.21416909 0.15313524 0.3898848 0.0051269745 127 0
-0.21022844 0.15165639 0.38640797 0.0054262336 121 0
-0.2067655 0.15049869 0.38335142 0.004666144 132 0
-0.20537899 0.1508451 0.38383159 0.0046088537 130 0
-0.20475578 0.15176357 0.38555655 0.0045823869 127 0
-0.20357627 0.15228288 0.38612592 0.0046283309 145 0
-0.20164248 0.15224238 0.38519198 0.0045841644 136 0
nan nan nan 0 127 0
-0.19808394 0.15239684 0.38381475 0.0044326284 144 0
-0.1977082 0.15356648 0.38586113 0.0044893334 131 0
