# .PCD v0.7 - Point Cloud Data file format
VERSION 0.7
FIELDS x y z noise intensity gray
SIZE 4 4 4 4 2 1
TYPE F F F F U U
COUNT 1 1 1 1 1 1
WIDTH 861
HEIGHT 1
VIEWPOINT 0 0 0 1 0 0 0
POINTS 861
DATA ascii
0.23647611 -0.13068403 0.47631082 0.0026261206 291 36
0.23890924 -0.13069129 0.4762556 0.002647555 298 38
0.24275137 -0.13146147 0.47906539 0.0025617825 281 33
0.24442688 -0.13105467 0.47767082 0.0027237919 260 27
0.24623303 -0.13072519 0.47664151 0.0029569811 252 25
0.24851535 -0.13065252 0.47663021 0.0029874134 229 18
0.25137907 -0.13088392 0.4778094 0.0034319807 218 15
0.25383571 -0.13090098 0.47828567 0.0032730126 204 11
-0.25546068 -0.11448376 0.4365066 0.0035444323 208 12
-0.25389028 -0.11475018 0.43643042 0.0032503295 206 11
-0.25277695 -0.11522952 0.43719774 0.0032201975 206 11
-0.25178114 -0.11577123 0.43823612 0.0043220287 165 0
-0.24961838 -0.11578117 0.43730295 0.0037943211 197 9
-0.24783778 -0.11597008 0.43709293 0.0028979979 245 23
-0.24633852 -0.11629518 0.43744338 0.0028230688 264 28
-0.24481742 -0.11661571 0.43782544 0.00290558 265 29
-0.24302998 -0.11681407 0.43780133 0.0026036694 279 33
-0.24156848 -0.11717413 0.43843842 0.0027539425 263 28
-0.23979107 -0.1173862 0.43857965 0.002580364 279 33
-0.23805587 -0.11762309 0.43887511 0.002514937 295 37
-0.23615703 -0.1177828 0.43894696 0.0025609275 303 40
-0.23415741 -0.11789483 0.43890876 0.0023466353 325 46
-0.23194833 -0.11790252 0.43855259 0.002448289 315 43
-0.23007044 -0.11808034 0.43890193 0.0023577854 326 46
-0.22825706 -0.11829507 0.43946248 0.0022251906 345 52
-0.22595283 -0.11825715 0.43916079 0.0020130947 406 69
-0.22372043 -0.11825643 0.43907523 0.0020047543 404 69
-0.22155841 -0.11829329 0.43920791 0.0020205327 396 67
-0.21913172 -0.11818814 0.43889254 0.0019644722 425 75
-0.21679668 -0.11813077 0.43883353 0.0020881528 413 71
-0.21507327 -0.11840896 0.44009984 0.0019788623 416 72
-0.21327402 -0.11865076 0.44130936 0.0020581661 428 76
-0.21086042 -0.11855229 0.44132927 0.0019113627 438 79
-0.20805699 -0.1182302 0.44058824 0.0018059899 482 91
-0.20590253 -0.11827391 0.44127917 0.0017377384 526 104
-0.20364192 -0.11825693 0.44181001 0.0016938455 528 105
-0.2015352 -0.11832992 0.44273952 0.0016749593 534 107
-0.19738752 -0.1171928 0.43919232 0.0016471518 592 123
-0.19508535 -0.11713804 0.43974635 0.0015330259 619 131
-0.19251166 -0.11691713 0.43972144 0.0014776658 659 143
-0.19018844 -0.11684496 0.44029525 0.0015424433 622 132
-0.1876526 -0.11663896 0.44039854 0.0015597884 621 132
-0.18515176 -0.11645008 0.44059378 0.0015656226 659 143
-0.18283813 -0.1163758 0.44124544 0.0014889791 711 158
-0.1805256 -0.11630046 0.44191152 0.0014006478 720 161
-0.17806032 -0.11612363 0.44220459 0.0014127279 707 157
-0.17556785 -0.11592443 0.44241935 0.0015102818 689 152
-0.17280792 -0.11554141 0.44193321 0.0013733199 733 164
-0.17053162 -0.11547606 0.44266015 0.0014042149 749 169
-0.16818072 -0.11535787 0.44318086 0.0013376822 777 177
-0.16565163 -0.11511277 0.4432056 0.001345449 789 181
-0.16289711 -0.1147024 0.44258043 0.0012773109 830 192
-0.16089012 -0.11481442 0.44395766 0.0013255173 785 179
-0.15850163 -0.11465356 0.44426638 0.0013567066 807 186
-0.15577072 -0.11423712 0.44356513 0.0014128871 744 167
-0.1532279 -0.11394887 0.44333944 0.001378723 746 168
-0.15110359 -0.11396807 0.44428998 0.0013725992 761 172
-0.14890766 -0.11393303 0.44500989 0.0013890312 763 173
-0.14657156 -0.11378817 0.44527954 0.0013806862 729 163
-0.14420602 -0.11361577 0.44541836 0.0013699519 737 165
-0.14191464 -0.11349747 0.44574594 0.0013339323 781 178
-0.13980241 -0.11352106 0.44660833 0.0013601435 776 177
-0.13760996 -0.1134792 0.44719124 0.0013822435 737 165
-0.13516057 -0.11322079 0.44689661 0.0013931488 725 162
-0.13277748 -0.11301053 0.44676688 0.0014033902 735 165
-0.13065305 -0.11301713 0.4474709 0.0014345073 686 151
-0.12837099 -0.11288533 0.44760436 0.0014828475 703 156
-0.12615436 -0.11280762 0.4479292 0.0014144048 709 157
-0.1238186 -0.11261886 0.44778997 0.0014212797 728 163
-0.12143848 -0.11238248 0.44743773 0.0014536042 742 167
-0.11922799 -0.11229746 0.44766548 0.0014266853 737 165
-0.11721354 -0.11239734 0.4486098 0.0013524959 767 174
-0.11487634 -0.11218572 0.44828999 0.0013375444 770 175
-0.1131109 -0.11253499 0.45019221 0.0013958783 735 165
-0.11052071 -0.1120614 0.44878262 0.0013962447 722 161
-0.10810638 -0.11175111 0.44800472 0.0013751629 737 165
-0.10612721 -0.11188725 0.44899726 0.0013683079 740 166
-0.10429417 -0.11218611 0.45062643 0.0014298339 726 162
-0.10209413 -0.1120944 0.45066991 0.0013583702 749 169
-0.099809363 -0.11190382 0.45029777 0.0014126058 704 156
-0.097516462 -0.11169569 0.44983682 0.0014435797 710 158
-0.095426463 -0.11171592 0.45027888 0.0014036754 722 161
-0.093283333 -0.11167341 0.45045233 0.0014209677 704 156
-0.09117727 -0.11167438 0.45078564 0.0014023656 712 158
-0.089024186 -0.11161643 0.45086622 0.0014648573 685 150
-0.08700341 -0.11172556 0.45160753 0.001460057 674 147
-0.084985837 -0.11184433 0.45237452 0.0014841369 659 143
-0.082910299 -0.11189093 0.45283669 0.0014586892 678 148
-0.080646425 -0.11167917 0.45223978 0.0015240061 689 152
-0.078521885 -0.11165414 0.45238602 0.0014918032 702 155
-0.076327279 -0.11152539 0.45209953 0.0014047655 736 165
-0.074220099 -0.11152069 0.45230395 0.0014392876 745 168
-0.072266512 -0.11175323 0.45345974 0.001422013 701 155
-0.070164196 -0.11176283 0.4537006 0.0015246598 691 152
-0.068303049 -0.11216909 0.45554191 0.0015107243 659 143
-0.066118672 -0.11205354 0.45525435 0.0014451718 675 147
-0.064017944 -0.11207679 0.45552093 0.001441252 685 150
-0.061897952 -0.11206677 0.45564288 0.0014427488 685 150
-0.059741143 -0.11198702 0.4554722 0.0014620433 672 147
-0.057562944 -0.11185985 0.45509976 0.0015407359 665 145
-0.055412758 -0.1117795 0.45490921 0.0014781158 652 141
-0.05332049 -0.11181427 0.45517924 0.0014447445 701 155
-0.051240798 -0.11187936 0.45556507 0.0015072196 692 152
-0.049240746 -0.11213138 0.45670512 0.0015275371 676 148
-0.047085308 -0.1120363 0.45642453 0.0014515355 694 153
-0.044985853 -0.11207177 0.45666897 0.0014143954 705 156
-0.042877529 -0.11208754 0.45682666 0.0014094029 708 157
-0.040707037 -0.11193401 0.45628807 0.001457162 703 156
-0.038705718 -0.11225431 0.4576751 0.0014984437 684 150
-0.036647074 -0.11243582 0.45849088 0.0014445689 685 150
-0.034551911 -0.11252068 0.45890719 0.0014497403 680 149
-0.03241609 -0.1124756 0.45878831 0.0014453809 676 148
-0.030182078 -0.11205962 0.45715114 0.0015055763 666 145
-0.028100893 -0.11219116 0.4577426 0.0014474612 682 149
-0.026104253 -0.11270914 0.45990628 0.0014369688 687 151
-0.023992509 -0.11277795 0.46023273 0.0014618787 664 144
-0.021843338 -0.11266711 0.45982173 0.0015130768 689 152
-0.01971256 -0.11263746 0.45973772 0.0014626173 681 149
-0.01757527 -0.11255893 0.45945007 0.0014378713 681 149
-0.015450449 -0.11254968 0.45944113 0.0015569665 665 145
-0.013317345 -0.11246751 0.45913047 0.0014665019 658 143
-0.011031877 -0.11082358 0.4524402 0.0014614284 664 144
-0.0089089703 -0.11042572 0.4508329 0.0015811836 636 136
-0.0067511792 -0.10922067 0.44592622 0.0015717905 600 126
-0.0046022367 -0.10716289 0.43753415 0.001637454 564 115
-0.002573438 -0.10687001 0.43634444 0.0017075929 586 122
-0.00054250314 -0.10404795 0.42482471 0.001526902 643 138
0.0013881382 -0.10167921 0.41515252 0.0013860179 749 169
0.0032534364 -0.10004959 0.40849489 0.0013102468 869 204
0.0051460834 -0.10014886 0.40889314 0.0011857097 954 228
0.0070805387 -0.10078994 0.41150025 0.0012332259 904 214
0.0089823296 -0.10079305 0.41149923 0.0011903435 940 224
0.010899568 -0.10093812 0.41207451 0.0012393814 940 224
0.012801027 -0.10091567 0.41196242 0.0011940731 945 226
0.014732741 -0.10110664 0.41271812 0.0011779658 956 229
0.016747931 -0.10176103 0.4153617 0.0012528499 863 202
0.018754926 -0.10223615 0.41726953 0.0012914895 839 195
0.020697648 -0.10230497 0.4175151 0.0012748572 853 199
0.022577044 -0.10207576 0.41654041 0.0012300679 887 209
0.024762509 -0.10315761 0.42091146 0.0012377441 892 210
0.026745627 -0.10330027 0.42144549 0.0012442685 877 206
0.028633213 -0.10307961 0.42049295 0.0012475864 910 216
0.030643176 -0.1032996 0.42133334 0.0012656577 903 214
0.032840732 -0.10408782 0.42448595 0.0012904165 822 190
0.034860816 -0.10425635 0.42510593 0.0012481594 871 204
0.036851432 -0.10432348 0.42530695 0.0012744988 870 204
0.038800929 -0.10427325 0.42502415 0.0012767682 838 195
0.040832538 -0.10443792 0.4256115 0.0012457969 873 205
0.04289484 -0.10466231 0.42643595 0.0011920108 933 222
0.045105595 -0.10521324 0.42858404 0.0012504362 920 219
0.047078565 -0.10518644 0.42837182 0.0012113943 948 227
0.04899621 -0.1050432 0.42767879 0.0011974807 961 230
0.051256068 -0.10561625 0.42989457 0.0011741171 983 237
0.053213108 -0.10554578 0.42948318 0.0011698203 968 232
0.055174764 -0.10548922 0.42912087 0.0012086079 948 227
0.057160966 -0.10548189 0.42895097 0.0011335275 1022 248
0.059095368 -0.10538268 0.42839921 0.0011430362 1027 250
0.061097164 -0.10540623 0.42833799 0.0011665274 1039 253
0.063108824 -0.10544474 0.42832857 0.0011221613 1034 252
0.065083355 -0.10542076 0.428056 0.0011077885 1049 255
0.066982135 -0.10527916 0.42729637 0.0011440051 1028 250
0.068890102 -0.10515972 0.42661715 0.001091407 1079 255
0.070786834 -0.1050303 0.4258875 0.001156694 1016 246
0.072778702 -0.10504524 0.42573273 0.0011314092 1016 246
0.074894167 -0.10523307 0.42626706 0.0012309763 954 228
0.077024795 -0.10543194 0.4268336 0.0012418749 873 205
0.080163136 -0.10696543 0.43278718 0.0014351702 677 148
0.086651571 -0.11278406 0.45604774 0.0017300802 508 99
0.089112051 -0.11320668 0.45745996 0.0014676051 663 144
0.091681406 -0.11374461 0.45932129 0.0013637199 749 169
0.093249239 -0.11304381 0.45616624 0.001340339 779 178
0.095147222 -0.11276564 0.45470423 0.0013364863 826 191
0.09698648 -0.11243156 0.45300299 0.00124624 862 202
0.098812975 -0.11209729 0.45128724 0.0012742149 828 192
0.1011833 -0.11238105 0.45204324 0.0012796629 828 192
0.1037434 -0.11285961 0.45356312 0.0014515676 655 142
0.10911661 -0.11631769 0.46702501 0.001764473 499 96
0.11163872 -0.11666008 0.46794438 0.0015674054 588 122
0.11368188 -0.11649841 0.46682209 0.0016102074 611 129
0.11601008 -0.11662942 0.46685332 0.0015627507 598 125
0.11831994 -0.11673748 0.46677163 0.0015584094 596 125
0.12068679 -0.11689679 0.46687317 0.0016103807 612 129
0.12304419 -0.11704138 0.46689373 0.0015413699 615 130
0.12556276 -0.11733148 0.46747121 0.0016046782 586 122
0.12860839 -0.1180955 0.46991003 0.0015452885 612 129
0.1308962 -0.11814947 0.46949694 0.0015499293 600 126
0.13295586 -0.1179992 0.46825022 0.0015455983 615 130
0.13567245 -0.11842726 0.46927425 0.0015473159 602 126
0.13806707 -0.11856497 0.46912134 0.0015348914 617 131
0.14041337 -0.11865745 0.46876499 0.0015300157 611 129
0.14269565 -0.11869376 0.46816266 0.0015647063 627 134
0.14534666 -0.11903095 0.46872133 0.0014867679 646 139
0.14784206 -0.11923238 0.46871874 0.0015441081 608 128
0.15025751 -0.11936425 0.46841747 0.0015240683 612 129
0.15323927 -0.11993544 0.46981266 0.0015524261 610 129
0.15600425 -0.12032284 0.47045875 0.0015237209 623 132
0.15867263 -0.12062568 0.47074768 0.0015433369 635 136
0.16149323 -0.12103402 0.47142211 0.0014945086 637 136
0.16343625 -0.12078245 0.4695054 0.0015854443 633 135
0.1661659 -0.12111114 0.46982527 0.0015094968 627 134
0.16896962 -0.12148416 0.47029465 0.0015302983 613 129
0.17144637 -0.12161525 0.46980861 0.0015364188 614 130
0.17450303 -0.12214883 0.47085905 0.001594118 579 120
0.17732497 -0.1225063 0.47121298 0.0016362243 598 125
0.18006489 -0.12279867 0.4713037 0.0015794678 583 121
0.18291201 -0.1231558 0.47163329 0.0016194928 561 114
0.18573557 -0.12348828 0.47186229 0.0016619816 541 109
0.18856122 -0.1238139 0.47206303 0.0016508448 546 110
0.19113036 -0.12396519 0.47160321 0.0016581202 539 108
0.19397399 -0.12428869 0.47180751 0.0017535993 495 95
0.19688475 -0.12464698 0.47215629 0.001701112 521 103
0.19985479 -0.12503387 0.4726311 0.0018396412 512 100
0.2026566 -0.12530774 0.47270259 0.0017725518 487 93
0.20509994 -0.12535621 0.47195661 0.001790202 483 92
0.20793889 -0.12564257 0.47214505 0.0018581324 460 85
0.21111764 -0.12612553 0.47311386 0.0019094907 440 79
0.21377912 -0.12629211 0.47294477 0.0019660222 418 73
0.2167366 -0.12662795 0.47346482 0.0020487432 408 70
0.21956293 -0.12688069 0.47373495 0.0020505819 402 68
0.22239447 -0.12713096 0.47406176 0.0021375881 369 59
0.22532667 -0.12743279 0.47465163 0.0022382999 346 52
0.22809507 -0.12763663 0.47495118 0.0022503838 342 51
0.23101352 -0.12791927 0.47562253 0.0025198304 318 44
0.23332381 -0.1278628 0.47511473 0.0024754195 300 39
0.23574324 -0.12786669 0.4749155 0.002478288 298 38
0.23920387 -0.1284295 0.47687685 0.0024835058 300 39
0.24228247 -0.128778 0.47812772 0.0025537342 287 35
0.24423824 -0.12852867 0.47724482 0.0026503205 266 29
0.24617031 -0.12827191 0.47641933 0.0029300579 266 29
0.24891329 -0.12843858 0.47725043 0.003063499 241 22
0.2512151 -0.12837657 0.47731459 0.0028891754 239 21
0.25395191 -0.12853591 0.47828266 0.0032846306 202 10
-0.25442934 -0.11187041 0.43425703 0.0032211354 208 12
-0.25387129 -0.11257686 0.43592098 0.0035992728 207 12
-0.25382257 -0.11352324 0.43854076 0.0031746915 223 16
-0.25269434 -0.11399905 0.43937504 0.0042983023 166 0
-0.2494541 -0.11352207 0.43658474 0.003035567 229 18
-0.24737 -0.11356743 0.435857 0.0028888115 251 24
-0.2461019 -0.11399154 0.43663183 0.0026859245 268 29
-0.24433242 -0.11418898 0.43658876 0.0025236844 291 36
-0.24355783 -0.11485916 0.43840507 0.0027388653 289 35
-0.24131916 -0.11484487 0.43766493 0.0029560444 269 30
-0.23970978 -0.11513255 0.43813699 0.0025814574 285 34
-0.23799136 -0.11537273 0.43849111 0.0027771764 279 33
-0.23649614 -0.11572666 0.4393428 0.0024260951 312 42
-0.23442324 -0.11580194 0.43920547 0.002342388 349 53
-0.23232816 -0.11586759 0.43910399 0.0021982854 352 54
-0.23044328 -0.11604039 0.43948266 0.0023679007 332 48
-0.22859968 -0.11623752 0.4400295 0.0021768911 359 56
-0.22623397 -0.11617048 0.43965432 0.00213942 420 73
-0.22404629 -0.1161944 0.43970269 0.0019778966 417 73
-0.22171538 -0.11614378 0.43954906 0.0020256129 401 68
-0.21941349 -0.1161075 0.43952984 0.0021240655 406 69
-0.21704838 -0.11603666 0.43945917 0.0020988884 415 72
-0.21491827 -0.11609132 0.43994263 0.0019801774 427 76
-0.21256438 -0.11602494 0.44004467 0.0018498413 462 86
-0.21046355 -0.11609676 0.4407458 0.0018721169 472 89
-0.20846766 -0.11622863 0.44174811 0.0018154348 489 93
-0.20517057 -0.11563003 0.44004068 0.0017889558 535 107
-0.20307179 -0.11570103 0.44094345 0.0017620323 531 106
-0.20032907 -0.11540269 0.44049755 0.001630223 585 121
-0.19743475 -0.11500935 0.43973973 0.0015835508 588 122
-0.19456904 -0.11462393 0.43905687 0.0015784693 610 129
-0.19232263 -0.11459873 0.43979511 0.0014562381 667 145
-0.18981867 -0.11441767 0.4399724 0.001505376 636 136
-0.1866958 -0.11385494 0.4387092 0.0015011615 639 137
-0.1846737 -0.11395813 0.44003564 0.0014320706 708 157
-0.18266055 -0.11406936 0.44141713 0.0014059506 707 157
-0.18044026 -0.11405239 0.44232008 0.0015219322 680 149
-0.17805023 -0.11392638 0.44281104 0.0014023451 707 157
-0.17557843 -0.11374427 0.44308862 0.0013843107 727 163
-0.17251803 -0.11317144 0.44184089 0.0013215863 832 193
-0.17026998 -0.11312366 0.44263706 0.0013648559 755 171
-0.1680447 -0.11308999 0.44348359 0.0013528513 747 168
-0.16556793 -0.11288398 0.44364506 0.0013613335 752 170
-0.16322842 -0.11276729 0.44414473 0.0013894966 775 176
-0.16093798 -0.11268184 0.44475335 0.0014209381 752 170
-0.15854369 -0.11252034 0.44504541 0.0013422434 769 175
-0.1556253 -0.11197728 0.4438062 0.0013987203 787 180
-0.15327407 -0.1118328 0.44412348 0.0013096282 794 182
-0.1509812 -0.11172739 0.44457504 0.001363275 779 178
-0.14877102 -0.11168098 0.44524041 0.0013471416 767 174
-0.14639801 -0.11150923 0.44538343 0.0013376183 776 177
-0.14391875 -0.11125022 0.44515345 0.0014007705 745 168
-0.14154819 -0.11106869 0.44520858 0.0013730754 738 166
-0.1393155 -0.11099145 0.4456577 0.0013741854 740 166
-0.13700688 -0.11085036 0.44582671 0.0013629594 742 167
-0.13483363 -0.11081607 0.44640166 0.0013731004 743 167
-0.13288319 -0.11096674 0.44769993 0.001376643 734 165
-0.1307127 -0.11093556 0.4482429 0.0015149632 669 146
-0.12817803 -0.11058917 0.44748771 0.0014574345 674 147
-0.1258166 -0.11038306 0.44727507 0.0013809655 736 165
-0.12342094 -0.11013933 0.44688576 0.0013608556 739 166
-0.12120615 -0.11005133 0.44710517 0.0014235182 718 160
-0.11914814 -0.11010506 0.4478792 0.001462673 724 162
-0.1169166 -0.10999749 0.44797626 0.0013754271 767 174
-0.11506613 -0.11025106 0.44952461 0.0013722541 741 167
-0.11282481 -0.11013264 0.44953689 0.0014359216 714 159
-0.11070912 -0.11013466 0.45002094 0.0013998171 739 166
-0.10834627 -0.10988609 0.44946107 0.0013889745 750 169
-0.10612147 -0.10977044 0.44942486 0.0013389065 764 173
-0.10415729 -0.10992514 0.45047781 0.0014174988 707 157
-0.10196202 -0.10983732 0.45051947 0.001416803 696 154
-0.099732034 -0.10970757 0.45037153 0.001406893 712 158
-0.097606011 -0.10968907 0.45066312 0.0014734253 720 161
-0.095423885 -0.1096053 0.45067024 0.0013893927 722 161
-0.093273379 -0.1095549 0.45079845 0.0014648222 727 163
-0.091097005 -0.10947107 0.45077369 0.0014296642 712 158
-0.08899115 -0.10947002 0.45107496 0.001455209 672 147
-0.086701125 -0.10923689 0.45040509 0.0014271861 690 152
-0.084719881 -0.10939088 0.45131758 0.0014265229 694 153
-0.082602605 -0.10937258 0.45150635 0.0014942515 700 155
-0.080641106 -0.109565 0.45255253 0.0014890208 687 151
-0.078691959 -0.10978495 0.45370111 0.0014271977 699 154
-0.07660827 -0.10982417 0.45409128 0.0015177153 685 150
-0.074398018 -0.10967902 0.45370752 0.0014097218 708 157
-0.072244622 -0.10961167 0.45363405 0.001421466 698 154
-0.070230909 -0.10975856 0.45443666 0.0014348428 686 151
-0.068089642 -0.10970905 0.45441604 0.00144923 672 147
-0.06608063 -0.10987626 0.45528334 0.0015151202 687 151
-0.063899301 -0.10975855 0.45496055 0.0015000176 681 149
-0.061733019 -0.10965953 0.45470583 0.0014595377 672 147
-0.059517641 -0.10946321 0.45403835 0.0014598651 722 161
-0.057478469 -0.10958844 0.45469633 0.0014352887 696 154
-0.05549847 -0.1098403 0.45587194 0.001524954 661 143
-0.053384844 -0.10983717 0.45598182 0.0014956485 686 151
-0.051306512 -0.10990941 0.45639721 0.0015525497 660 143
-0.049287189 -0.11011966 0.4573788 0.0015352899 670 146
-0.047183868 -0.11015271 0.45761785 0.0014439526 681 149
-0.045046143 -0.11010478 0.45751387 0.0014418587 683 150
-0.042889204 -0.11000283 0.45717904 0.0015034979 687 151
-0.040751286 -0.10994164 0.45700738 0.001440142 673 147
-0.038718276 -0.11017224 0.45804301 0.0015274271 667 145
-0.0366298 -0.11026259 0.45849034 0.0014462606 681 149
-0.034493882 -0.11021244 0.45834813 0.0014419071 681 149
-0.032231554 -0.1097254 0.45638359 0.0014408794 684 150
-0.030142175 -0.10980015 0.45675063 0.0014237192 690 152
-0.028070884 -0.109957 0.45745465 0.001425688 695 153
-0.02612143 -0.11065553 0.46040812 0.0014826863 681 149
-0.024017876 -0.11076727 0.4609161 0.0014768933 655 142
-0.021874851 -0.11070099 0.46067917 0.0014683281 663 144
-0.019640358 -0.11010765 0.45824459 0.0014435826 707 157
-0.017505793 -0.10999884 0.45782241 0.0014823064 709 157
-0.01537543 -0.10989013 0.45739684 0.0015311965 648 140
-0.013192589 -0.10931198 0.45501342 0.0015514296 633 135
-0.01084209 -0.10686219 0.44483519 0.0015622898 602 126
-0.0084678559 -0.10297801 0.42868158 0.001547362 638 137
-0.0064027687 -0.10162985 0.4230811 0.0015401563 662 144
-0.0044489782 -0.10163983 0.42313123 0.00148293 646 139
-0.0024750684 -0.10084576 0.41983086 0.001417144 721 161
-0.00052451965 -0.098700948 0.41090414 0.0012887482 832 193
0.0013704279 -0.098488152 0.41001758 0.0012458951 939 224
0.0032589913 -0.098329648 0.40935403 0.0012777951 889 210
0.005152964 -0.098390818 0.40960214 0.0011971487 934 223
0.0070733461 -0.098787986 0.41124582 0.0011955912 935 223
0.0089980839 -0.099064924 0.41238591 0.0012231548 893 211
0.010905934 -0.099091679 0.41248134 0.0012263113 894 211
0.012834462 -0.099270403 0.41320622 0.0012470434 934 223
0.014767094 -0.099430472 0.41385001 0.0012208237 906 214
0.016784711 -0.10006047 0.41644621 0.0012478596 873 205
0.018791351 -0.10050219 0.418255 0.0012315299 890 210
0.020768104 -0.10071658 0.41911396 0.0012648287 895 211
0.022759251 -0.10095824 0.42008248 0.0012759346 884 208
0.024785319 -0.10130467 0.42148283 0.00127126 844 196
0.026800629 -0.10155983 0.42249912 0.0013455191 838 195
0.028781731 -0.1016595 0.42286414 0.0012493141 885 208
0.03073968 -0.10166992 0.42285359 0.0012879361 883 208
0.033006113 -0.10263839 0.42682245 0.0012794737 827 192
0.034926482 -0.10248213 0.42610869 0.0012522928 865 203
0.036871277 -0.10241041 0.42574173 0.0013034919 859 201
0.038960334 -0.10272633 0.42698076 0.0013269029 833 193
0.040917128 -0.10267987 0.42670795 0.0012351729 883 208
0.042998582 -0.1029361 0.42768708 0.0012079743 912 216
0.045141991 -0.10331158 0.4291552 0.0012019515 941 225
0.047273442 -0.10362916 0.43037587 0.0012104557 912 216
0.049267154 -0.10363136 0.43027982 0.0011892939 941 225
0.051162522 -0.10343457 0.42935094 0.0011613005 978 235
0.053163007 -0.10345705 0.42932528 0.0011640618 987 238
0.055217024 -0.10357832 0.42970207 0.0011625622 975 234
0.057178736 -0.10352405 0.4293426 0.0011779378 1036 252
0.05915029 -0.10349062 0.42906159 0.0011212087 1034 252
0.061065938 -0.10336477 0.42838922 0.0010992599 1069 255
0.063202716 -0.10360933 0.42924303 0.0011428139 1033 251
0.065149575 -0.10353712 0.42877519 0.0011199266 1054 255
0.067069486 -0.10342766 0.42814374 0.0011573719 1030 250
0.068962276 -0.10328386 0.42736089 0.0011104769 1056 255
0.070893958 -0.10320474 0.42683575 0.0010981631 1079 255
0.072850846 -0.10316563 0.42646563 0.0011367095 1015 246
0.074917503 -0.1032799 0.42671847 0.001205628 956 229
0.077041917 -0.10346585 0.42725542 0.0012190507 899 212
0.079755574 -0.10441385 0.43092465 0.0014032002 742 167
0.082570076 -0.1054441 0.43491611 0.0015592881 610 129
0.089365035 -0.11138625 0.45913643 0.0017384874 557 113
0.091308258 -0.11114449 0.45783776 0.0013605236 750 169
0.093355328 -0.1110373 0.45707962 0.0013343027 786 180
0.094964445 -0.11042566 0.45423216 0.0013582036 820 190
0.096718989 -0.11000618 0.4521628 0.0012700064 868 203
0.098600969 -0.10974648 0.45073655 0.0011999222 925 220
0.10073225 -0.10976934 0.45045531 0.001215935 935 223
0.10308608 -0.1100288 0.45112708 0.0013381965 763 173
0.10764109 -0.11258001 0.46116763 0.0017154523 523 103
0.11136054 -0.11417395 0.46725297 0.001704187 584 121
0.11376014 -0.11437922 0.46762919 0.0016079947 629 134
0.11605223 -0.11447066 0.46751946 0.0015815264 604 127
0.11831465 -0.11452998 0.4672581 0.0015734944 603 127
0.12054115 -0.11455298 0.46682766 0.0015685885 622 132
0.12291655 -0.11471415 0.4669387 0.0015923431 616 130
0.12563308 -0.11518237 0.46827507 0.001593165 582 120
0.12809303 -0.11540321 0.46858063 0.0016873986 585 121
0.13045381 -0.1155287 0.46847498 0.0016998177 580 120
0.13275895 -0.11560154 0.46813226 0.0015727762 588 122
0.13508919 -0.11569347 0.46784312 0.0016461796 586 122
0.13784179 -0.11613831 0.46895471 0.0015451955 605 127
0.14010608 -0.11616407 0.468348 0.0015339546 623 132
0.14242876 -0.11623668 0.46790606 0.0015618629 642 138
0.14500436 -0.11651027 0.46824732 0.0015992435 630 134
0.14747338 -0.11669119 0.46818972 0.0015750772 627 134
0.15016258 -0.11703832 0.46877185 0.0015376649 617 131
0.15322366 -0.11766078 0.47042665 0.0016575581 628 134
0.15582366 -0.11791616 0.47058481 0.0014847505 648 140
0.1584053 -0.11815054 0.47063312 0.0015865164 611 129
0.16111825 -0.11847487 0.47101384 0.0015689797 635 136
0.16365542 -0.11866267 0.47082716 0.0015007828 632 135
0.16602162 -0.11872307 0.47011349 0.0014998112 644 138
0.16873714 -0.11902823 0.47034794 0.0015303207 610 129
0.17146134 -0.11933128 0.47055265 0.0015941341 595 124
0.17436601 -0.11975025 0.47119403 0.0015550294 599 125
0.17715617 -0.12008069 0.47146866 0.0015494756 602 126
0.17981648 -0.12031573 0.47135469 0.0016542353 598 125
0.1826997 -0.12069206 0.47178262 0.0016109404 567 116
0.18559866 -0.12106922 0.47220445 0.0017335679 552 112
0.18792145 -0.12106586 0.47113994 0.0016779971 535 107
0.19102107 -0.12155692 0.47200069 0.0016769191 526 104
0.1936193 -0.12172087 0.47159579 0.0016506582 542 109
0.19631708 -0.12194277 0.47142732 0.0017201148 539 108
0.19935222 -0.1223665 0.47205421 0.0017350281 505 98
0.20208253 -0.12259542 0.4719505 0.0017364369 510 100
0.20478278 -0.12280104 0.47178566 0.001863941 503 98
0.20730682 -0.1228975 0.47123739 0.0018064388 477 90
0.21051311 -0.1233917 0.47225407 0.0018591547 445 81
0.21342613 -0.12370487 0.47262248 0.0019907565 441 80
0.21629705 -0.12398702 0.47292459 0.0020200768 437 78
0.21917264 -0.12426566 0.47327167 0.0019838831 413 71
0.2222216 -0.12463553 0.47402933 0.0023012583 368 58
0.22528221 -0.12500398 0.47484973 0.0021564311 374 60
0.22802722 -0.12519136 0.47505569 0.0022681393 340 50
0.2305373 -0.12524721 0.47484085 0.0022563285 341 51
0.23317453 -0.12537026 0.47496238 0.0025107171 315 43
0.23546489 -0.1253062 0.47445917 0.0027027207 307 41
0.23807658 -0.12541272 0.47468734 0.0024840231 303 40
0.24137013 -0.12587267 0.47633922 0.0026734506 290 36
0.24399363 -0.12597755 0.47673389 0.0025633101 287 35
0.24619047 -0.12586221 0.4763816 0.0027363312 286 35
0.24820916 -0.12565896 0.47578162 0.0028047708 269 30
0.25076649 -0.12572968 0.47630286 0.0030217494 231 19
0.25462151 -0.12644348 0.47934443 0.0030005237 229 18
-0.25361523 -0.1093682 0.43239659 0.0032837139 202 10
-0.25463533 -0.11074442 0.43677029 0.0033123037 204 11
-0.25439033 -0.11158938 0.43907139 0.0032256921 202 10
-0.25287002 -0.11188471 0.43924627 0.0037153384 172 2
-0.24908209 -0.11117312 0.43552065 0.0029405805 238 21
-0.24720332 -0.11130861 0.43516985 0.002806837 261 27
-0.2460288 -0.11176641 0.43612847 0.0029476944 275 31
-0.24550416 -0.11253034 0.43832952 0.0027259365 290 36
-0.24346776 -0.11260889 0.43791449 0.0026417484 289 35
-0.24131209 -0.11263322 0.43735003 0.0025372889 287 35
-0.23974852 -0.11293694 0.43793315 0.0025351753 292 36
-0.23833705 -0.11331861 0.43888235 0.002304404 329 47
-0.23653391 -0.1135195 0.43919864 0.002333092 323 45
-0.2342605 -0.11349634 0.43871963 0.0022549075 340 50
-0.2324596 -0.1137039 0.43920639 0.0022951039 336 49
-0.23028339 -0.11373009 0.43906841 0.0021344896 370 59
-0.22814842 -0.11377737 0.43908986 0.0022150762 350 53
-0.22582841 -0.1137324 0.43883476 0.0020623237 392 65
-0.22429468 -0.11408646 0.44019979 0.0019686166 427 76
-0.22276589 -0.11445019 0.44168344 0.0020079892 406 69
-0.21940383 -0.11386988 0.43960443 0.001958152 426 75
-0.21730281 -0.11393881 0.44011155 0.0020033466 412 71
-0.21500355 -0.11390419 0.44029754 0.0018344944 491 94
-0.21240379 -0.11370795 0.43993524 0.001872802 492 94
-0.21011795 -0.11367737 0.44028747 0.0019259091 469 88
-0.20754187 -0.11348744 0.44009271 0.0017410803 503 98
-0.20531477 -0.11348629 0.44069636 0.0016814759 533 106
-0.20287755 -0.1133677 0.44090649 0.0017013715 552 112
-0.20021208 -0.11311754 0.44066069 0.0016764929 593 124
-0.19704908 -0.11257749 0.43933332 0.0015474211 635 136
-0.19462578 -0.11245262 0.43966886 0.0015867619 619 131
-0.19213486 -0.11228538 0.4398782 0.0015464429 612 129
-0.18960993 -0.11209416 0.44002661 0.0015159426 631 135
-0.18731098 -0.11203358 0.44071618 0.0015144143 635 136
-0.18465152 -0.11175341 0.44056377 0.0014947983 699 154
-0.18288231 -0.11201175 0.4425534 0.0014437864 684 150
-0.1804924 -0.11189163 0.44306326 0.0013905823 714 159
-0.17783181 -0.11159865 0.4428944 0.001348955 764 173
-0.17532356 -0.11139514 0.44308126 0.0013512303 763 173
-0.17224006 -0.11081644 0.44176957 0.0014144819 780 178
-0.17019644 -0.11090051 0.44309285 0.0013554095 755 171
-0.16763875 -0.11064744 0.44306165 0.0014043363 784 179
-0.16544178 -0.11062898 0.44395837 0.0013490602 754 170
-0.16327825 -0.11063268 0.44493216 0.0013256479 777 177
-0.16078457 -0.11040975 0.44497889 0.0014383456 733 164
-0.15768389 -0.10975823 0.44327509 0.0013431075 756 171
-0.15527216 -0.10957486 0.4434377 0.0013247549 781 178
-0.15308531 -0.10954729 0.44421032 0.0013688005 779 178
-0.150985 -0.10958174 0.44521463 0.0013467291 764 173
-0.1487439 -0.10951352 0.44578081 0.0013147801 787 180
-0.14630085 -0.10929246 0.44570121 0.0013146413 792 181
-0.14354768 -0.10882968 0.44460884 0.0013462648 756 171
-0.1412307 -0.10868864 0.44480416 0.0013629948 752 170
-0.13899411 -0.10860609 0.44521475 0.0013529063 752 170
-0.13666151 -0.10844476 0.44527814 0.0013578973 751 170
-0.13456742 -0.10847061 0.44608647 0.0014357195 734 165
-0.13285533 -0.10881014 0.44816446 0.0013743866 729 163
-0.13041861 -0.10855761 0.44778186 0.0014305423 747 168
-0.12792243 -0.10824636 0.44713137 0.0014203738 713 158
-0.12559862 -0.10807296 0.44702542 0.0014567691 735 165
-0.12333005 -0.10794193 0.44707116 0.0013452981 756 171
-0.12108587 -0.10782804 0.44716537 0.0014558226 728 163
-0.11896967 -0.10782611 0.44770217 0.0013644252 749 169
-0.11687391 -0.10784296 0.4482964 0.0014466912 739 166
-0.11454058 -0.10763718 0.44794422 0.0013770461 733 164
-0.11249936 -0.10770334 0.44870332 0.0013741127 746 168
-0.11078196 -0.10808796 0.45077181 0.0014325967 711 158
-0.10841288 -0.10783936 0.45018116 0.0013621536 752 170
-0.1063081 -0.10784902 0.45064935 0.0014162213 724 162
-0.10394647 -0.10759318 0.44998932 0.0014364455 707 157
-0.10172525 -0.10747512 0.44988662 0.0014192183 702 155
-0.099714637 -0.10757926 0.4506973 0.0014316333 748 169
-0.097652569 -0.10763119 0.45127326 0.0013747482 758 172
-0.095440857 -0.10751683 0.4511359 0.0014028003 716 159
-0.093244724 -0.10741526 0.45103601 0.0014129385 716 159
-0.091032863 -0.10729047 0.45082304 0.00145529 701 155
-0.088763893 -0.10709086 0.4502804 0.0013972585 720 161
-0.086770087 -0.1072216 0.45111257 0.0014395204 721 161
-0.084438391 -0.10693094 0.45015785 0.0014530959 735 165
-0.082532041 -0.10717783 0.45145297 0.001433904 690 152
-0.08054059 -0.10732424 0.45231324 0.0014025192 716 159
-0.078611046 -0.10756319 0.45355204 0.0014162281 701 155
-0.076548897 -0.10762888 0.45404935 0.0013950771 712 158
-0.074376479 -0.10753888 0.45387831 0.0014334058 686 151
-0.072315916 -0.10761005 0.45437658 0.0014608102 662 144
-0.070218951 -0.10762969 0.454647 0.0014311953 686 151
-0.068144351 -0.10768593 0.45506197 0.0014813576 654 141
-0.065967947 -0.10757971 0.45478067 0.0014451259 681 149
-0.063833311 -0.10753684 0.45475772 0.0013756641 733 164
-0.061646409 -0.10740001 0.45432803 0.0014148634 702 155
-0.05959443 -0.10749686 0.45487833 0.0014079771 705 156
-0.057614524 -0.10773558 0.45602116 0.0014290938 689 152
-0.055596393 -0.10791828 0.45691943 0.001506137 674 147
-0.053383991 -0.10772341 0.45621151 0.0014409622 682 149
-0.051328618 -0.1078424 0.45682555 0.0015576017 651 140
-0.049271058 -0.10796683 0.4574559 0.0015867172 645 139
-0.047191303 -0.10805162 0.45791182 0.0014746229 669 146
-0.044998769 -0.10787402 0.45724925 0.0014813158 692 152
-0.042879533 -0.10786328 0.45728791 0.0015249363 672 147
-0.040792566 -0.10793681 0.45767796 0.0015056398 667 145
-0.038683366 -0.10795631 0.4578335 0.0015133722 654 141
-0.036622737 -0.10812151 0.45860162 0.0014434578 683 150
-0.034381721 -0.10774171 0.45705301 0.0015245543 690 152
-0.032232355 -0.10761818 0.45658639 0.00145928 667 145
-0.030122656 -0.10761908 0.45664296 0.0014170641 709 157
-0.028095549 -0.10793742 0.45804214 0.0014352301 682 149
-0.025959289 -0.10785408 0.45773271 0.0014687334 686 151
-0.024035204 -0.10871571 0.46142974 0.0014987664 638 137
-0.021654112 -0.10747673 0.45620713 0.0015555749 663 144
-0.019503793 -0.10723952 0.45523235 0.0014323011 694 153
-0.017383689 -0.10713118 0.45480087 0.0014449852 678 148
-0.014753873 -0.10342014 0.43907058 0.0015189783 657 142
-0.012412345 -0.10086934 0.42826137 0.0015117481 650 140
-0.01036439 -0.10018955 0.42539212 0.00144487 683 150
-0.0083136074 -0.099158108 0.42102662 0.0014241807 750 169
-0.006373263 -0.09921629 0.4212845 0.0013934448 733 164
-0.0043526185 -0.097526342 0.41411656 0.0013338211 791 181
-0.0024245607 -0.096888267 0.41141206 0.001243487 901 213
-0.00052520994 -0.096930429 0.41159332 0.0011980416 932 222
0.0013735422 -0.096813843 0.41109756 0.0012143658 914 217
0.0032689052 -0.096732244 0.41074771 0.0011968658 929 221
0.0051668012 -0.096757993 0.41085091 0.0012574192 911 216
0.0071071805 -0.097351849 0.41336343 0.0012214627 905 214
0.009011508 -0.09730497 0.41315243 0.0012853837 887 209
0.010932712 -0.097424865 0.41364667 0.0012661733 891 210
0.012870443 -0.097634472 0.41451868 0.00121258 913 216
0.014827371 -0.097916573 0.41569537 0.0012211002 907 215
0.016904602 -0.098837391 0.4195801 0.00130092 832 193
0.018853985 -0.09889818 0.41981047 0.0012910222 870 204
0.020824205 -0.099046744 0.42040986 0.0012480903 871 204
0.022846391 -0.099396043 0.42185757 0.0012633699 841 196
0.024855789 -0.099639177 0.42285091 0.0013265999 828 192
0.026908437 -0.10000762 0.42437178 0.0012977767 825 191
0.028923588 -0.10019611 0.42512473 0.0012404944 879 207
0.030983509 -0.10050587 0.42638788 0.0012698019 836 194
0.032999299 -0.10064398 0.42691821 0.001317723 825 191
0.035001729 -0.10072806 0.42721444 0.001256337 863 202
0.037050832 -0.1009303 0.42800692 0.0013262135 853 199
0.039052662 -0.10098978 0.42818874 0.0012858269 860 201
0.041082956 -0.10111359 0.42863783 0.0012001896 924 220
0.043366734 -0.10182114 0.43155545 0.0012741979 918 218
0.04535412 -0.10180116 0.43138298 0.0011920761 952 228
0.04736349 -0.1018301 0.4314118 0.0011744191 949 227
0.049313121 -0.10173348 0.43090224 0.0011859764 930 221
0.051254034 -0.10162709 0.43034485 0.0012273367 957 229
0.053227909 -0.10159156 0.43008077 0.0011742167 960 230
0.055208612 -0.10157115 0.42987347 0.0011780356 1006 243
0.057223402 -0.10161269 0.4299207 0.0011320936 1018 247
0.059144486 -0.10149065 0.42926803 0.0011139571 1047 255
0.061131742 -0.10148641 0.42910552 0.0011590562 1034 252
0.063127287 -0.10149577 0.42899191 0.0011240571 1049 255
0.065158695 -0.10156044 0.42910305 0.0011565289 1032 251
0.067135967 -0.1015394 0.42884263 0.0011287119 1021 248
0.068986043 -0.10133275 0.42778897 0.0011229013 1033 251
0.070957117 -0.1013104 0.42750379 0.0011301303 1015 246
0.072930887 -0.10129303 0.42722914 0.0011999657 985 237
0.074898645 -0.10126845 0.42691338 0.001196969 930 221
0.077125281 -0.10158613 0.42802852 0.001246527 869 204
0.07936877 -0.10190944 0.42915425 0.0013260568 825 191
0.082394317 -0.10319638 0.43432197 0.0015678252 643 138
0.088771418 -0.10851874 0.45644388 0.0017848567 540 108
0.091105819 -0.10876562 0.45718947 0.0014480832 703 156
0.093090802 -0.1085936 0.45615968 0.0013740046 742 167
0.09457618 -0.1078595 0.4527567 0.0012825641 830 192
0.096491411 -0.10763701 0.45148885 0.0012283246 886 209
0.098543741 -0.10757371 0.450874 0.0012591179 915 217
0.10072266 -0.10764835 0.45082107 0.0012624135 840 195
0.10287296 -0.10768998 0.45061293 0.0013452995 755 171
0.10844674 -0.11124163 0.46506143 0.0017995838 496 96
0.11140785 -0.11202608 0.46790689 0.0015867335 583 121
0.11373807 -0.11215808 0.46800476 0.0015390137 632 135
0.11619715 -0.11240972 0.46858096 0.0014905782 640 137
0.11860426 -0.11260265 0.46889064 0.0016331058 614 130
0.12059595 -0.11240134 0.46753839 0.0015717905 636 136
0.12332855 -0.11288545 0.46901491 0.001514314 624 133
0.12522027 -0.11259636 0.46725684 0.00156187 603 127
0.1274268 -0.11259545 0.46667442 0.0015280696 619 131
0.1303086 -0.11318109 0.46849772 0.001567999 591 123
0.1326234 -0.11326288 0.46820936 0.0016745626 596 125
0.13491192 -0.11331993 0.46779492 0.0015977288 601 126
0.13728182 -0.11344236 0.46762618 0.0015134717 623 132
0.13987389 -0.11374155 0.46815997 0.0015536913 644 138
0.14239298 -0.11397295 0.46838787 0.0014896649 637 136
0.14462401 -0.11397018 0.467628 0.0015084603 630 134
0.14730278 -0.11431496 0.46826801 0.0015401981 614 130
0.15003455 -0.11468993 0.46900299 0.0015083264 628 134
0.15296146 -0.1152008 0.47026372 0.0015712314 626 133
0.15560183 -0.11548413 0.47056636 0.0016043871 637 136
0.15813649 -0.11568199 0.47049421 0.001514407 632 135
0.16054721 -0.11578488 0.47001114 0.001541084 659 143
0.16310637 -0.11599048 0.46992093 0.0014873693 646 139
0.16572553 -0.11623251 0.46995428 0.0015190985 624 133
0.16843365 -0.11652949 0.47018623 0.0015593115 612 129
0.17139007 -0.11698802 0.47104594 0.001526556 624 133
0.17416933 -0.11731511 0.47135377 0.0015204479 618 131
0.17682299 -0.11755018 0.47127345 0.0016024356 622 132
0.17964916 -0.1178924 0.47160646 0.0016548123 598 125
0.1824479 -0.11820816 0.47181952 0.0015858011 582 120
0.18508664 -0.11841363 0.47158274 0.0016443176 573 118
0.18778214 -0.11864988 0.47146329 0.001624021 562 115
0.19040386 -0.1188343 0.47113711 0.0016202827 563 115
0.19337359 -0.11922882 0.47164604 0.001591872 575 118
0.19607024 -0.11944757 0.47146654 0.0017709952 542 109
0.1988572 -0.11971553 0.4714947 0.0017040845 526 104
0.20190607 -0.12013305 0.47212946 0.001850896 510 100
0.20449893 -0.12027277 0.47169673 0.0018968194 479 91
0.20734152 -0.12055448 0.47185272 0.0017986434 478 90
0.21022497 -0.12085335 0.47211272 0.0018499662 453 83
0.21313687 -0.12116171 0.47245282 0.0018719967 447 81
0.21584132 -0.12134666 0.47236183 0.0020380497 445 81
0.21928224 -0.12193712 0.47390372 0.0020040583 430 76
0.22245847 -0.12236924 0.47488913 0.0021069585 411 71
0.22522528 -0.12256931 0.47504073 0.0020655992 391 65
0.2277665 -0.1226437 0.47477844 0.0022569965 343 51
0.23005421 -0.12258144 0.47406554 0.0022041914 355 55
0.2329189 -0.12282473 0.47461534 0.0024318213 330 47
0.23568235 -0.12301022 0.47502467 0.0023875847 312 42
0.23794354 -0.12293243 0.47450295 0.0023819783 318 44
0.24091439 -0.12321918 0.47547498 0.002582696 302 39
0.24351792 -0.12331425 0.47579467 0.002609608 299 38
0.24591239 -0.12330261 0.47579014 0.0028068582 286 35
0.24792574 -0.12310195 0.47514272 0.0027825572 267 29
0.24984419 -0.12285852 0.47441497 0.0027880555 256 26
0.25163844 -0.12255922 0.47355413 0.0029078894 240 21
-0.25523362 -0.10790815 0.43469679 0.0033294258 199 9
-0.25539586 -0.10889746 0.43762633 0.0031281079 213 13
-0.25425792 -0.10934462 0.43840873 0.0037050957 192 7
-0.25200093 -0.10931411 0.43732008 0.0034679824 193 8
-0.24962696 -0.1092319 0.43607613 0.0028600367 261 27
-0.24771491 -0.10935213 0.435693 0.0029312579 274 31
-0.24641953 -0.10974915 0.43646425 0.0025488597 290 36
-0.2452607 -0.11021467 0.43755996 0.0025245931 290 36
-0.2434613 -0.11039818 0.43759269 0.0025504618 300 39
-0.24120948 -0.11037799 0.43688062 0.0026783419 286 35
-0.23986539 -0.11077667 0.43789062 0.0024258485 312 42
-0.23842202 -0.1111365 0.43881232 0.0024579994 310 42
-0.23556712 -0.11083893 0.43720958 0.0023454258 320 44
-0.23420513 -0.11124485 0.43845516 0.002442759 340 50
-0.23154551 -0.11103627 0.43735406 0.0021037878 383 63
-0.2292995 -0.11102393 0.43710411 0.0020747269 386 64
-0.22743678 -0.11119872 0.43766999 0.002129341 373 60
-0.22554182 -0.11136106 0.43826723 0.0022622517 384 63
-0.2241689 -0.11178695 0.43998304 0.0022267008 392 65
-0.22125946 -0.11144751 0.43876827 0.0019151525 439 79
-0.21956606 -0.1117199 0.44004366 0.0019109366 441 80
-0.21683186 -0.11146285 0.4393141 0.0019725268 434 78
-0.21466967 -0.11149757 0.43981284 0.0018106904 477 90
-0.21315378 -0.11187223 0.44173065 0.0019368295 476 90
-0.20986357 -0.11131369 0.44003651 0.0017128461 527 105
-0.2075891 -0.11128775 0.44051513 0.0017341122 535 107
-0.20541058 -0.11131322 0.4412632 0.0016387632 553 112
-0.2029798 -0.11120105 0.44152653 0.0017203952 567 116
-0.1995907 -0.11055558 0.43972337 0.0015213533 640 137
-0.19716351 -0.11043441 0.44005072 0.0016255229 637 136
-0.19470091 -0.11029045 0.4403303 0.0015361025 639 137
-0.19203715 -0.11002795 0.44017226 0.0013825292 724 162
-0.18947057 -0.10981568 0.44024447 0.0014793553 716 159
-0.1873567 -0.10986388 0.44138715 0.0015413997 649 140
-0.18528704 -0.10993947 0.44266281 0.0014582039 689 152
-0.18290487 -0.10982922 0.44320664 0.0014001395 708 157
-0.18029416 -0.10957739 0.44318745 0.0014111188 707 157
-0.17742547 -0.10916064 0.44250211 0.0014635326 717 160
-0.17471509 -0.10883211 0.44217017 0.0014251012 770 175
-0.17243826 -0.10876878 0.44291079 0.0013076725 799 183
-0.16970381 -0.10841149 0.4424457 0.0013301634 776 177
-0.1673402 -0.10828493 0.44290984 0.0013233582 781 178
-0.16515906 -0.10827465 0.44383779 0.0013498412 750 169
-0.16294271 -0.10824071 0.44465515 0.0013646455 773 176
-0.16002545 -0.10773399 0.44351032 0.0014042336 766 174
-0.15728281 -0.10733262 0.44277447 0.0013190653 807 186
-0.15503064 -0.10725946 0.44337004 0.0012738506 831 193
-0.15288776 -0.10726093 0.44425389 0.001340376 773 176
-0.15080705 -0.10730668 0.44530097 0.0013887343 776 177
-0.14860457 -0.10726584 0.4459672 0.0013345941 776 177
-0.1460318 -0.10695262 0.44547626 0.0013243512 777 177
-0.1435463 -0.10669494 0.4451898 0.001375603 795 182
-0.14123626 -0.10656189 0.44539779 0.001422132 753 170
-0.13897873 -0.10646498 0.44573233 0.0014007811 771 175
-0.13658243 -0.1062571 0.44557711 0.0013480736 754 170
-0.13443832 -0.10624191 0.44620556 0.0014496241 727 163
-0.13247913 -0.10637476 0.44743356 0.001464199 732 164
-0.12993953 -0.10603827 0.44666362 0.001454983 712 158
-0.12790965 -0.10611349 0.44760382 0.0014100855 721 161
-0.12566698 -0.10601173 0.44777521 0.001426133 702 155
-0.12336763 -0.10585786 0.4477033 0.0014331515 725 162
-0.1212432 -0.10585134 0.44823226 0.0013818531 731 164
-0.11886393 -0.10561813 0.44777903 0.0013731181 739 166
-0.1165598 -0.10544445 0.4475556 0.0013947461 726 162
-0.11439175 -0.10538975 0.44781598 0.0013423976 763 173
-0.11253191 -0.10562227 0.44927788 0.0014015788 716 159
-0.11033052 -0.10553699 0.44936949 0.0013945648 727 163
-0.10824335 -0.10555976 0.44990212 0.0013852792 724 162
-0.1060314 -0.10545934 0.44989121 0.0014257976 692 152
-0.1039973 -0.10553531 0.45061487 0.0014644319 711 158
-0.10169687 -0.10533857 0.45015636 0.0014283457 732 164
-0.099648729 -0.10540035 0.45078555 0.0013989151 718 160
-0.097560257 -0.10542123 0.45122367 0.0014203351 731 164
-0.09529154 -0.10524395 0.45079738 0.0013740768 736 165
-0.093192756 -0.1052506 0.45114309 0.0014136803 703 156
-0.090991236 -0.10513883 0.45096618 0.0014255956 694 153
-0.088802785 -0.10503725 0.45081803 0.0014219983 697 154
-0.086644441 -0.10496721 0.45079103 0.0013923422 728 163
-0.084883951 -0.10538764 0.45285782 0.0013762368 727 163
-0.08254987 -0.10509921 0.45186618 0.0013960423 715 159
-0.080477394 -0.10513749 0.45226598 0.0014005752 719 160
-0.078413911 -0.10518986 0.45271477 0.0013856309 726 162
-0.076353587 -0.1052495 0.45318338 0.0014216172 698 154
-0.074311212 -0.10533796 0.45376533 0.0014378314 689 152
-0.072195679 -0.10532485 0.4538992 0.0015295234 656 142
-0.070125632 -0.10537928 0.45431378 0.0014476368 670 146
-0.068042442 -0.10541675 0.4546456 0.0014356624 689 152
-0.066070937 -0.10563519 0.45574871 0.0015832522 639 137
-0.063859344 -0.10547148 0.45519415 0.0015145757 664 144
-0.061679937 -0.1053516 0.45481938 0.0013969386 709 157
-0.059665486 -0.10551494 0.45565912 0.0014099542 710 158
-0.057617605 -0.10562898 0.4562782 0.001460199 667 145
-0.055373397 -0.10537806 0.45531309 0.0015292902 676 148
-0.05332619 -0.10549704 0.45593867 0.0014477052 675 147
-0.051250484 -0.10556711 0.45634592 0.0014493485 673 147
-0.04923787 -0.10577875 0.45735878 0.0014563696 672 147
-0.047103763 -0.10573667 0.4572683 0.0014446537 678 148
-0.044949591 -0.10564346 0.45695049 0.0014872061 696 154
-0.04286439 -0.10571118 0.45732284 0.0014389368 685 150
-0.040790629 -0.10581558 0.45784843 0.0014311085 689 152
-0.038709577 -0.10591145 0.45833197 0.0014782191 675 147
-0.036532741 -0.10574121 0.45765871 0.0014200744 700 155
-0.034391686 -0.10565995 0.4573656 0.0013903847 727 163
-0.032264527 -0.10561353 0.45721856 0.001457913 684 150
-0.030167345 -0.10566563 0.4574936 0.0014329363 695 153
-0.028027045 -0.10556318 0.45709532 0.0013922219 718 160
-0.02589942 -0.10549565 0.45684415 0.0014336878 686 151
-0.023657857 -0.10491089 0.45434883 0.0014380475 686 151
-0.021493644 -0.10458872 0.45298696 0.0014538352 671 146
-0.018891027 -0.10183381 0.44108403 0.0014900219 647 139
-0.016453661 -0.099411629 0.43061763 0.00145534 679 149
-0.014319707 -0.098408796 0.42629543 0.0014407841 725 162
-0.01229386 -0.097947717 0.4243167 0.0013759891 739 166
-0.010263151 -0.097265787 0.42137811 0.0013367514 791 181
-0.0082404576 -0.096358642 0.41746089 0.0013439393 825 191
-0.0063038915 -0.096212298 0.41683677 0.0012534756 859 201
-0.0043371329 -0.095274091 0.41277921 0.0012813357 899 212
-0.0024261374 -0.095050447 0.41181487 0.0011755504 974 234
-0.00052514317 -0.095017955 0.41167608 0.0011630912 971 233
0.0013765483 -0.095123447 0.41213259 0.001239368 873 205
0.0032761234 -0.095045134 0.4117901 0.0012258277 943 225
0.0051811081 -0.095123634 0.41212448 0.0012267762 943 225
0.0071093575 -0.09547241 0.41362718 0.0012439995 902 213
0.0090298019 -0.095590875 0.41412935 0.0012211853 926 220
0.010963412 -0.09578298 0.41494778 0.0012520306 865 203
0.012919581 -0.09608572 0.41624257 0.0012552888 865 203
0.014939643 -0.09672372 0.41898674 0.0012613689 848 198
0.016938042 -0.097091272 0.42055616 0.0013081557 818 189
0.018900253 -0.09719713 0.42098874 0.001268914 854 199
0.020876542 -0.097348891 0.42161688 0.0013210981 849 198
0.022888958 -0.097628854 0.42279679 0.0013052914 875 205
0.024889532 -0.09781827 0.42358091 0.0013233847 834 194
0.026942778 -0.098172016 0.42507273 0.0012900007 844 196
0.029026147 -0.09857998 0.42679518 0.0012803251 836 194
0.03104811 -0.098740816 0.42744336 0.0012723518 836 194
0.033038363 -0.098787569 0.42759344 0.0012945186 821 190
0.035053059 -0.098898016 0.42801464 0.0012738379 873 205
0.037119705 -0.099135406 0.4289805 0.0012431706 878 206
0.039181456 -0.099336319 0.42978325 0.0012490875 860 201
0.041226555 -0.099477656 0.43032286 0.0012008778 922 219
0.043249901 -0.099555917 0.4305841 0.0012762411 893 211
0.045443416 -0.10000175 0.43242911 0.0012468372 910 216
0.047355901 -0.099817641 0.43154395 0.0012032749 917 218
0.049345788 -0.099804975 0.43139395 0.0012504794 913 216
0.0513932 -0.099905118 0.431725 0.0012372027 932 222
0.05336038 -0.099847637 0.43136808 0.0012486074 944 225
0.055313844 -0.099769577 0.43091524 0.0012120671 944 225
0.057294916 -0.099744998 0.43068612 0.0011834879 974 234
0.059303161 -0.099767789 0.43065375 0.0011735576 1014 246
0.061142374 -0.099513985 0.42941976 0.0011292213 1034 252
0.063113488 -0.099484101 0.42914394 0.001109461 1054 255
0.065163538 -0.099576645 0.42938736 0.0011425914 995 240
0.06712383 -0.099530645 0.42902416 0.0011803795 1021 248
0.069175929 -0.099619463 0.42923245 0.0011310524 1029 250
0.071120821 -0.099553272 0.42876288 0.0011502611 1033 251
0.072944351 -0.099325418 0.42758733 0.0011938788 991 239
0.074972697 -0.099381149 0.42762229 0.0012407501 904 214
0.077019274 -0.099457547 0.4277347 0.0011913163 929 221
0.079426907 -0.099984594 0.42977226 0.0012683054 860 201
0.08138606 -0.09993507 0.42931849 0.0014474456 733 164
0.087104388 -0.10439323 0.44820598 0.0017016181 566 116
0.090596966 -0.10603759 0.45498338 0.0015891072 646 139
0.092440367 -0.10572065 0.45332769 0.0014111996 780 178
0.09414877 -0.10526693 0.45107302 0.0012849517 823 190
0.096290298 -0.10530674 0.45091945 0.0012634293 849 198
0.098507993 -0.10542638 0.45109159 0.0012648209 856 200
0.10044744 -0.10524943 0.44997901 0.0012557497 888 209
0.10247115 -0.10516623 0.44925168 0.0012967202 847 197
0.10785251 -0.10846303 0.46293426 0.0016998926 509 99
0.11102957 -0.10945679 0.46675313 0.0016046631 613 129
0.11375771 -0.1099781 0.4685328 0.0015473497 628 134
0.11594653 -0.10996812 0.46802768 0.0015288125 623 132
0.11852264 -0.11031901 0.46903718 0.0015213793 631 135
0.12089408 -0.11047004 0.46917453 0.0015500875 607 128
0.12283758 -0.11023164 0.46763742 0.0016226255 592 123
0.12529249 -0.11045248 0.4680275 0.0016456268 600 126
0.12757735 -0.11051834 0.4677377 0.001572791 598 125
0.13020736 -0.11087587 0.46865797 0.0016247815 608 128
0.132682 -0.11109132 0.46895185 0.0016122625 572 118
0.13489042 -0.11108048 0.4682664 0.0015984563 609 128
0.13729431 -0.11122835 0.4682259 0.0015560564 602 126
