# .PCD v0.7 - Point Cloud Data file format
VERSION 0.7
FIELDS x y z noise intensity gray
SIZE 4 4 4 4 2 1
TYPE F F F F U U
COUNT 1 1 1 1 1 1
WIDTH 870
HEIGHT 1
VIEWPOINT 0 0 0 1 0 0 0
POINTS 870
DATA ascii
-0.26210749 -0.17596377 0.50277185 0.0039898767 175 2
-0.26009929 -0.17630634 0.50279748 0.0034669761 190 6
-0.25779405 -0.17645229 0.50231117 0.0033296905 197 8
-0.25531155 -0.17647859 0.50153667 0.0032869144 200 9
-0.25307551 -0.1766775 0.50130671 0.0031416058 210 12
-0.25115982 -0.17710631 0.50178349 0.0032636472 203 10
-0.24960677 -0.17780216 0.50307149 0.0034645954 191 7
-0.24726057 -0.17794149 0.50284272 0.0040241131 154 0
-0.2444147 -0.17772044 0.50165862 0.0031950159 218 15
-0.24321982 -0.17870781 0.50394797 0.0032265279 231 18
-0.2415029 -0.17932847 0.50526524 0.0028916076 242 22
-0.23885147 -0.1792611 0.50471067 0.0030139335 253 25
-0.2363234 -0.17928582 0.50448471 0.0031596969 256 26
-0.23383145 -0.1793388 0.50440824 0.0030440085 263 28
-0.23133668 -0.17939079 0.50440001 0.0027057242 269 30
-0.22907126 -0.1796238 0.5049721 0.00295089 280 33
-0.22652054 -0.17963578 0.50499469 0.0028219086 295 37
-0.2237127 -0.17944187 0.50451005 0.0024319929 302 39
-0.2213033 -0.1795667 0.50499266 0.0025461938 304 40
-0.21798378 -0.17894733 0.50345218 0.0022340496 342 51
-0.21558252 -0.17907603 0.50408435 0.0023835017 339 50
-0.2134216 -0.17940986 0.50536191 0.0021495258 374 60
-0.21124579 -0.17973916 0.50669295 0.0022501976 340 50
-0.20835029 -0.17945667 0.5063619 0.0021019068 384 63
-0.20541281 -0.17913051 0.50596547 0.0021883352 358 56
-0.20261477 -0.17891927 0.50594807 0.0022100769 351 54
-0.19996707 -0.17883706 0.506347 0.0021223691 399 68
-0.1972454 -0.17868575 0.50659788 0.0020080011 406 70
-0.194548 -0.17855275 0.50694388 0.0020430346 435 78
-0.19162257 -0.17820412 0.50671583 0.0020234957 421 74
-0.18870263 -0.17785127 0.50650841 0.0019366629 433 78
-0.18584248 -0.17754596 0.5064646 0.0019940019 462 86
-0.18403445 -0.17825125 0.50933248 0.0018765901 447 82
-0.18116918 -0.17793791 0.50931448 0.0020263479 447 82
-0.17779703 -0.17711076 0.50783855 0.0018300116 465 87
-0.17478891 -0.17662758 0.50735676 0.0017849023 486 93
-0.17197853 -0.176333 0.50742346 0.0018262948 494 96
-0.16922966 -0.17609365 0.50765336 0.0017368571 497 97
-0.16644314 -0.17580731 0.5077489 0.0017865471 500 98
-0.16381176 -0.1756786 0.50829816 0.0018525522 501 98
-0.16098589 -0.17533405 0.50821835 0.0018637129 500 98
-0.15830547 -0.1751395 0.50856584 0.0016948001 535 108
-0.15521941 -0.17448273 0.50755984 0.0018592422 525 105
-0.15253766 -0.17426646 0.50782168 0.0016889338 530 106
-0.15019931 -0.17444181 0.50921363 0.0018924162 503 98
-0.14762849 -0.17434853 0.50980937 0.0017518627 522 104
-0.14467853 -0.17379662 0.50904703 0.0017655964 538 109
-0.14196564 -0.17351522 0.50905776 0.0016747238 531 107
-0.13954552 -0.17358795 0.51009053 0.0016199744 560 115
-0.1362742 -0.17258532 0.50794202 0.0016840539 576 120
-0.13390696 -0.17271185 0.50909525 0.0016732026 540 109
-0.13134609 -0.17258868 0.50949419 0.0016545479 544 111
-0.12888506 -0.17259449 0.51025474 0.0016659654 534 108
-0.12650967 -0.17271745 0.51134324 0.0018174151 510 100
-0.12388207 -0.17249411 0.51138681 0.0017653679 536 108
-0.12130816 -0.17233801 0.51160878 0.0016776023 530 106
-0.11874468 -0.17219056 0.51183569 0.0016785234 540 109
-0.11614043 -0.17197646 0.51184374 0.0017843724 535 108
-0.11364862 -0.17192326 0.51231021 0.0017031156 521 104
-0.11046959 -0.17080514 0.50957966 0.0017879034 524 105
-0.10799869 -0.1707561 0.51001555 0.0016931528 528 106
-0.10549507 -0.17065188 0.51026708 0.0017235486 519 103
-0.10314368 -0.17079483 0.51123911 0.0016816607 537 108
-0.10063747 -0.1706821 0.5114274 0.0017244867 537 108
-0.098157816 -0.17060994 0.51171845 0.001806777 536 108
-0.095856525 -0.17085201 0.51293457 0.0018027149 504 99
-0.093127497 -0.17032441 0.51182157 0.0017708229 554 113
-0.090603605 -0.1701538 0.51176184 0.0016518626 549 112
-0.088142246 -0.1700944 0.51201922 0.0016120409 564 116
-0.085795812 -0.17025974 0.51293653 0.0016462833 550 112
-0.08343029 -0.17039573 0.5137499 0.0016154962 561 116
-0.080890633 -0.17017354 0.51346701 0.0016571392 540 109
-0.078459859 -0.17017376 0.51383907 0.0016669859 574 119
-0.07610891 -0.17035265 0.51473564 0.0016543024 552 113
-0.073313981 -0.1695168 0.51254976 0.0017989076 550 112
-0.070897222 -0.16952811 0.51290905 0.0018202245 524 105
-0.068457499 -0.16948339 0.51308435 0.0017995436 528 106
-0.065945536 -0.16925 0.51267409 0.0016948587 520 103
-0.063562237 -0.16934156 0.51323432 0.0018128889 543 110
-0.061188053 -0.16946566 0.51388013 0.0016570988 542 110
-0.058653876 -0.16913861 0.51314449 0.0016033971 566 117
-0.056361813 -0.16951163 0.51451999 0.0018013756 520 103
-0.053960394 -0.16957447 0.51494223 0.0016731332 534 108
-0.051526293 -0.1695357 0.5150438 0.0016845324 533 107
-0.048961502 -0.16904189 0.51375031 0.0017032357 525 105
-0.046611827 -0.16927807 0.5146634 0.0017277513 525 105
-0.044103723 -0.16893326 0.51379859 0.0017735102 534 108
-0.041890785 -0.16974454 0.51643932 0.0017447295 537 108
-0.039604347 -0.17033942 0.51841187 0.0017746523 500 98
-0.037094481 -0.16998826 0.51749486 0.0018191029 471 89
-0.034577217 -0.16955167 0.51630634 0.0018583689 489 94
-0.032225318 -0.16992126 0.51756239 0.001772435 493 95
-0.029846715 -0.17019877 0.51852828 0.0018730138 489 94
-0.027442766 -0.17036815 0.51915485 0.0017624209 493 95
-0.02489466 -0.16958848 0.5168792 0.001804624 518 103
-0.022456603 -0.16947117 0.51661211 0.0018240812 519 103
-0.02000279 -0.1691923 0.51584262 0.001743833 505 99
-0.017598024 -0.1693086 0.51626849 0.001785925 512 101
-0.015192057 -0.1694486 0.51675731 0.0019039215 505 99
-0.012774347 -0.16948582 0.51692349 0.0018946924 497 97
-0.01034644 -0.16937357 0.51662445 0.0016983331 525 105
-0.0079337908 -0.1695188 0.51710176 0.001705168 527 106
-0.0055075763 -0.16937448 0.51668656 0.0017454451 508 100
-0.0030881139 -0.16937427 0.516702 0.0016862461 532 107
-0.00066982472 -0.16966975 0.51761043 0.0018625562 525 105
0.0017561826 -0.16989523 0.5182963 0.0018639362 507 100
0.0041880277 -0.17009617 0.51889819 0.0019370228 491 95
0.0066258372 -0.17030285 0.51950848 0.0019619209 471 89
0.0090425992 -0.17000285 0.51856393 0.001735511 509 100
0.011467801 -0.16995494 0.51837933 0.0018556609 495 96
0.013895823 -0.16995823 0.51834178 0.0017674965 494 96
0.01636444 -0.17038326 0.51958102 0.0018730654 506 99
0.018800911 -0.17040685 0.51958638 0.0017971438 478 91
0.021230338 -0.17036848 0.5193935 0.0018769782 497 97
0.023662478 -0.17035756 0.51927465 0.0018721869 487 94
0.026113825 -0.17047405 0.51953441 0.0017274613 514 102
0.028493667 -0.17014369 0.51842272 0.0018112879 495 96
0.030971363 -0.17040367 0.51909971 0.0018213212 493 95
0.033473723 -0.17075156 0.52003402 0.001791155 482 92
0.035902303 -0.1707014 0.51974535 0.0017988664 492 95
0.038380083 -0.17087667 0.52013242 0.0017874198 481 92
0.040945631 -0.17139839 0.52156287 0.0019633658 454 84
0.043532137 -0.17194398 0.52305382 0.0018419712 466 88
0.045955308 -0.17182063 0.52249825 0.0018463412 462 86
0.04831326 -0.1714783 0.52126592 0.0018131942 471 89
0.050610125 -0.17096268 0.5194959 0.0017995047 474 90
0.053114228 -0.17116231 0.51988792 0.0017839769 487 94
0.055584483 -0.17124012 0.51989728 0.0017466475 504 99
0.05817382 -0.17166278 0.52094054 0.0017316256 509 100
0.060686246 -0.17183346 0.52120554 0.001737323 497 97
0.063006058 -0.17146669 0.51982754 0.0017293587 512 101
0.065602884 -0.17185304 0.52071935 0.0019483322 492 95
0.068188518 -0.17218325 0.5214262 0.0018529621 499 97
0.070712656 -0.17234056 0.52159458 0.0018324138 494 96
0.073288754 -0.17260969 0.5220862 0.0018111086 474 90
0.075915456 -0.17297661 0.52285767 0.0019313479 495 96
0.078384608 -0.17297271 0.52249247 0.0017425611 503 98
0.081206962 -0.17372465 0.52439332 0.0019212785 498 97
0.083546102 -0.17342894 0.5231151 0.0018897237 486 93
0.085862182 -0.17310375 0.52173334 0.0018100941 478 91
0.0883369 -0.17310767 0.52132761 0.0017202465 509 100
0.091281183 -0.17400645 0.5235979 0.0019413979 481 92
0.093728922 -0.17393616 0.52293295 0.0018222451 498 97
0.096268013 -0.17403463 0.52275765 0.00172267 508 100
0.098980166 -0.17443311 0.52346432 0.0017600082 499 97
0.10151505 -0.17450735 0.5231784 0.0017966193 484 93
0.10409567 -0.17465469 0.52309251 0.0017964236 484 93
0.10678693 -0.17497647 0.52350879 0.0018707877 477 91
0.10920172 -0.17484088 0.52253705 0.0019368802 485 93
0.11191893 -0.17518471 0.52297825 0.0019534223 458 85
0.11463525 -0.17551215 0.52334863 0.0018041254 480 92
0.11723048 -0.17564414 0.52311486 0.0019514393 486 93
0.11984002 -0.17579158 0.5229063 0.0018861628 483 93
0.1230703 -0.17682487 0.52530831 0.0017964914 483 93
0.12568593 -0.17695121 0.52499175 0.0018324595 469 88
0.12903951 -0.17809106 0.52765691 0.001800577 472 89
0.13065998 -0.17684114 0.52322221 0.0019128419 484 93
0.13339914 -0.17712401 0.52330691 0.0017636101 495 96
0.13631268 -0.17762356 0.52400905 0.0017578958 496 96
0.13906492 -0.17789854 0.52402639 0.0017504253 508 100
0.14132568 -0.1775462 0.52217776 0.0017513103 517 103
0.14497057 -0.17891452 0.52536708 0.0017727937 495 96
0.14765289 -0.17906803 0.52496505 0.0018085869 472 89
0.15041208 -0.17930795 0.52479839 0.001813278 479 91
0.15356152 -0.17999728 0.52592754 0.0018013288 497 97
0.15629849 -0.18018839 0.52558297 0.0017469726 501 98
0.1590213 -0.18035725 0.52515936 0.0017005535 519 103
0.16168132 -0.18045063 0.5245043 0.0017002544 519 103
0.16457798 -0.18080105 0.5245856 0.0018232166 501 98
0.16787571 -0.18157443 0.52588224 0.0018300896 517 103
0.17090216 -0.18203534 0.52626371 0.0016821678 530 106
0.17386448 -0.18241517 0.52640527 0.001788479 478 91
0.17680332 -0.18275946 0.52644289 0.0018116991 472 89
0.18026771 -0.18362913 0.52799278 0.0018324362 468 88
0.18362522 -0.18436651 0.52916306 0.0019700346 469 88
0.1862672 -0.18437481 0.52824986 0.0019737273 462 86
0.18896699 -0.18443927 0.5275141 0.001831047 469 88
0.19202031 -0.18484229 0.52776557 0.0019483301 441 80
0.19471931 -0.18489791 0.52704835 0.0020879502 438 79
0.19753249 -0.18505904 0.52666092 0.0019712159 425 75
0.20075469 -0.18559402 0.52736902 0.0020380453 399 68
0.20388274 -0.18602917 0.5278284 0.002071589 378 62
0.20690382 -0.18635675 0.52802336 0.0022010773 374 60
0.21062241 -0.18729632 0.52999562 0.0021888742 357 55
0.21343677 -0.18741825 0.52970314 0.0023534354 367 58
0.21570866 -0.18706676 0.52812982 0.0021991648 357 55
0.21835396 -0.18704373 0.52754515 0.0023716178 349 53
0.22136824 -0.18733348 0.5279054 0.0023185553 332 48
0.2245823 -0.18778341 0.52878189 0.0026349202 323 45
0.22702214 -0.18758297 0.52789533 0.0024039582 334 49
0.22985558 -0.18770862 0.52799773 0.0025649052 313 42
0.23318578 -0.18823241 0.52929217 0.0025806106 306 40
0.23574759 -0.18813102 0.52890235 0.0026903427 292 36
0.23842672 -0.18812449 0.52885419 0.0026329947 273 31
0.24105814 -0.18808091 0.528777 0.0030912135 263 28
0.24356294 -0.18794057 0.52850288 0.003199666 245 22
0.24603958 -0.18778178 0.52825141 0.0028909957 239 21
0.24873088 -0.18778852 0.52853948 0.0031104581 227 17
0.2514331 -0.18780325 0.52892321 0.0030221757 221 15
0.2546747 -0.18821628 0.53050154 0.0030352375 217 14
0.25722927 -0.18811826 0.53071076 0.0031763073 218 15
0.2598564 -0.18807478 0.53114265 0.0032581144 200 9
0.26255491 -0.18808335 0.53178883 0.0034555991 205 11
0.26472378 -0.18771611 0.53143674 0.0037345472 190 6
0.26897958 -0.18882127 0.53531998 0.0038918792 160 0
0.26998779 -0.18764737 0.53280318 0.0057953345 123 0
0.27499354 -0.18924759 0.53822517 0.0071192305 78 0
0.28132096 -0.19171737 0.54619813 0.0088078715 68 0
0.28733903 -0.19393075 0.55352151 0.0044171037 143 0
0.28873581 -0.19301261 0.55196881 0.00328138 244 22
-0.28884509 -0.16851877 0.50339818 0.003949346 151 0
-0.28630206 -0.16845939 0.5023905 0.0040895059 155 0
-0.28425306 -0.16869219 0.50204283 0.0040504346 158 0
-0.28199482 -0.16880377 0.50120848 0.0039897081 154 0
-0.27944282 -0.1687399 0.49979022 0.0045427438 147 0
-0.27726412 -0.16890232 0.49901855 0.0036989462 176 2
-0.27648515 -0.16992792 0.50079113 0.0042794552 164 0
-0.27487054 -0.17045373 0.50109845 0.0038064534 167 0
-0.27301204 -0.17083648 0.50100744 0.0038194698 168 0
-0.27135041 -0.17135055 0.50133067 0.0037122192 173 1
-0.26997888 -0.17205898 0.50225371 0.0037921658 167 0
-0.26774982 -0.17222905 0.50164193 0.0036925622 174 2
-0.26717979 -0.17347951 0.50421309 0.0043458794 161 0
-0.26468372 -0.17349125 0.50322342 0.0037190611 170 0
-0.26171076 -0.17318767 0.50137007 0.0037939907 180 3
-0.2598584 -0.17362693 0.50171775 0.0033882826 193 7
-0.25809047 -0.17413174 0.50230306 0.0034972909 210 12
-0.25578314 -0.17427902 0.50190908 0.0032922935 199 9
-0.25369385 -0.17457923 0.50201076 0.0032220471 209 12
-0.25193945 -0.1751183 0.50285494 0.0038469629 201 10
-0.25016975 -0.17565763 0.50375688 0.0038303626 182 4
-0.24795881 -0.17589498 0.50385344 0.003766546 166 0
-0.24531798 -0.17582919 0.50314599 0.0033613141 222 16
-0.24347501 -0.17633985 0.50415373 0.0031251526 239 21
-0.24100329 -0.17640115 0.50394386 0.0031710612 247 23
-0.23871037 -0.17659605 0.50418496 0.0028206562 250 24
-0.23664525 -0.17696549 0.50499445 0.0027455802 260 27
-0.23429048 -0.17712408 0.50527376 0.0026157608 279 32
-0.23139614 -0.17687371 0.50445926 0.0026622189 272 30
-0.22919968 -0.17715718 0.50524032 0.0023914552 309 41
-0.22658826 -0.17712267 0.50518763 0.0023861944 316 43
-0.22420171 -0.17726521 0.50571263 0.00242376 308 41
-0.22119765 -0.17691715 0.50490963 0.0022335087 338 50
-0.21829987 -0.1766469 0.50439852 0.0023783192 354 55
-0.2152814 -0.17627144 0.50365472 0.0021601061 371 60
-0.21285717 -0.17637937 0.50435817 0.0020277724 404 69
-0.21048741 -0.17653561 0.5052644 0.0023074665 390 65
-0.20795147 -0.17655458 0.50583953 0.0022802812 395 67
-0.20527266 -0.17645122 0.50612181 0.0021344409 391 65
-0.20238224 -0.17616105 0.50592107 0.0021901249 402 69
-0.19963448 -0.17598926 0.50610876 0.0020174794 409 71
-0.19704297 -0.17595251 0.5067302 0.0019380865 422 75
-0.19416755 -0.175658 0.50664937 0.0020857796 432 78
-0.19136877 -0.1754259 0.50678355 0.0018216496 470 89
-0.18738411 -0.1740858 0.5037421 0.0018928876 484 93
-0.18509372 -0.17430466 0.50523436 0.0017612345 488 94
-0.18259093 -0.17432681 0.50618124 0.0017954716 483 93
-0.18009405 -0.17435527 0.50716621 0.0017793394 481 92
-0.17705764 -0.17385478 0.50662541 0.0018302936 525 105
-0.17401242 -0.17333107 0.50602299 0.001738442 512 101
-0.17157687 -0.17340821 0.50717986 0.0018038658 501 98
-0.16846383 -0.1727927 0.50631213 0.001731471 517 103
-0.16633147 -0.1731797 0.5083819 0.0017268577 515 102
-0.16301478 -0.17232656 0.50680673 0.0016978823 524 105
-0.16061145 -0.17242748 0.50802869 0.0016966781 518 103
-0.15783103 -0.17212029 0.50804037 0.0016908325 526 105
-0.15519705 -0.17196557 0.5084905 0.0017064703 512 101
-0.15256523 -0.17180817 0.50892031 0.0017368527 526 105
-0.14988761 -0.17159313 0.50916463 0.001769734 551 113
-0.14704323 -0.17117673 0.50879431 0.0016979435 562 116
-0.14400901 -0.17052121 0.50769264 0.0017063675 556 114
-0.14115576 -0.1700609 0.50715035 0.0016543822 550 112
-0.13896333 -0.17039444 0.50895768 0.001578618 581 121
-0.13623957 -0.17007677 0.50880206 0.0015902146 584 122
-0.13341278 -0.16961646 0.50819761 0.0016176362 565 117
-0.13097206 -0.16963886 0.50901854 0.0017050145 567 117
-0.12879674 -0.17001246 0.5108757 0.0016685292 536 108
-0.12630376 -0.16997313 0.51147395 0.0017283172 566 117
-0.12311671 -0.16897964 0.50917691 0.0016645718 548 112
-0.12084337 -0.16922535 0.51059115 0.0016534552 533 107
-0.11831346 -0.16911452 0.51091015 0.0017095632 539 109
-0.11588175 -0.16914229 0.51162809 0.0017587388 557 114
-0.11328319 -0.16892248 0.51157653 0.0016637094 546 111
-0.11043718 -0.16831584 0.51033115 0.0016591318 542 110
-0.10769036 -0.16783637 0.50944829 0.0017289184 549 112
-0.10529386 -0.16789335 0.51017332 0.0016567578 543 110
-0.1028417 -0.16786218 0.51061189 0.0018350701 537 108
-0.10035226 -0.16776718 0.51083732 0.0017059251 535 108
-0.097754486 -0.16748181 0.51046377 0.0016811281 540 109
-0.095405526 -0.16761909 0.51136005 0.0016707799 537 108
-0.092920639 -0.1675185 0.51151323 0.0017667849 538 109
-0.090444654 -0.16742896 0.51168245 0.0017722915 554 113
-0.087956056 -0.16731054 0.51174611 0.0016978972 586 123
-0.08563561 -0.16751426 0.5127787 0.0017235093 573 119
-0.083159879 -0.1674173 0.51287484 0.0016573017 562 116
-0.080667317 -0.1672796 0.51282984 0.001772107 543 110
-0.078374013 -0.16755939 0.51404965 0.0016629746 540 109
-0.075659849 -0.16692846 0.51245964 0.0016399499 564 116
-0.073177852 -0.16678505 0.51234984 0.0017933327 549 112
-0.070828974 -0.16694561 0.51315945 0.0017169807 543 110
-0.068330459 -0.16675237 0.51286745 0.0016232153 565 117
-0.065934569 -0.16680457 0.51331627 0.0016660958 532 107
-0.063595362 -0.16700958 0.51422244 0.0016542696 558 115
-0.061143633 -0.16692364 0.51421988 0.0016834692 571 118
-0.058572471 -0.16649115 0.51313603 0.0016143207 588 123
-0.056149941 -0.16646209 0.5132826 0.0016303952 558 115
-0.053787842 -0.16661766 0.51398629 0.0017304925 545 111
-0.051188976 -0.16601995 0.51235384 0.0016269285 563 116
-0.049016118 -0.16681305 0.51500225 0.0017097396 525 105
-0.046435419 -0.16622849 0.51338619 0.0017753511 540 109
-0.044120375 -0.16658297 0.51465893 0.0017174871 535 108
-0.041756015 -0.1667815 0.51543963 0.0017646891 533 107
-0.039439205 -0.16720602 0.51690859 0.0017711817 515 102
-0.036991261 -0.16709377 0.51670802 0.0019603982 478 91
-0.034559969 -0.16704632 0.51669741 0.0019179367 492 95
-0.032151479 -0.16711023 0.51702118 0.001887863 520 103
-0.029692564 -0.16690108 0.5164901 0.0016988222 512 101
-0.027286319 -0.16697714 0.51683187 0.0017633472 498 97
-0.024871388 -0.1670097 0.51702946 0.00174609 502 98
-0.022411121 -0.16671203 0.51619512 0.0017277701 513 101
-0.019989245 -0.1666625 0.51611978 0.0016971793 528 106
-0.017566212 -0.1665884 0.51595896 0.0019102573 495 96
-0.015182521 -0.16692325 0.51705593 0.0017138618 517 103
-0.012768819 -0.1669925 0.51732123 0.0016972446 526 105
-0.010332722 -0.16673279 0.51655853 0.0016931575 525 105
-0.0079204598 -0.16681652 0.51685101 0.0017271669 510 100
-0.0054993597 -0.16670594 0.5165326 0.0016840305 534 108
-0.0030822298 -0.16663669 0.51633346 0.0016885567 522 104
-0.00066858705 -0.16693704 0.51727092 0.0017288288 522 104
0.0017504863 -0.16692512 0.51723206 0.0017164048 517 103
0.0041763047 -0.16719705 0.51806396 0.0017480162 502 98
0.0066057928 -0.16736232 0.51855654 0.0017780717 489 94
0.009037436 -0.16747873 0.51888895 0.0019302816 487 94
0.011458156 -0.16738628 0.51856548 0.0016966122 529 106
0.013885736 -0.16740882 0.51858932 0.0017311693 509 100
0.016328407 -0.16757959 0.51906329 0.0016907569 525 105
0.018794518 -0.16791552 0.5200395 0.0018356018 516 102
0.021230742 -0.16793804 0.52003586 0.0017620956 512 101
0.023626536 -0.16766898 0.51912022 0.0017642112 497 97
0.026032399 -0.16751494 0.51855129 0.0017083775 519 103
0.028470472 -0.16757672 0.51864111 0.0018092637 483 93
0.030863076 -0.16738224 0.5179283 0.0019036412 483 93
0.033325341 -0.16756631 0.51837701 0.0018399229 496 96
0.035833642 -0.16794118 0.51940536 0.0018360202 494 96
0.038289461 -0.16803804 0.5195635 0.0017784875 489 94
0.040772773 -0.16823676 0.52002585 0.0017571149 495 96
0.043420598 -0.16905357 0.52238697 0.00174168 494 96
0.045768019 -0.16867599 0.5210461 0.0017910146 511 101
0.048101895 -0.16828932 0.51966685 0.0017605792 495 96
0.050538655 -0.16828254 0.51944983 0.0017818824 494 96
0.053035811 -0.16846824 0.51981509 0.0017239907 519 103
0.055594672 -0.16882497 0.52069545 0.0017153315 511 101
0.058138233 -0.16910712 0.5213328 0.001724086 511 101
0.060572494 -0.16906138 0.52094638 0.0017781183 533 107
0.062962227 -0.16889977 0.52019054 0.0018016448 528 106
0.065528758 -0.16920675 0.52086455 0.0018323975 501 98
0.068139054 -0.16960053 0.5217911 0.0017871173 485 93
0.070583627 -0.16956876 0.52139413 0.0017747679 486 93
0.073169552 -0.16986728 0.52199799 0.0019355884 475 90
0.075601898 -0.16980149 0.52146745 0.0017959295 486 93
0.078007624 -0.16968185 0.52075708 0.0018322627 510 100
0.080510281 -0.16977397 0.52068162 0.0017329726 517 103
0.083234966 -0.17031494 0.52196574 0.0017279461 525 105
0.085745513 -0.17039916 0.52183282 0.0017322594 512 101
0.088323258 -0.17060851 0.52206612 0.0019043079 504 99
0.090994865 -0.17098282 0.52278602 0.001684049 523 104
0.093528837 -0.17108552 0.52265733 0.001742045 499 97
0.096014671 -0.17109713 0.52223265 0.0017939056 505 99
0.098553613 -0.17120041 0.52206963 0.0017974401 484 93
0.10108896 -0.17129256 0.5218541 0.0017507125 494 96
0.10365579 -0.17143233 0.52176458 0.0017822504 480 92
0.10652737 -0.17205776 0.52313209 0.0018232384 491 95
0.10887434 -0.17182668 0.52187502 0.0017695872 490 95
0.11154634 -0.1721074 0.52215302 0.0019484182 487 94
0.11443984 -0.17271012 0.52338535 0.0017572134 510 100
0.11709953 -0.17294171 0.52347028 0.0018181824 509 100
0.11973821 -0.17313327 0.52341241 0.0017705798 495 96
0.12297708 -0.17416696 0.52587557 0.0019223064 467 88
0.12530611 -0.17389643 0.52437758 0.001904902 487 94
0.12770525 -0.17373194 0.52318078 0.001746361 502 98
0.13037424 -0.17393382 0.52306682 0.0017546874 504 99
0.13307799 -0.17417355 0.52304465 0.0017241506 513 101
0.13593015 -0.17459494 0.52354509 0.0018781256 482 92
0.13858099 -0.17474711 0.52321607 0.0017741252 512 101
0.14117721 -0.17482616 0.52264798 0.0016960414 517 103
0.14429426 -0.17553605 0.52394313 0.0016836722 527 106
0.14721628 -0.17598817 0.52444524 0.0017784609 509 100
0.14992145 -0.17617005 0.5241217 0.0018031595 478 91
0.15268217 -0.17641006 0.52395254 0.0018101053 528 106
0.15586896 -0.17712636 0.52517807 0.0017265665 509 100
0.15830359 -0.17697851 0.52382463 0.0018157626 507 100
0.16126969 -0.17742011 0.52420211 0.0017020638 512 101
0.16442135 -0.17804876 0.52511609 0.0017205345 530 106
0.16721433 -0.1782756 0.52483213 0.0017188955 519 103
0.17052363 -0.1790376 0.52611226 0.001712236 509 100
0.17345318 -0.17938405 0.52616173 0.0019468837 478 91
0.17642619 -0.17976457 0.52630669 0.0017477744 500 98
0.1790397 -0.17977302 0.52536267 0.0017792074 485 93
0.18208937 -0.1802129 0.52568305 0.0019179363 477 91
0.18522899 -0.18072808 0.52622759 0.0017706783 491 95
0.18850721 -0.18136229 0.52712631 0.0018968601 446 82
0.19148856 -0.18169734 0.52716833 0.0018748658 457 85
0.19484599 -0.1823753 0.52822232 0.0018967707 440 80
0.19760689 -0.18248427 0.52765113 0.0019765678 414 72
0.20033054 -0.18255636 0.52700412 0.001984939 407 70
0.2031956 -0.18275379 0.52675354 0.00204463 391 65
0.2060671 -0.18295185 0.52654397 0.0020891833 383 63
0.20943129 -0.18357675 0.52760494 0.0023361212 383 63
0.21222207 -0.18368965 0.52724135 0.0020785329 387 64
0.21483938 -0.18365151 0.52649814 0.0021057574 375 61
0.21774375 -0.18385665 0.52651018 0.0023845665 362 57
0.22275612 -0.18581523 0.53159928 0.0022131328 347 53
0.22548392 -0.18584411 0.53122795 0.0023207504 327 47
0.227751 -0.18549705 0.52985144 0.0023540386 337 50
0.22939761 -0.18465863 0.52714461 0.0023412714 322 45
0.23121527 -0.18397564 0.52495646 0.0025172683 323 45
0.23506129 -0.18490376 0.52743971 0.0025328414 293 37
0.23848529 -0.18548274 0.5290013 0.0026719025 274 31
0.24112763 -0.18544768 0.52888757 0.002871119 272 30
0.24368572 -0.18534929 0.52866989 0.0030435126 247 23
0.24608393 -0.18513277 0.52819145 0.0030343849 242 22
0.2487592 -0.18512708 0.52839017 0.0029368305 232 19
0.25206682 -0.18558712 0.52999389 0.0030547834 225 17
0.25500983 -0.18577182 0.53088653 0.0031723797 221 15
0.25741065 -0.18556178 0.53072393 0.0035918076 211 12
0.25967574 -0.1852593 0.53036684 0.0034218254 207 11
0.26256344 -0.18540263 0.53135526 0.0036190972 206 11
0.26527303 -0.18541856 0.53204679 0.0036948014 198 9
0.26719004 -0.18488576 0.53122777 0.0038726451 164 0
0.27387303 -0.18762866 0.53989398 0.0054775262 119 0
0.28117737 -0.1907391 0.54970598 0.0077903662 74 0
0.28681853 -0.19267178 0.55620867 0.011245893 55 0
0.28727788 -0.19111982 0.55271351 0.0062152361 94 0
0.28921473 -0.19057107 0.55216616 0.0035122067 187 5
-0.2902931 -0.16690919 0.50546879 0.003984733 157 0
-0.2865358 -0.16615365 0.50221008 0.0044224416 143 0
-0.28450069 -0.16639239 0.50180155 0.0049000937 149 0
-0.28215632 -0.1664528 0.50076753 0.0038424414 167 0
-0.27943236 -0.16628838 0.49902019 0.0039179674 157 0
-0.27765998 -0.1666923 0.49897057 0.004155078 164 0
-0.276236 -0.16731445 0.49957982 0.0039459262 163 0
-0.27590033 -0.16861291 0.50222003 0.0041241734 170 0
-0.27289331 -0.16828758 0.50004989 0.0037895041 167 0
-0.27113158 -0.16873118 0.5002023 0.0035400009 183 4
-0.26964703 -0.16935717 0.50092965 0.0034800388 182 4
-0.26792768 -0.16984589 0.50128835 0.0038248766 190 6
-0.26613677 -0.17029808 0.50157988 0.0034291185 188 6
-0.26578379 -0.17168771 0.5046705 0.003542457 179 3
-0.26138562 -0.17046584 0.50013471 0.0035715825 191 7
-0.25974235 -0.17103437 0.50090832 0.0032727565 209 12
-0.25833023 -0.1717677 0.50221312 0.0032108393 207 11
-0.256248 -0.17206556 0.50229692 0.0034919591 209 12
-0.25414178 -0.17235306 0.50240725 0.0032575144 204 10
-0.25254872 -0.17299789 0.50361687 0.0033661511 197 8
-0.2513043 -0.17389712 0.50562465 0.0037228535 180 3
-0.24872597 -0.17388229 0.50503737 0.0034662143 198 9
-0.24655212 -0.17415287 0.5053457 0.0028861137 238 20
-0.24359751 -0.17387183 0.5041225 0.0029334098 259 27
-0.24064755 -0.1735882 0.5029633 0.0028517663 255 25
-0.23828171 -0.17372435 0.50309247 0.002586619 278 32
-0.23665281 -0.17440653 0.50487471 0.0025888283 285 34
-0.23443443 -0.1746645 0.50550157 0.0025516923 289 35
-0.23148602 -0.17437823 0.50462765 0.0026540328 293 37
-0.22863843 -0.17416234 0.50403178 0.0023387538 327 47
-0.22679642 -0.17471625 0.50573784 0.0022801957 332 48
-0.22349785 -0.17414792 0.50426871 0.0022935481 334 49
-0.22144148 -0.1745455 0.50566864 0.0023633486 334 49
-0.21833582 -0.17411567 0.50474197 0.0022838428 367 58
-0.21537597 -0.1737933 0.50419378 0.0021495619 376 61
-0.21262152 -0.17363091 0.50417441 0.0020279258 398 68
-0.21011026 -0.17366558 0.50478995 0.0021610626 398 68
-0.207917 -0.17396717 0.50624233 0.001974432 414 72
-0.20502411 -0.17368358 0.50604779 0.0020605971 418 73
-0.20228691 -0.17352642 0.50627214 0.0018885564 444 81
-0.1994776 -0.17330259 0.50634825 0.0019076946 442 80
-0.19605713 -0.17253512 0.504875 0.0018566439 451 83
-0.19349824 -0.17251572 0.5056259 0.0018316976 467 88
-0.19027576 -0.17189622 0.50464916 0.0017871094 485 93
-0.18768707 -0.1718404 0.50535315 0.0017342834 508 100
-0.18432324 -0.17106365 0.50395775 0.0016908102 523 104
-0.18226996 -0.17149851 0.50615036 0.0017205038 516 102
-0.17943218 -0.17119709 0.5061869 0.0016806414 528 106
-0.1764092 -0.17070784 0.50567603 0.0017206189 516 102
-0.1737567 -0.17056817 0.50620544 0.0018297376 518 103
-0.1710172 -0.17033778 0.50646842 0.0017344565 502 98
-0.16824086 -0.17006327 0.50659883 0.0017143612 536 108
-0.16543703 -0.16975227 0.5066157 0.0016533964 539 109
-0.16300541 -0.16981953 0.50775582 0.0016753318 533 107
-0.15981516 -0.16908623 0.50649178 0.0016788074 550 112
-0.15739551 -0.16915792 0.50762653 0.0016254113 563 116
-0.15464586 -0.16887161 0.50767475 0.0017567871 547 111
-0.15220104 -0.16891421 0.50869787 0.0017924764 547 111
-0.14955887 -0.16873558 0.50903964 0.0016380573 555 114
-0.1466883 -0.1682889 0.50855428 0.0016705402 556 114
-0.14374214 -0.16773869 0.50773448 0.0016101828 570 118
-0.14097877 -0.16738628 0.50749129 0.0016348665 557 114
-0.13863136 -0.167524 0.50871491 0.0016641767 568 118
-0.13604365 -0.16737105 0.50903714 0.0016864859 575 120
-0.13317297 -0.16685796 0.50824153 0.0015586537 600 127
-0.1306266 -0.16673954 0.50862575 0.0017146547 578 121
-0.12845024 -0.16709796 0.51044554 0.0016393171 578 121
-0.12595622 -0.16704902 0.5110023 0.0016255159 558 115
-0.12304777 -0.1664376 0.50981563 0.0016070039 565 117
-0.12017254 -0.1658472 0.50866818 0.0015780035 584 122
-0.11781386 -0.16595997 0.50965559 0.0017116389 571 118
-0.11548572 -0.16612148 0.51077372 0.0016102961 564 116
-0.11307231 -0.16616464 0.511509 0.0016201244 563 116
-0.11025193 -0.16559844 0.51034689 0.0017141893 548 112
-0.1075797 -0.16523419 0.50978476 0.0016489618 541 110
-0.10504338 -0.1650667 0.50980878 0.0017080889 554 113
-0.10218656 -0.16437574 0.50819457 0.0016535071 541 110
-0.099835336 -0.16448429 0.50903201 0.0016773564 536 108
-0.097586758 -0.16477153 0.51040536 0.0017365451 540 109
-0.095173374 -0.16478807 0.51092339 0.0016342377 552 113
-0.092741527 -0.16477264 0.51132488 0.0016396003 549 112
-0.090257525 -0.16466124 0.51141125 0.0016496914 545 111
-0.08777561 -0.16454765 0.5114733 0.0017325095 545 111
-0.085258238 -0.16435923 0.51128578 0.0016174426 568 118
-0.08291243 -0.16450022 0.5121069 0.0015984753 586 123
-0.080266394 -0.16403608 0.51102781 0.001610031 573 119
-0.077866063 -0.16406092 0.51145583 0.0016376588 618 132
-0.075497851 -0.16415718 0.51209199 0.0016335701 555 114
-0.073014125 -0.1640003 0.51192367 0.0016052969 578 121
-0.070627615 -0.16405857 0.51241267 0.0016843877 528 106
-0.068280272 -0.16421515 0.51319534 0.0017815202 564 116
-0.065932915 -0.16438317 0.51400077 0.0016397281 548 112
-0.063575499 -0.16453792 0.51475209 0.0016170456 562 116
-0.061026424 -0.16418929 0.51391542 0.0016795567 537 108
-0.058573771 -0.16408207 0.51382113 0.001679842 535 108
-0.056080714 -0.16384754 0.51331556 0.0017677937 536 108
-0.05362653 -0.16371064 0.51310337 0.001727651 569 118
-0.051239192 -0.16377455 0.51350892 0.0017217081 558 115
-0.048837453 -0.16379644 0.51377141 0.0016128341 566 117
-0.046561684 -0.16426501 0.51542449 0.0016537264 548 112
-0.04403577 -0.16385409 0.51430708 0.0016136107 572 119
-0.041655306 -0.16396815 0.51482666 0.0017922815 543 110
-0.039256062 -0.16401774 0.51513368 0.0018000167 531 107
-0.036917444 -0.1643437 0.51629877 0.0017047169 513 101
-0.034492385 -0.16430362 0.51630425 0.0016890292 534 108
-0.032045033 -0.16414325 0.51592183 0.0017190663 518 103
-0.029615067 -0.16405308 0.51575035 0.001724447 520 103
-0.027244968 -0.164308 0.51665431 0.0018367883 511 101
-0.024837641 -0.16436611 0.51693052 0.001699877 526 105
-0.022410305 -0.1642901 0.51677573 0.0017130719 526 105
-0.019932171 -0.16377833 0.51524085 0.0016622512 552 113
-0.017562415 -0.16413879 0.51644123 0.0017700146 530 106
-0.015157784 -0.16423622 0.51680535 0.0017168958 511 101
-0.012743453 -0.16424558 0.51688379 0.0016585835 551 113
-0.01033641 -0.1643752 0.51733214 0.0017899915 509 100
-0.0079229353 -0.16445047 0.51760083 0.0017186354 522 104
-0.0055030254 -0.16439961 0.51746422 0.0017018135 526 105
-0.0030815385 -0.16418502 0.51680368 0.0016868463 541 110
-0.00066433399 -0.16347131 0.51456368 0.0017934302 534 108
0.0017509045 -0.16454542 0.51794267 0.0017565943 533 107
0.0041708555 -0.16455913 0.51797569 0.0018129688 527 106
0.0066005667 -0.16480647 0.51873541 0.0018017103 496 96
0.0090247812 -0.16482057 0.51875257 0.001810557 509 100
0.011440704 -0.16470933 0.51836658 0.0017316648 535 108
0.013849788 -0.1645557 0.51783884 0.0016719289 541 110
0.016315471 -0.16502024 0.51924777 0.0018549148 529 106
0.018764658 -0.16521923 0.51981193 0.001946701 493 95
0.021194424 -0.16522123 0.51974744 0.0017308999 507 100
0.023592468 -0.16500093 0.51897484 0.0017975668 529 106
0.026007475 -0.1649293 0.51866096 0.0018487516 480 92
0.028421523 -0.16486432 0.51835877 0.001763214 504 99
0.030850448 -0.16488908 0.51832944 0.0016812244 524 105
0.033252537 -0.16477726 0.51786125 0.0018220498 495 96
0.035779502 -0.16525739 0.51924354 0.0019673782 486 93
0.038256709 -0.16546124 0.51974726 0.0017766136 489 94
0.040694289 -0.16547959 0.51965791 0.0017621049 502 98
0.043130495 -0.16549057 0.51953512 0.0017684232 520 103
0.045636628 -0.16575441 0.52019531 0.0017343489 508 100
0.04811985 -0.16591242 0.52051222 0.0017528719 524 105
0.050546359 -0.16586915 0.52018631 0.0019416447 489 94
0.053016532 -0.1659665 0.52029014 0.0018028124 504 99
0.055530339 -0.16618587 0.52076441 0.0018078899 519 103
0.0580571 -0.1664239 0.52128458 0.0017035335 519 103
0.060497824 -0.16640602 0.52099073 0.0016889262 529 106
0.06295184 -0.16642469 0.52079868 0.0016887387 524 105
0.065364338 -0.16633627 0.52025884 0.0017635849 495 96
0.067937367 -0.166648 0.52095711 0.0017824593 509 100
0.070673056 -0.16732316 0.52277625 0.0017503405 497 97
0.073061615 -0.16715869 0.52195734 0.0017240446 508 100
0.07547906 -0.16706884 0.52135754 0.00175801 501 98
0.077883676 -0.16695717 0.5206756 0.0017648713 498 97
0.0803819 -0.16704684 0.52060664 0.0017862283 537 108
0.082924627 -0.16722098 0.52078497 0.0017017735 521 104
0.085629925 -0.16770343 0.52190644 0.0018639277 507 100
0.088243134 -0.16798361 0.52238047 0.0017411349 501 98
0.090671256 -0.16790575 0.52172428 0.0018164221 505 99
0.093272991 -0.168145 0.52203602 0.0017828931 523 104
0.095796824 -0.16823509 0.52186668 0.0018055564 520 103
0.098321967 -0.16832288 0.52167201 0.0017384581 501 98
0.10084327 -0.16839994 0.52142572 0.0019172285 494 96
0.10377951 -0.16914965 0.5232414 0.0019084923 482 92
0.10606226 -0.16882403 0.52171087 0.0019303178 492 95
0.10866209 -0.1690065 0.52173162 0.0017745582 483 93
0.11137987 -0.16936015 0.52225983 0.0019078216 489 94
0.11430583 -0.17000796 0.5236721 0.001864746 508 100
0.11706429 -0.17038424 0.52422446 0.0017489915 518 103
0.11974471 -0.17063355 0.5243637 0.0017512133 505 99
0.12152759 -0.16961989 0.52060431 0.0017826216 510 100
0.12461708 -0.17043403 0.52243519 0.0017246783 528 106
0.1275274 -0.17097583 0.52340513 0.0017545306 487 94
0.13022459 -0.17121647 0.52342933 0.0017456884 528 106
0.13288644 -0.17140241 0.52326393 0.0017590469 522 104
0.13566518 -0.17172936 0.52350622 0.0017368922 503 98
0.13835853 -0.17193829 0.52336591 0.0017039945 525 105
0.14112146 -0.17222461 0.52343899 0.0018175665 528 106
0.143968 -0.17260107 0.52376324 0.0017440235 493 95
0.14692228 -0.17309141 0.52440971 0.0017737992 521 104
0.14971052 -0.17337281 0.52440113 0.0017357153 504 99
0.15231596 -0.17343658 0.52371478 0.0017768923 509 100
0.15497597 -0.17355941 0.52318937 0.0018316411 517 103
0.1579048 -0.17397444 0.52352655 0.0017489688 503 98
0.16079885 -0.17433849 0.52369225 0.0017947609 514 102
0.1639266 -0.17494056 0.52455539 0.0016861361 526 105
0.16727525 -0.17575608 0.52604038 0.0017050604 521 104
0.16999799 -0.17589918 0.52549928 0.0017261552 510 100
0.17300591 -0.17632861 0.52580452 0.0018742568 501 98
0.17572275 -0.17645313 0.52519411 0.0017615786 492 95
0.17841728 -0.17655192 0.52450567 0.0017736064 493 95
0.18144269 -0.17697057 0.52476776 0.0018735324 501 98
0.18495663 -0.17784715 0.52638698 0.0017882945 490 95
0.18804151 -0.17829248 0.52673298 0.0018292735 470 89
0.19112532 -0.17872457 0.52704972 0.0018248594 468 88
0.19393042 -0.17888781 0.52658933 0.0018432197 463 87
0.19724378 -0.17950928 0.52749711 0.0019143722 432 78
0.20011981 -0.17972159 0.52722633 0.0019338471 425 75
0.20276262 -0.17972161 0.52636462 0.0019471903 426 76
0.20544566 -0.17975685 0.52564371 0.0021188122 431 77
0.20842086 -0.18004359 0.5256992 0.0021390887 411 71
0.21224138 -0.18104418 0.52788079 0.0022409484 397 67
0.21475287 -0.18091719 0.52682292 0.0022755577 381 63
0.21762347 -0.18109219 0.52670056 0.0023850966 379 62
0.22178009 -0.18232009 0.52969623 0.0023460852 350 53
0.22565013 -0.18328592 0.5319882 0.0022238523 346 52
0.22792338 -0.18294723 0.53055972 0.0022581453 339 50
0.22934379 -0.18193991 0.52726561 0.0024947152 336 49
0.23154801 -0.18157046 0.52589548 0.0024985287 329 47
0.2348074 -0.1820274 0.52699322 0.002633861 296 37
0.23809908 -0.18249878 0.52820772 0.0027173799 286 35
0.24163616 -0.18314566 0.53000659 0.0027001284 257 26
0.24387847 -0.18280774 0.52903324 0.0029094571 264 28
0.2462033 -0.18253839 0.52833605 0.0028285251 252 25
0.24989983 -0.18328086 0.53064561 0.0032504301 229 18
0.25294584 -0.18353547 0.53162068 0.0030320648 229 18
0.25605747 -0.18383183 0.532794 0.003227025 231 18
0.25771916 -0.18309188 0.53103793 0.0030338774 227 17
0.25977829 -0.18264669 0.53020769 0.0031886238 213 13
0.26225087 -0.18249834 0.53030932 0.0036380535 203 10
0.26515445 -0.18264985 0.53135228 0.0034866228 193 7
0.26762339 -0.18250196 0.53159225 0.0042266706 165 0
0.27724832 -0.18718848 0.54599839 0.0047655609 120 0
0.28640023 -0.19146663 0.55931664 0.0078009516 81 0
0.28639129 -0.1895968 0.55475026 0.010034279 58 0
0.28949788 -0.18980572 0.55632055 0.0065834816 89 0
0.29063609 -0.18873237 0.55418777 0.0045230477 139 0
-0.28630871 -0.16219762 0.49800515 0.0040865717 152 0
-0.28689548 -0.16391595 0.50220275 0.0042549241 142 0
-0.28451961 -0.16395651 0.50113416 0.0042193662 155 0
-0.28194463 -0.16388206 0.49965835 0.0039199986 163 0
-0.28025919 -0.16432792 0.4997482 0.0038811816 163 0
-0.27889782 -0.16497333 0.50044316 0.0040474022 182 4
-0.27837473 -0.16613048 0.50269842 0.0038634343 162 0
-0.27498829 -0.16558431 0.49982584 0.0037162981 172 1
-0.27313957 -0.16596256 0.49978191 0.0039709965 184 5
-0.27179196 -0.16665496 0.50071746 0.0040148636 176 2
-0.27042568 -0.16734862 0.5016911 0.0035753311 176 2
-0.26884842 -0.16792345 0.50234663 0.0032745602 206 11
-0.26672521 -0.16816486 0.50204831 0.0039410107 185 5
-0.26379412 -0.1678967 0.50027949 0.0034395454 190 6
-0.26244637 -0.16864078 0.50157702 0.0036507647 199 9
-0.26013318 -0.16877289 0.50110453 0.0031577838 212 13
-0.25856012 -0.1693925 0.50213289 0.0030359363 220 15
-0.25653684 -0.16972648 0.50236928 0.003090746 225 17
-0.25453582 -0.17008194 0.50272775 0.0031489208 216 14
-0.25284943 -0.17065695 0.50379503 0.0030956441 216 14
-0.25113997 -0.17122796 0.50491208 0.0044109137 172 1
-0.24946511 -0.17183451 0.50619787 0.0031936455 234 19
-0.24658418 -0.17161427 0.50511664 0.0031983261 248 23
-0.24363171 -0.17133912 0.50394601 0.0030807219 258 26
-0.24075371 -0.17111106 0.50298721 0.0028232154 260 27
-0.2384602 -0.17129797 0.50332201 0.0029055844 276 32
-0.23636129 -0.17163023 0.50415784 0.0027181443 291 36
-0.23416348 -0.17189717 0.50487649 0.0025366477 292 36
-0.23113281 -0.17155188 0.50387251 0.0024736987 305 40
-0.22832188 -0.17136376 0.50340515 0.0023571439 341 51
-0.22552423 -0.17118144 0.50302947 0.0023102318 371 60
-0.22394373 -0.17192942 0.50546169 0.0022830116 347 53
-0.22124575 -0.17182684 0.50546664 0.0021901866 354 55
-0.2181683 -0.17142369 0.50465673 0.0021909704 358 56
-0.21514344 -0.17105283 0.50400794 0.0022771398 387 64
-0.21237814 -0.17088187 0.50401163 0.002077579 426 76
-0.20994452 -0.17097688 0.50486118 0.0020099818 417 73
-0.20738341 -0.17096911 0.50546551 0.0019031155 444 81
-0.20447664 -0.17067266 0.50526911 0.0020324185 451 83
-0.20208639 -0.17080529 0.50639206 0.0019226951 455 84
-0.19852133 -0.1699356 0.50458527 0.0018454089 469 88
-0.19558063 -0.16958487 0.50435412 0.0018985952 464 87
-0.19278228 -0.16934994 0.50450015 0.0017681085 502 98
-0.19044016 -0.16951488 0.50586802 0.0016834941 531 107
-0.18698719 -0.16868214 0.50428134 0.0016849028 521 104
-0.18408729 -0.16833244 0.50415391 0.0017210718 511 101
-0.18170035 -0.16844857 0.50543767 0.0016726423 532 107
-0.17921728 -0.16847764 0.50647402 0.0018326079 535 108
-0.176247 -0.16804299 0.50612319 0.0016158273 563 116
-0.17348219 -0.1677945 0.50633454 0.001656264 562 116
-0.17072742 -0.1675486 0.50655288 0.0017190346 547 111
-0.1679257 -0.16724864 0.50660342 0.0016841376 541 110
-0.16520883 -0.16702537 0.50687927 0.0016733789 534 108
-0.16251275 -0.16681665 0.50719023 0.0018846948 520 103
-0.15980281 -0.16658698 0.50742608 0.0016976226 566 117
-0.15650983 -0.16573262 0.50574213 0.0016229643 562 116
-0.15429512 -0.16601098 0.50749886 0.0016766469 595 126
-0.15174821 -0.16593519 0.5081597 0.0016282697 558 115
-0.14916733 -0.16581909 0.50868052 0.0016303798 545 111
-0.14653546 -0.16564147 0.50899434 0.001618541 555 114
-0.1439271 -0.16548476 0.50935286 0.0016481152 567 117
-0.14064705 -0.16453683 0.5072521 0.0015858897 583 122
-0.13799056 -0.16429761 0.50731134 0.0016539581 583 122
-0.13555868 -0.16432199 0.50816399 0.001545049 609 130
-0.13297087 -0.16415486 0.50840354 0.0015678725 604 128
-0.13017251 -0.16371657 0.50778061 0.0015857893 583 122
-0.1276975 -0.16367598 0.50836861 0.0015675916 593 125
-0.12529157 -0.16372406 0.50921172 0.0015984409 571 118
-0.12264364 -0.16345155 0.5090363 0.0016040973 573 119
-0.12011164 -0.16332564 0.50929534 0.0015922853 577 120
-0.11755698 -0.16316304 0.50941873 0.0016237553 571 118
-0.11505466 -0.16306771 0.50973105 0.0016042351 567 117
-0.11265146 -0.16311184 0.51045913 0.001607981 567 117
-0.10992208 -0.16267519 0.50966161 0.0016352027 562 116
-0.10745508 -0.16261585 0.51002526 0.0015584781 599 127
-0.10481539 -0.16228643 0.50952131 0.0016501317 558 115
-0.10212798 -0.16186577 0.50870991 0.001578418 585 123
-0.099616185 -0.16170983 0.50871027 0.0015640558 600 127
-0.097309075 -0.16188663 0.50973946 0.0017967273 531 107
-0.09472207 -0.16159497 0.50927556 0.0016763693 530 106
-0.092498705 -0.1619246 0.51075274 0.0016537037 580 121
-0.090089463 -0.16193783 0.51121563 0.0016120176 577 120
-0.087402821 -0.16143942 0.51004571 0.0016072246 567 117
-0.085120849 -0.1616814 0.51119816 0.0016766472 536 108
-0.082770117 -0.16180305 0.51195526 0.0017716346 552 113
-0.080349401 -0.1617911 0.51227432 0.001776556 540 109
-0.077809013 -0.16153 0.51178902 0.0015805886 595 126
-0.075301617 -0.16132288 0.51145911 0.0016165209 560 115
-0.073044293 -0.16165549 0.51282626 0.0015977753 573 119
-0.070636012 -0.16166534 0.51315629 0.00166509 547 111
-0.068155847 -0.16150552 0.51293391 0.0016237325 562 116
-0.065801181 -0.16164233 0.51364022 0.0017625897 578 121
-0.063321553 -0.16147086 0.513354 0.0017664763 552 113
-0.060883388 -0.16139574 0.51336122 0.0016803024 587 123
-0.058478788 -0.16140708 0.51363105 0.0015879412 581 121
-0.056059644 -0.16137752 0.51375884 0.0016768682 534 108
-0.053522315 -0.16098984 0.51273417 0.0016222894 581 121
-0.051154569 -0.16109975 0.51328272 0.0016165453 560 115
-0.048830494 -0.16136484 0.51431501 0.0016549698 548 112
-0.046431579 -0.16139726 0.51459539 0.0016558798 563 116
-0.043982267 -0.16124851 0.51428729 0.0016279827 560 115
-0.041582737 -0.16127558 0.51452965 0.0017137758 546 111
-0.039219882 -0.16145694 0.51525438 0.0016315663 556 114
-0.036816042 -0.1614823 0.51547158 0.001745321 551 113
-0.034425598 -0.16157408 0.51589119 0.001705443 536 108
-0.031874888 -0.16087085 0.51376253 0.0017122267 521 104
-0.029578663 -0.16144204 0.51569462 0.0017012276 529 106
-0.027226156 -0.16178007 0.51687342 0.0017282851 500 98
-0.024819359 -0.16182993 0.51712281 0.0017932898 533 107
-0.02236825 -0.16157049 0.51637483 0.0018117545 534 108
-0.019970702 -0.16168194 0.51680356 0.0018159212 532 107
-0.017575335 -0.16184413 0.51738596 0.0017398936 502 98
-0.015161645 -0.16186236 0.51749986 0.0018175009 510 100
-0.012740482 -0.16179264 0.51732403 0.0016679133 541 110
-0.010337308 -0.16197218 0.51793712 0.0017725955 512 101
-0.0079244841 -0.16206393 0.51826119 0.0016861995 527 106
-0.0055020819 -0.16195439 0.51793343 0.0016936846 528 106
-0.0030808856 -0.16173644 0.51725084 0.0017049578 526 105
-0.0006649773 -0.16122347 0.51561666 0.0016988069 542 110
0.001741393 -0.16124511 0.51568395 0.0017297214 531 107
0.0041699046 -0.16210236 0.51841569 0.0017058883 519 103
0.0065958784 -0.16226766 0.51892632 0.0017782009 494 96
0.0090140318 -0.16220348 0.51869476 0.001695678 521 104
0.011415576 -0.16193086 0.51778853 0.0016612996 546 111
0.013813678 -0.16171321 0.51705009 0.0017219913 519 103
0.016236631 -0.16180795 0.5173021 0.0016648269 537 108
0.018667372 -0.16194573 0.51768321 0.0018572756 498 97
0.021101229 -0.16207583 0.51803112 0.0017120889 512 101
0.023542818 -0.16223247 0.51845521 0.0017000682 526 105
0.025987141 -0.16237698 0.51883161 0.0017315481 513 101
0.028400313 -0.16231881 0.51855129 0.0017264844 513 101
0.030824369 -0.1623271 0.5184744 0.0017524699 498 97
0.033285189 -0.16251367 0.51895756 0.0017660859 488 94
0.035675917 -0.16235591 0.51833177 0.0017480266 513 101
0.038247932 -0.16299076 0.52022642 0.0017027992 526 105
0.040614251 -0.16272555 0.51923829 0.0018037055 521 104
0.043070544 -0.16283043 0.51942098 0.0017535872 531 107
0.045636326 -0.16331591 0.52080709 0.0018181331 513 101
0.048150867 -0.16357808 0.52146971 0.0018315994 517 103
0.050566368 -0.16349475 0.52101994 0.0016764263 529 106
0.053005457 -0.16349183 0.52081549 0.0016573315 545 111
0.055416204 -0.16340561 0.52033436 0.0017398456 507 100
0.057878178 -0.16347133 0.52032548 0.0018656155 530 106
0.06039872 -0.16369046 0.52079272 0.0017441151 546 111
0.062882014 -0.16379555 0.52088434 0.001691583 524 105
0.065436155 -0.16407038 0.52150261 0.0019259674 512 101
0.067983836 -0.16430978 0.52199447 0.0017524827 501 98
0.070550643 -0.16457716 0.52256101 0.001931333 486 93
0.072959803 -0.16447113 0.52192813 0.0018792772 505 99
0.075307004 -0.16423689 0.52087498 0.0017518202 513 101
0.077815905 -0.16435896 0.5209378 0.0017132983 520 103
0.080301888 -0.16442662 0.52081311 0.0016851689 523 104
0.082806334 -0.164527 0.52077651 0.0017599586 524 105
0.085492283 -0.16497181 0.52181345 0.0018879442 494 96
0.088003002 -0.16506302 0.52171493 0.001691372 534 108
0.090521649 -0.16516376 0.52162969 0.0018304678 503 98
0.092885599 -0.16498438 0.52064335 0.0017626275 515 102
0.095757365 -0.16569296 0.52244067 0.0017758196 486 93
0.098276481 -0.16577101 0.52223033 0.0019425786 474 90
0.100697 -0.16568299 0.52147901 0.0018430059 501 98
0.10336979 -0.16600434 0.52199715 0.001907607 500 98
0.10608238 -0.16637307 0.52264363 0.0018684701 512 101
0.10846907 -0.16622546 0.52164841 0.0018318908 498 97
0.11096383 -0.16624643 0.52116328 0.0017441388 500 98
0.11412526 -0.16724341 0.52371472 0.0017362137 505 99
0.11679569 -0.16749357 0.52390331 0.0017763966 512 101
0.11870296 -0.16666178 0.52068937 0.0017496416 506 99
0.1217698 -0.16745877 0.52254385 0.0017262799 516 102
0.12392748 -0.16699855 0.52045327 0.0018628037 521 104
0.12687422 -0.16759883 0.5216465 0.0017587433 511 101
0.12955783 -0.16783501 0.52168208 0.0017664222 535 108
0.13285495 -0.16884196 0.52408707 0.0018333452 512 101
0.13511242 -0.16851473 0.52232689 0.0017131136 513 101
0.13794203 -0.1689 0.52275413 0.0017290503 513 101
0.14095502 -0.16949195 0.5237959 0.0017237563 526 105
0.14360295 -0.16963181 0.52341658 0.0017032729 523 104
0.14670865 -0.17029819 0.52463806 0.0016835318 533 107
0.1494367 -0.17051093 0.52443832 0.0018676574 504 99
0.15196455 -0.17049195 0.52350616 0.0017292767 511 101
0.15474096 -0.17074792 0.52339911 0.0016825272 528 106
0.15770689 -0.17120133 0.52387679 0.001805475 528 106
0.16051483 -0.17147148 0.52377427 0.0016972973 524 105
0.16337021 -0.17178303 0.523781 0.0016803548 533 107
0.16603193 -0.17188448 0.52313256 0.0017133831 518 103
0.17016309 -0.17348094 0.52701402 0.0017375796 515 102
0.17263225 -0.17336053 0.52566355 0.0017788974 492 95
0.17519376 -0.17333503 0.52459598 0.0019479892 485 93
0.17798933 -0.17353848 0.52421725 0.0017211096 502 98
0.18094747 -0.17389233 0.52428997 0.0016917004 524 105
0.18429624 -0.17460625 0.52544588 0.0017560773 494 96
0.18714717 -0.17483521 0.52514416 0.0018757479 511 101
0.19006191 -0.17511667 0.52500844 0.0017698915 486 93
0.19355275 -0.17591405 0.52642912 0.0018677739 469 88
0.19665375 -0.17634057 0.52675331 0.0018863799 442 80
0.19961175 -0.17662925 0.52668661 0.0019227689 432 78
0.20240581 -0.17676723 0.52619785 0.0019930326 420 74
0.20502645 -0.17675216 0.52528733 0.0019820302 422 75
0.20796725 -0.17700998 0.52522612 0.0019319684 425 75
0.21170075 -0.17792758 0.52716142 0.0019628159 414 72
0.21452956 -0.17807148 0.52684903 0.0022519624 404 69
0.21797992 -0.17872149 0.5280847 0.0022287162 378 62
0.22101359 -0.17901824 0.52833146 0.002377931 373 60
0.2240748 -0.17932996 0.52868271 0.0021907755 356 55
0.22715679 -0.17965075 0.52912515 0.0022142511 347 53
0.22974886 -0.17958114 0.52848643 0.0023482712 319 44
0.23214902 -0.17936483 0.52748895 0.0022838968 339 50
0.23487122 -0.17939946 0.52730435 0.0023938657 312 42
0.23834857 -0.18000361 0.52886915 0.0025553999 290 36
0.24156787 -0.18040155 0.52990508 0.0027168225 263 28
0.2438449 -0.18009479 0.52894968 0.0030042564 271 30
0.24559376 -0.17940889 0.52695984 0.0027304511 264 28
0.25038254 -0.18093458 0.5315454 0.0028251999 239 21
