# .PCD v0.7 - Point Cloud Data file format
VERSION 0.7
FIELDS x y z noise intensity gray
SIZE 4 4 4 4 2 1
TYPE F F F F U U
COUNT 1 1 1 1 1 1
WIDTH 865
HEIGHT 1
VIEWPOINT 0 0 0 1 0 0 0
POINTS 865
DATA ascii
-0.18493463 0.094544426 0.50379956 0.0014777557 733 151
-0.1819063 0.09423165 0.50314581 0.0014554185 751 156
-0.17911695 0.094035901 0.50308365 0.0013731193 725 149
-0.17631273 0.09382692 0.50291795 0.0013995874 712 145
-0.17354354 0.093631029 0.50278962 0.0013526197 742 154
-0.17094366 0.093522295 0.5030973 0.001415202 785 166
-0.16833587 0.093406066 0.50333345 0.0014858432 689 138
-0.16582051 0.093338504 0.50380117 0.0014129751 711 145
-0.1630757 0.093137927 0.50351965 0.0013823364 729 150
-0.16039334 0.092967562 0.50336963 0.0014767332 715 146
-0.15770951 0.092791207 0.50315595 0.001475915 715 146
-0.15519556 0.092710949 0.50343347 0.0013914609 712 145
-0.15254109 0.092542909 0.503205 0.0014365679 684 137
-0.14993352 0.092398502 0.50307572 0.0014155802 701 142
-0.14745584 0.092330761 0.50333601 0.0013945618 716 146
-0.14504509 0.09230341 0.50379002 0.0014008838 699 141
-0.14219612 0.091991633 0.50266415 0.0013938055 714 146
-0.1397377 0.091926277 0.50285763 0.001478012 657 129
-0.13746998 0.091986284 0.50371289 0.0014810334 653 128
-0.13502787 0.091929674 0.50390613 0.0014102546 693 140
-0.13264412 0.09191145 0.50428653 0.0014510372 666 132
-0.12940133 0.09128657 0.50131303 0.0014418376 681 136
-0.12762959 0.091695562 0.50399452 0.0015091439 701 142
-0.12525421 0.091678068 0.50431281 0.0014109281 697 141
-0.12253314 0.091402031 0.50318748 0.0014618586 719 147
-0.12025475 0.091451883 0.50383556 0.0015133112 685 137
-0.118 0.09152206 0.50457704 0.0015717041 665 132
-0.11571208 0.091568843 0.50517172 0.0015435426 652 128
-0.11306953 0.091331109 0.50417829 0.0015092216 638 124
-0.11074005 0.091341533 0.50453687 0.0014959832 644 126
-0.10834372 0.091296092 0.50457025 0.0015310282 654 128
-0.10572839 0.09106002 0.50353324 0.0015406788 678 135
-0.10332642 0.091001198 0.50346029 0.0014378118 685 137
-0.10087442 0.090894572 0.50310761 0.0014466738 680 136
-0.098443568 0.090802416 0.50282055 0.0014407315 685 137
-0.096093513 0.090782113 0.50291747 0.0014037506 710 144
-0.09373001 0.090747789 0.50292361 0.0013925905 716 146
-0.091254734 0.090600744 0.50229216 0.0014974303 694 140
-0.088373095 0.090032041 0.49930978 0.0014828764 729 150
-0.08564619 0.089594662 0.4970426 0.0012267849 891 196
-0.083519854 0.089778766 0.49821183 0.0012287658 962 217
-0.081197083 0.089756161 0.49822411 0.0011356475 1013 231
-0.079238273 0.090146303 0.5005182 0.0011639596 1016 232
-0.076600015 0.089763679 0.4985123 0.001156406 1047 241
-0.073074587 0.088285506 0.49041098 0.0012785678 913 203
-0.068570763 0.085492961 0.4749954 0.0012325697 933 208
-0.066452064 0.085587896 0.47561193 0.0011582028 978 221
-0.064387299 0.085761175 0.47665688 0.0011609795 975 220
-0.062292486 0.085905261 0.47753319 0.0011746144 968 218
-0.060160317 0.086006507 0.47816512 0.0011572846 981 222
-0.058092948 0.086211622 0.47936875 0.0011418464 993 226
-0.055853419 0.086167365 0.47918019 0.0011983989 978 221
-0.053642638 0.086165644 0.47922292 0.0012268468 976 221
-0.051549442 0.08636076 0.48035553 0.0012181324 951 214
-0.049686424 0.086976327 0.48382258 0.0012923457 895 197
-0.047668908 0.087366603 0.48603252 0.0013145015 844 183
-0.045908101 0.08828906 0.49119964 0.0013740036 737 152
-0.04435277 0.089722894 0.49920902 0.0013630164 752 157
-0.042088401 0.089800797 0.4996711 0.0011453821 1002 228
-0.03979896 0.089831159 0.49986547 0.0011009736 1058 244
-0.037521254 0.089893349 0.50023407 0.0011116103 1042 240
-0.035210248 0.089878686 0.50017226 0.0011205204 1041 239
-0.032894887 0.089850061 0.50003034 0.0011429247 1032 237
-0.030493999 0.089565925 0.49846408 0.0011537463 977 221
-0.02810299 0.089266889 0.49681291 0.0012243424 959 216
-0.025773395 0.089127168 0.49604657 0.0011700003 963 217
-0.023457846 0.089013562 0.49542388 0.0011967387 941 211
-0.021152778 0.088919528 0.49490872 0.0011881504 981 222
-0.018828893 0.08871413 0.49377242 0.00115898 967 218
-0.016524991 0.088559322 0.49291658 0.0011653955 968 218
-0.014251155 0.088542014 0.49282503 0.0012712614 927 207
-0.012014709 0.088794477 0.49423409 0.001273404 854 186
-0.0097630527 0.089026295 0.49552748 0.0013778805 768 161
-0.0075341347 0.089670278 0.4991143 0.0014844881 721 148
-0.0052382508 0.089732885 0.49946448 0.0015759624 666 132
-0.0029359595 0.089697875 0.49927065 0.0012852979 831 179
-0.00063552184 0.089670934 0.49912116 0.0012047181 919 204
0.0016637148 0.089653723 0.49902523 0.0011687011 954 214
0.0039651934 0.089707196 0.49932224 0.0011842049 979 222
0.0062687555 0.089751236 0.49956599 0.0011438659 986 224
0.0085721072 0.08976943 0.49966523 0.0012252632 969 219
0.010872708 0.089757189 0.49959445 0.0011652674 958 216
0.013190326 0.089865178 0.50019205 0.0012432511 913 203
0.015504565 0.089921445 0.50050086 0.001243174 930 208
0.017744487 0.089587927 0.49863929 0.0011697871 956 215
0.020103712 0.089864172 0.50017053 0.0012786265 871 191
0.022397187 0.089819901 0.49991652 0.0012394243 862 188
0.024681695 0.089751311 0.49952579 0.0012377363 885 195
0.026987735 0.089766003 0.49959722 0.0012272361 880 193
0.029313266 0.089838155 0.49998662 0.0012845349 855 186
0.031630132 0.089875154 0.50017858 0.001291473 838 181
0.033927087 0.089854382 0.50004685 0.0013025758 904 200
0.036199745 0.089776009 0.49959236 0.0012129321 903 200
0.038500026 0.089771412 0.49954584 0.0011895465 936 209
0.040828992 0.089830458 0.4998506 0.0013040984 866 189
0.04297388 0.089499816 0.49798405 0.0012471421 922 205
0.045305956 0.089572787 0.49835995 0.0013151304 851 185
0.047596622 0.089560792 0.49825948 0.001364182 804 171
0.049925614 0.089618705 0.49854395 0.001282634 851 185
0.052397151 0.089916132 0.50015646 0.0013757285 792 168
0.054397631 0.089414187 0.49731791 0.0012997675 803 171
0.056601502 0.089273661 0.49648502 0.0013312144 823 177
0.059175421 0.089705035 0.49882722 0.0012834438 811 173
0.06162351 0.089920476 0.49996263 0.0013259536 794 169
0.063831009 0.089782007 0.49912405 0.0012797646 816 175
0.06597615 0.089568496 0.49786213 0.0012859483 821 176
0.06838572 0.089716271 0.49860168 0.0012917366 817 175
0.07081221 0.089875907 0.49939951 0.0013174051 796 169
0.073202357 0.089980789 0.49988526 0.0013125992 782 165
0.075162746 0.089567155 0.49748248 0.0013486573 796 169
0.07758265 0.089709394 0.49815893 0.0013329382 775 163
0.079971075 0.089808092 0.49858427 0.0014296292 761 159
0.082236931 0.089767464 0.49822658 0.0013863547 716 146
0.084557727 0.089787394 0.49819478 0.0013258689 787 167
0.086875983 0.089803636 0.49813217 0.0013291638 773 163
0.08908169 0.089705706 0.49742532 0.001325438 778 164
0.0913665 0.08969035 0.49716514 0.0012866036 807 172
0.093809105 0.089826852 0.49773443 0.001366647 804 171
0.096278474 0.089981824 0.49839273 0.0014004091 754 157
0.098721765 0.090105735 0.49886537 0.0014291342 745 155
0.10110115 0.090166986 0.49897695 0.0013983491 702 142
0.10310966 0.089902133 0.49727011 0.0013568994 770 162
0.10557518 0.090038612 0.49776873 0.0014259011 742 154
0.10800545 0.090139829 0.49805632 0.0013471312 749 156
0.11025637 0.090090267 0.49749458 0.0013623955 782 165
0.11264154 0.090150185 0.49752092 0.0012875771 817 175
0.11489206 0.090102091 0.49693385 0.0013356891 791 168
0.11736095 0.090223767 0.4972651 0.0013424958 762 159
0.11947564 0.090073712 0.49608055 0.001350179 792 168
0.12188181 0.090144917 0.49609584 0.0013102066 787 167
0.12446111 0.090339154 0.49676743 0.0013823728 788 167
0.12723231 0.090663023 0.49812922 0.0013710768 730 150
0.12951626 0.090634294 0.49753165 0.0013846055 750 156
0.1308948 0.089984149 0.49350452 0.0013096838 798 170
0.13412826 0.090609625 0.49645135 0.0014243191 772 162
0.13592061 0.090256833 0.49401411 0.001269541 845 183
0.139227 0.090904407 0.49702716 0.0012626479 837 181
0.14158632 0.090922475 0.49657044 0.0012688122 838 181
0.14402398 0.090989456 0.49635568 0.0014013505 762 159
0.14642908 0.091034047 0.49599278 0.001289604 811 173
0.14871018 0.091001354 0.49518311 0.001263935 842 182
0.15114999 0.091065302 0.49487278 0.0013095817 787 167
0.15371269 0.09120021 0.49491978 0.0012552504 843 183
0.1567727 0.091621727 0.49649063 0.0013209044 801 171
0.15931274 0.091731392 0.49633965 0.0012766446 823 177
0.16161343 0.091702044 0.49540764 0.0012991475 859 187
0.16353825 0.091463335 0.49331886 0.0012342586 869 190
0.1658583 0.091449283 0.49241537 0.0011858807 929 207
0.16909841 0.091935866 0.49417475 0.0012214668 923 206
0.17195357 0.092202634 0.49471685 0.0012704578 910 202
0.17414577 0.092111506 0.49330857 0.0012002478 925 206
0.17737776 0.092565432 0.49478734 0.0012442096 917 204
0.17982675 0.092604175 0.49401408 0.0012309172 911 202
0.18219884 0.092602797 0.49299946 0.0012485276 926 206
0.18515997 0.092897013 0.49352902 0.0012234608 889 196
0.18765235 0.092951536 0.49275649 0.0012757216 901 199
0.19059716 0.093225993 0.49312264 0.0011867024 924 206
0.19374292 0.093590729 0.49393705 0.0011995574 932 208
0.19619472 0.09361542 0.49293277 0.0011754476 947 212
0.19909501 0.093850896 0.49301836 0.0012235368 943 211
0.20197232 0.094070069 0.49299884 0.001223783 951 214
0.20474996 0.094238192 0.49269655 0.0011695836 940 210
0.20744134 0.094363153 0.49215877 0.0013249704 877 192
0.21063562 0.094711348 0.49277744 0.0012640136 844 183
0.21335985 0.094842672 0.49226519 0.0012900667 828 178
0.21632165 0.095075443 0.49228379 0.0013467295 787 167
0.21957774 0.095430933 0.49294564 0.00138438 756 158
0.22250025 0.095635198 0.49284112 0.0014005775 757 158
0.22522931 0.095752768 0.49231467 0.0014172391 756 158
0.22780088 0.095801577 0.49146882 0.0013567037 738 153
0.23100764 0.096113622 0.49201256 0.0015176239 701 142
0.2340665 0.096358187 0.49225605 0.001476672 649 127
0.23676509 0.09645088 0.49177867 0.0015009932 634 123
0.23935565 0.096498102 0.49113375 0.0015006477 632 122
0.24243522 0.096739493 0.49154711 0.001615449 619 118
0.24527787 0.096882403 0.49153578 0.001550815 601 113
0.24801497 0.096981183 0.4913834 0.0016610404 586 109
0.25065678 0.097041115 0.49112228 0.0017324717 547 98
0.2539461 0.097348079 0.49220312 0.0018272805 526 92
0.25654897 0.097388476 0.49203107 0.0019624687 485 80
0.25850251 0.097184002 0.49072117 0.0019198082 484 80
0.25988621 0.096771218 0.48846063 0.0020550441 451 70
-0.29903996 0.10111968 0.50486153 0.0030270265 226 6
-0.29790598 0.10159519 0.50619167 0.0028812492 239 10
-0.29649073 0.10198215 0.50713986 0.0030646892 256 14
-0.29367408 0.10188957 0.50577229 0.0028528017 249 12
-0.2897009 0.10139065 0.50246733 0.0029702443 265 17
-0.28831396 0.10179602 0.50372314 0.0026427854 267 18
-0.28638268 0.10201472 0.50413233 0.0027452081 284 22
-0.2844429 0.1022343 0.5046286 0.0028037461 300 27
-0.28193465 0.10225168 0.50421423 0.0026206071 309 30
-0.27926826 0.10221151 0.50360799 0.002359746 314 31
-0.27694011 0.10229553 0.50370824 0.002316945 329 35
-0.27538449 0.10266913 0.5053305 0.0021950766 348 41
-0.27250394 0.10255117 0.50463247 0.002233227 369 47
-0.26989654 0.10253471 0.50453526 0.002317461 378 49
-0.26780987 0.10271768 0.50552166 0.0022500304 338 38
-0.26527619 0.10273106 0.50577623 0.0024762657 291 24
-0.26235905 0.10259477 0.50539565 0.0022508935 379 50
-0.25932404 0.10240924 0.50487196 0.0019289856 427 63
-0.25572339 0.1019944 0.5033133 0.0020159797 454 71
-0.25309581 0.10196322 0.50374049 0.0017911688 480 79
-0.25059339 0.10198236 0.50450671 0.0018932223 490 81
-0.24742934 0.10172984 0.50401312 0.0017170721 509 87
-0.24426045 0.10147006 0.50355947 0.0017008176 511 87
-0.2414044 0.10133617 0.50380033 0.001656148 533 94
-0.23854472 0.10119789 0.5040834 0.0015989932 568 104
-0.23512635 0.10081709 0.50321239 0.001691499 577 106
-0.23233221 0.1006986 0.50369674 0.0015931537 577 106
-0.22905837 0.10036731 0.50315559 0.0015776705 584 108
-0.22658946 0.10038529 0.50439817 0.0015761546 580 107
-0.22354887 0.10014758 0.50438213 0.0015148949 622 119
-0.22046889 0.099886619 0.50426495 0.0015053484 630 122
-0.21714982 0.099510126 0.50357193 0.0014940944 644 126
-0.21353367 0.098987184 0.50213587 0.0014326187 693 140
-0.21080026 0.098865986 0.50273311 0.0015979001 642 125
-0.20799914 0.098709784 0.50314718 0.0014601318 667 132
-0.20515893 0.09853106 0.50343597 0.0015470287 694 140
-0.20214912 0.098265551 0.50326532 0.0014713318 694 140
-0.1992096 0.098028079 0.50321829 0.0013631192 737 152
-0.19634308 0.097821057 0.50330538 0.0014318484 747 155
-0.19353682 0.097639233 0.50349778 0.001303354 793 168
-0.19068265 0.097428262 0.50351363 0.0013916647 773 163
-0.18766648 0.097128004 0.50303841 0.0014603082 734 151
-0.18460424 0.096795715 0.50236547 0.0013774527 757 158
-0.18190424 0.096647061 0.5026139 0.0013948753 708 144
-0.17923714 0.096512109 0.50290346 0.001468478 756 158
-0.17643246 0.096298404 0.50275123 0.0013427887 767 161
-0.17367822 0.096106663 0.5026812 0.0014065447 736 152
-0.17092648 0.095910959 0.50255817 0.0014014828 714 146
-0.16846748 0.095876291 0.50324804 0.0014411049 693 140
-0.16585883 0.095754236 0.50344884 0.0015156642 695 140
-0.16306232 0.095518544 0.50302041 0.0013984129 708 144
-0.16037151 0.095338695 0.50285411 0.0014027597 701 142
-0.15773778 0.095187835 0.50280976 0.0014286938 707 144
-0.15523916 0.095115162 0.50314885 0.0014838086 709 144
-0.15273519 0.095036909 0.50342983 0.0014132811 707 144
-0.14989816 0.094745629 0.50255287 0.0015428064 670 133
-0.14762971 0.094810188 0.50353521 0.0015170124 662 131
-0.14520997 0.094778083 0.50397849 0.0014908923 652 128
-0.14209041 0.094280563 0.50191826 0.0014788888 695 140
-0.13977115 0.094306253 0.50261587 0.0014133444 702 142
-0.13747685 0.094349913 0.50338554 0.0015383426 700 142
-0.13500729 0.09427277 0.50348687 0.0013775717 731 150
-0.13196836 0.093788221 0.50138664 0.0013891801 721 148
-0.13036951 0.094328083 0.50474066 0.0015021446 652 128
-0.12723896 0.093759187 0.50214022 0.0014406295 680 136
-0.12502049 0.093853615 0.50306916 0.0015417754 665 132
-0.12278193 0.093936317 0.50391561 0.0014652463 676 135
-0.12037736 0.093892746 0.50406504 0.001463608 670 133
-0.11782131 0.093726948 0.50353843 0.0014750098 651 128
-0.115243 0.093536332 0.50285864 0.00144119 675 134
-0.11298564 0.093603723 0.50354773 0.0016211316 629 121
-0.1106827 0.09363541 0.50402766 0.0014660095 662 131
-0.10839378 0.093680583 0.50456381 0.0014562721 672 134
-0.10595084 0.09359169 0.50436169 0.0014784862 647 126
-0.1034485 0.093445137 0.50383282 0.0015912068 668 132
-0.10100684 0.093347877 0.50355411 0.0014725998 652 128
-0.098535359 0.093217812 0.50308365 0.0014149116 704 143
-0.096090153 0.093106903 0.50270212 0.0014566357 681 136
-0.09368106 0.093026347 0.50247097 0.0014143523 704 143
-0.09113051 0.092797644 0.50142652 0.0013831032 724 148
-0.088754736 0.092739627 0.50129151 0.00137358 730 150
-0.085422657 0.091652416 0.4955799 0.0012179191 897 198
-0.083593942 0.092162766 0.49849454 0.0012112146 997 227
-0.081543267 0.092450388 0.50019526 0.0011241621 1013 231
-0.079320706 0.092554227 0.50089234 0.0011965197 1006 229
-0.076758951 0.092256643 0.49940717 0.0011152157 1037 238
-0.074229613 0.09198077 0.49802977 0.0011783615 941 211
-0.068638511 0.087772012 0.475344 0.0011899647 924 206
-0.06631577 0.087602712 0.47452167 0.0011857192 1003 228
-0.064257525 0.08778318 0.47558671 0.0011441316 1000 228
-0.062275976 0.088084891 0.4773021 0.0011568491 983 223
-0.060168147 0.088223569 0.47812796 0.0011682214 959 216
-0.058009677 0.088295713 0.47858721 0.001131432 1017 232
-0.055860307 0.088387966 0.47914976 0.001188886 957 215
-0.053640116 0.08837115 0.47911561 0.001259182 957 215
-0.051487096 0.088468298 0.4796944 0.0012407169 931 208
-0.049714692 0.089257531 0.48402134 0.0012123097 904 200
-0.047624227 0.089523062 0.48550457 0.0012889808 807 172
-0.045981575 0.090698101 0.49191663 0.0014143983 702 142
-0.044402812 0.092127591 0.499706 0.001438977 787 167
-0.042088028 0.09210287 0.49960437 0.0011293053 1020 233
-0.039753988 0.092030719 0.49924201 0.0010982223 1065 246
-0.037525866 0.092209935 0.50024027 0.0011320538 1015 232
-0.035231609 0.092239484 0.50042355 0.0011533173 978 221
-0.032772552 0.091811486 0.49812198 0.0012066078 966 218
-0.030396124 0.091567934 0.49681848 0.0011962723 974 220
-0.028068738 0.091444485 0.49616432 0.0011661004 955 215
-0.02570116 0.091156572 0.49461582 0.0011773534 954 214
-0.023450809 0.091268875 0.49523705 0.0011773064 942 211
-0.021171911 0.091282308 0.49532017 0.0011749391 947 212
-0.018816836 0.090930864 0.49342194 0.0012277717 911 202
-0.016536318 0.090892628 0.49322185 0.0012898957 874 191
-0.014288249 0.091049001 0.49407652 0.0013449212 804 171
-0.012074891 0.09152773 0.49667948 0.0014978953 708 144
-0.0098295994 0.091931701 0.49887577 0.0014864458 664 131
-0.0075302701 0.091922633 0.49882978 0.0013729916 756 158
-0.0052312827 0.091911599 0.49877217 0.0012465747 858 187
-0.0029315131 0.091858782 0.49848694 0.0012214071 928 207
-0.00063533528 0.091943488 0.49894723 0.0011835132 929 207
0.0016655315 0.092053242 0.49954265 0.0012354819 935 209
0.0039676474 0.092064627 0.49960348 0.0012115195 971 219
0.0062691285 0.092058323 0.49956748 0.0012308335 914 203
0.008570631 0.092055649 0.49955028 0.0012295137 924 206
0.010874989 0.092078269 0.49966943 0.0012062876 896 198
0.013176116 0.092070416 0.49962223 0.0012282294 888 195
0.015502278 0.092213817 0.50039482 0.0012625275 882 194
0.017773239 0.092034243 0.49941343 0.0012050128 898 198
0.020091353 0.092112012 0.49982736 0.0012334934 902 199
0.022399941 0.09213461 0.49994045 0.0012611925 878 193
0.024687778 0.092075586 0.4996092 0.0012488132 855 186
0.026978021 0.092034854 0.49937549 0.0012854941 841 182
0.029252145 0.091949865 0.49889967 0.0013260536 855 186
0.031542916 0.091925748 0.49875212 0.0013522982 825 177
0.033868819 0.092000365 0.49913791 0.001320325 797 169
0.036232077 0.092160493 0.4999851 0.0012766767 831 179
0.038529675 0.092144452 0.49987376 0.001338231 850 185
0.040773049 0.092007853 0.49910542 0.0012627576 842 182
0.042931117 0.091703631 0.49742463 0.0012379132 884 194
0.045250896 0.091758169 0.49768654 0.0012532945 876 192
0.047597144 0.091858536 0.49819297 0.0013549278 792 168
0.05001466 0.092080854 0.49935669 0.0012803151 812 174
0.052126873 0.091746263 0.49749589 0.0013101706 790 167
0.054322373 0.091580279 0.49654478 0.0013695259 797 169
0.056732632 0.091775157 0.49754506 0.0013722345 814 174
0.058996659 0.091727518 0.49722511 0.0013018494 795 169
0.061395649 0.09188541 0.49801335 0.0013730499 815 175
0.063845612 0.092105463 0.49913192 0.0012615271 841 182
0.066136941 0.09208931 0.49896383 0.0014249695 782 165
0.068340518 0.091956161 0.49815488 0.0013964602 797 169
0.070767224 0.092122145 0.49895886 0.0013403059 796 169
0.073121823 0.092186756 0.49920565 0.0014173232 782 165
0.075470753 0.092240497 0.49938518 0.0013319127 760 159
0.077799127 0.092266671 0.49940655 0.0013064626 795 169
0.080022313 0.092170186 0.49875489 0.0014334669 771 162
0.082241535 0.092074648 0.498099 0.0014413132 761 159
0.084606893 0.092143483 0.49832219 0.0013898936 749 156
0.08677879 0.092003539 0.49740577 0.0013625701 759 159
0.088930212 0.091849692 0.4964034 0.00131155 804 171
0.091220379 0.091843285 0.4961867 0.0013478921 751 156
0.09364555 0.091969773 0.49667555 0.0013067254 790 167
0.095946491 0.091971114 0.49647555 0.0014099575 790 167
0.09828227 0.092005014 0.49643797 0.001349356 747 155
0.1006481 0.092064835 0.49652633 0.0013580907 752 157
0.10318576 0.092275657 0.49741399 0.0013605939 746 155
0.10556481 0.092338525 0.49748829 0.0013460502 754 157
0.10786603 0.092332065 0.49717358 0.0013594461 759 159
0.11014517 0.092307381 0.49674454 0.0013689256 743 154
0.11236187 0.092232458 0.49602896 0.0013960203 748 155
0.11502235 0.092517503 0.49723125 0.0014630873 737 152
0.1173196 0.092504889 0.49681485 0.0013941091 785 166
0.11965262 0.092520438 0.49653128 0.0013187391 800 170
0.12215882 0.092666753 0.49692962 0.0013611385 781 165
0.12495209 0.093021341 0.49842292 0.0013241444 781 165
0.12730595 0.093041837 0.4981041 0.0013077693 792 168
0.12949173 0.092940949 0.49711472 0.0013314538 768 161
0.13151911 0.092731923 0.49552682 0.0014629762 769 161
0.13410273 0.09291555 0.49601504 0.001379592 793 168
0.13626127 0.092803426 0.49490118 0.0012790433 823 177
0.13926657 0.093262091 0.49680585 0.0012878784 819 176
0.14149162 0.093191743 0.49586606 0.0013549702 844 183
0.14399648 0.093304984 0.49587819 0.0013654658 820 176
0.14652705 0.093431011 0.4959316 0.0012816589 813 174
0.14904985 0.093548208 0.49591064 0.0013239089 804 171
0.15131733 0.093504019 0.49500728 0.0013347446 843 183
0.15349714 0.093407817 0.49380291 0.0012902733 879 193
0.15640022 0.093748033 0.49487671 0.0012775776 859 187
0.15897852 0.093886398 0.49485359 0.0013155458 849 184
0.16167364 0.094088711 0.49513695 0.0012355179 872 191
0.16375419 0.093932725 0.49350604 0.0012616573 841 182
0.16602699 0.09388984 0.49244308 0.0012820071 871 191
0.16839568 0.093901642 0.49163878 0.0011942898 926 206
0.1721102 0.094653249 0.49467263 0.0012051489 904 200
0.17484146 0.094851054 0.49477488 0.0011782363 935 209
0.17754647 0.095029518 0.49474475 0.0012094674 915 203
0.17978738 0.094958149 0.49338573 0.001227804 882 194
0.18228947 0.095024787 0.49271739 0.0012562306 903 200
0.18493548 0.095163763 0.49239656 0.0011810997 928 207
0.18822294 0.095625103 0.49371305 0.0012388764 932 208
0.19137403 0.096006453 0.49458453 0.001174884 942 211
0.19373465 0.095986702 0.49336496 0.0012323356 944 212
0.19622561 0.096031241 0.49245739 0.0011778908 935 209
0.19911584 0.09626773 0.4925153 0.0011748021 938 210
0.20209537 0.096541218 0.49274421 0.0012127964 905 200
0.20472485 0.096643008 0.49208367 0.0012103188 906 201
0.20739943 0.096763477 0.4915112 0.0012357724 870 190
0.21041803 0.097039819 0.49172592 0.0013143334 843 183
0.21350577 0.097341374 0.49206713 0.0012830357 809 173
0.21643542 0.097564869 0.49201867 0.0013787193 785 166
0.21986438 0.098005965 0.49307725 0.0013280247 775 163
0.22263308 0.098146252 0.49263999 0.0013397326 758 158
0.22503971 0.098125614 0.49142489 0.0013648226 737 152
0.22782931 0.09827061 0.49107662 0.001443893 698 141
0.23044819 0.09833964 0.49039257 0.0014910169 678 135
0.23418114 0.098877624 0.49209422 0.0014757597 649 127
0.23702838 0.099034294 0.49195227 0.0014902385 643 125
0.23988225 0.099190474 0.49187303 0.0015698803 637 124
0.24270132 0.099329218 0.49177954 0.0015698839 633 122
0.24523075 0.0993478 0.49117029 0.0015752567 586 109
0.24721864 0.099148825 0.48957241 0.0016020312 564 103
0.25096735 0.099652991 0.49153492 0.0018085487 497 83
0.25354099 0.099685229 0.49126089 0.0018984026 493 82
0.25611839 0.099718295 0.49108726 0.0018015691 468 75
0.25812352 0.099530064 0.48992261 0.0020698891 466 75
0.26082227 0.099610336 0.49017933 0.002053085 451 70
-0.3000415 0.10399515 0.50692391 0.0033237888 211 2
-0.29801092 0.10417208 0.50672251 0.0029783405 230 7
-0.29580605 0.10429065 0.50630069 0.0029784963 249 12
-0.29331458 0.1043093 0.50546259 0.0028496012 244 11
-0.29071814 0.10429066 0.50451696 0.0025881713 275 20
-0.28812745 0.10427375 0.50365674 0.0025848344 286 23
-0.28591141 0.10439334 0.50353509 0.002523853 288 24
-0.28380322 0.10455483 0.50369716 0.0025813712 279 21
-0.28158087 0.1046768 0.50375426 0.0024833477 314 31
-0.27894688 0.10464655 0.50316834 0.0023836356 316 32
-0.27707312 0.10490361 0.50405604 0.0026612445 316 32
-0.27587053 0.10542192 0.50629276 0.0024932032 327 35
-0.2742399 0.10578489 0.50788015 0.0022540947 336 37
-0.2702103 0.10522059 0.50511599 0.0021859298 358 44
-0.26755965 0.10518757 0.50500387 0.0024098228 329 35
-0.26479319 0.10510796 0.50476938 0.0029474171 274 20
-0.26182771 0.104947 0.50424546 0.0024635654 358 44
-0.25883746 0.10477284 0.50375724 0.002214157 407 58
-0.25593412 0.10463074 0.50352025 0.0021506704 439 67
-0.25352934 0.10469166 0.50435531 0.001867324 442 68
-0.25095928 0.10468487 0.50495601 0.0020399101 457 72
-0.24760111 0.10434579 0.50403881 0.0019211109 476 77
-0.24410899 0.10394264 0.50288844 0.0018467387 505 86
-0.24170139 0.10399769 0.50402719 0.001800994 487 81
-0.23896249 0.10390983 0.50454199 0.001815276 498 84
-0.23605202 0.10374467 0.50474066 0.0016729326 530 93
-0.23212224 0.10312311 0.50276512 0.0016446778 547 98
-0.22962807 0.10313269 0.50390697 0.0016023219 576 106
-0.22663841 0.10291748 0.50398737 0.0015115271 621 119
-0.22403413 0.10287442 0.5049395 0.0015456931 594 111
-0.22051635 0.10240615 0.50382334 0.0015441204 608 115
-0.21734752 0.10209107 0.50346953 0.0016487994 618 118
-0.213772 0.10157543 0.50212848 0.0014504833 661 130
-0.21083345 0.10135392 0.50223815 0.0014473458 663 131
-0.20810103 0.10122741 0.50281489 0.0015252354 644 126
-0.20525333 0.10104112 0.50308663 0.0014075241 697 141
-0.20230049 0.10079791 0.50306123 0.0014036217 717 146
-0.19949751 0.1006243 0.50336593 0.0013886129 721 148
-0.19659112 0.10039356 0.50336462 0.0013756586 728 150
-0.19356334 0.10009424 0.50299501 0.0014633911 740 153
-0.1906253 0.099834256 0.50279617 0.0013356901 754 157
-0.18773183 0.099591188 0.50265425 0.0013500425 750 156
-0.18480368 0.099323109 0.50235641 0.0014788464 717 146
-0.18196093 0.099094421 0.50222689 0.0014926073 715 146
-0.17934339 0.098983862 0.50266612 0.0014724542 722 148
-0.17664655 0.098825924 0.50283474 0.0014629929 670 133
-0.17393252 0.098653875 0.50290036 0.0013895801 732 151
-0.1711421 0.098433062 0.50268543 0.0014132267 746 155
-0.16865024 0.098380126 0.50329685 0.0014073293 702 142
-0.16600379 0.098234177 0.50340205 0.0014782767 697 141
-0.16314006 0.097953491 0.50278467 0.0014624826 741 153
-0.16051435 0.097809494 0.50283694 0.0013912364 718 147
-0.15779278 0.097601861 0.50253129 0.0014030384 706 143
-0.1547859 0.097208701 0.50123799 0.0013717317 741 153
-0.15194407 0.096908554 0.5003919 0.0014104187 724 148
-0.14986801 0.097095057 0.50203091 0.0013994494 717 146
-0.14770527 0.097230479 0.50338179 0.001396714 714 146
-0.14509787 0.097072825 0.50318909 0.0013911644 710 144
-0.14239477 0.096844882 0.50260437 0.0014057333 706 143
-0.1398018 0.096685402 0.50234765 0.0014142649 703 142
-0.1375728 0.096776478 0.50336826 0.0015667616 700 142
-0.13484879 0.096516445 0.50253814 0.0013882463 716 146
-0.13210802 0.096234947 0.50157046 0.0013996487 714 146
-0.12960787 0.096121728 0.50145543 0.0014440017 672 134
-0.1273362 0.096176907 0.50219697 0.001467592 666 132
-0.1251632 0.096310079 0.50332558 0.001461835 666 132
-0.12292631 0.096398257 0.50419956 0.0014135767 696 140
-0.12033302 0.096204907 0.50358081 0.0014596524 679 136
-0.11763328 0.095917098 0.50244629 0.0014427716 689 138
-0.11513024 0.095781237 0.50208765 0.0014832283 646 126
-0.11274786 0.095742211 0.50221807 0.0014875174 649 127
-0.11046363 0.095786631 0.50276887 0.0014657743 654 128
-0.10819575 0.095847473 0.50338942 0.0014855468 658 130
-0.10583242 0.095824569 0.50355405 0.0014721503 647 126
-0.10337596 0.095714405 0.50324416 0.0014891466 658 130
-0.10098441 0.095660627 0.50321537 0.0015875503 642 125
-0.098479837 0.095494725 0.50258178 0.0014550658 671 133
-0.096147522 0.095491856 0.50279182 0.0014072789 703 142
-0.093644544 0.095315143 0.50207287 0.0014331937 684 137
-0.091112457 0.095099032 0.50113285 0.0013976877 707 144
-0.088656157 0.094952829 0.50054824 0.0013811764 726 149
-0.085152201 0.093646593 0.49383417 0.0012137928 905 200
-0.083443291 0.094296888 0.49742532 0.0012228967 946 212
-0.081645347 0.094880581 0.50065655 0.0011784525 951 214
-0.079395965 0.094958387 0.50120944 0.0011604303 970 219
-0.076965936 0.094818339 0.50060254 0.0011238082 1025 235
-0.074290536 0.094357952 0.49829435 0.001202728 966 218
-0.069381237 0.09094011 0.48035476 0.0012344844 905 200
-0.066267833 0.089728154 0.47405338 0.0011610955 963 217
-0.064216033 0.08991994 0.4751597 0.0012628563 934 209
-0.062155958 0.090113297 0.47626764 0.001239003 950 213
-0.060123123 0.090361759 0.47766051 0.001226257 909 201
-0.058009908 0.090503752 0.47848451 0.0011904028 926 206
-0.055883244 0.090635151 0.4792468 0.0011952658 958 216
-0.053750034 0.090766326 0.48000243 0.0012474889 940 210
-0.051693052 0.091043025 0.48152259 0.0012280978 926 206
-0.049701065 0.091464177 0.48380226 0.0012253519 882 194
-0.047742024 0.0919884 0.48662287 0.0013038355 802 171
-0.046620093 0.094256803 0.4986673 0.0015171345 691 139
-0.044365659 0.094352081 0.49921167 0.0012512803 901 199
-0.042067681 0.094360098 0.49929047 0.0011283666 1029 236
-0.039764039 0.094355628 0.49929965 0.0011308782 1029 236
-0.037482359 0.09440589 0.49959508 0.0011769556 954 214
-0.035195343 0.09444844 0.49984664 0.0011643693 963 217
-0.032689888 0.093869701 0.49680722 0.0012224508 981 222
-0.030349664 0.093713969 0.49600375 0.0012287055 990 225
-0.027974008 0.093414553 0.49443731 0.0011815873 939 210
-0.025615718 0.093125165 0.49292171 0.0011822978 939 210
-0.023446722 0.093534574 0.49510291 0.0012744494 889 196
-0.021187605 0.093634009 0.49564159 0.001276486 830 179
-0.018897651 0.093604729 0.49549726 0.0013156999 820 176
-0.016655678 0.093837708 0.4967396 0.0013482574 745 155
-0.014442646 0.094333977 0.49937442 0.0015406734 650 127
-0.012143782 0.094351463 0.49947336 0.0014857909 652 128
-0.0098363236 0.094294742 0.49917823 0.0013338223 771 162
-0.0075323973 0.094247609 0.49893266 0.0012435777 864 189
-0.0052241851 0.094081879 0.49805823 0.0011794252 947 212
-0.00292543 0.093960173 0.49741575 0.0011913457 936 209
-0.00063310895 0.093912117 0.49716216 0.0012428537 941 211
0.0016645212 0.094297625 0.4992027 0.0012339351 896 198
0.0039670719 0.094352849 0.4994939 0.0012325972 869 190
0.0062678801 0.094341278 0.4994303 0.0012251248 892 197
0.0085679302 0.094327591 0.49935448 0.0012580783 899 199
0.010867725 0.094317481 0.49929646 0.0012291688 870 190
0.013159472 0.094253264 0.49895078 0.0012263627 914 203
0.015473857 0.094346166 0.49943563 0.0012322391 865 189
0.01776915 0.094313681 0.49925536 0.0013430397 843 183
0.020065833 0.094295189 0.4991475 0.0012651483 842 182
0.02240004 0.094438702 0.49989575 0.0013117427 837 181
0.024707166 0.094451904 0.49995244 0.0013598768 812 174
0.026972346 0.094316192 0.49921888 0.0013022935 798 170
0.029236352 0.094198018 0.49857625 0.0012804848 819 176
0.031517006 0.09414681 0.49828559 0.0012697066 833 180
0.033804201 0.094120748 0.49812573 0.0012578254 845 183
0.036151011 0.094253436 0.49880329 0.0012660106 826 178
0.038549405 0.094496727 0.50006294 0.0013175756 820 176
0.040823866 0.094425894 0.49965718 0.0012653955 840 182
0.043071937 0.094304845 0.49898231 0.0012481848 843 183
0.045422181 0.09440843 0.49949223 0.0013667102 796 169
0.047825526 0.094607063 0.50050092 0.0013309339 796 169
0.049883429 0.094135515 0.49795997 0.0012908432 833 180
0.052081872 0.093959026 0.49697545 0.0012857001 813 174
0.054587927 0.09432897 0.49887612 0.0013927253 778 164
0.056665834 0.093959063 0.49685866 0.001331038 764 160
0.058996096 0.094020091 0.49711463 0.0013809601 781 165
0.061372813 0.094147809 0.4977169 0.001313388 784 166
0.063696459 0.094187841 0.4978492 0.0013708249 806 172
0.066115849 0.094361745 0.49868211 0.0014255242 755 157
0.068370804 0.094297126 0.49824721 0.0014297111 728 150
0.070603788 0.094207421 0.49767229 0.0014320407 760 159
0.072917163 0.094227254 0.49766794 0.001326265 774 163
0.075327344 0.094367146 0.49828923 0.0013175365 781 165
0.077748649 0.094512284 0.49892882 0.0013556243 741 153
0.080031343 0.094485387 0.4986507 0.0013664204 751 156
0.082271785 0.09441153 0.49811509 0.0013853234 746 155
0.084480539 0.094306298 0.49740383 0.0013711532 740 153
0.086767644 0.094291821 0.49716073 0.001329275 779 164
0.088912778 0.094127774 0.49611801 0.0013153425 799 170
0.091174208 0.094092011 0.49574003 0.00130244 794 169
0.093548924 0.094172038 0.49595979 0.0013371465 763 160
0.095836565 0.094162688 0.49569571 0.0013132759 787 167
0.098095499 0.09412621 0.49527571 0.0013422292 799 170
0.10063832 0.094357595 0.49625066 0.0014454484 731 150
0.10324565 0.094637744 0.49746633 0.0013451035 759 159
0.10557085 0.094652697 0.49727198 0.0013337114 768 161
0.10789847 0.094669141 0.49706975 0.0013485622 755 157
0.11016233 0.0946301 0.49656001 0.0013615841 747 155
0.11253351 0.094682969 0.49651578 0.0013684835 741 153
0.1147431 0.094600499 0.49574444 0.0012966801 814 174
0.11757693 0.095025778 0.49761477 0.0014430444 758 158
0.11997698 0.095090821 0.497578 0.001319661 784 166
0.12208778 0.094928496 0.49633265 0.0013001318 806 172
0.12470085 0.095155463 0.49710262 0.0013459725 755 157
0.12725642 0.095331073 0.4975819 0.0014499133 778 164
0.12937494 0.095178843 0.49632877 0.0013072264 793 168
0.13166471 0.095155761 0.49572834 0.0013081732 804 171
0.13403834 0.095193014 0.49541974 0.0012897855 811 173
0.13679847 0.09549883 0.4964841 0.001284425 813 174
0.13901891 0.095423944 0.49554446 0.0012663034 844 183
0.14146858 0.095506288 0.49539715 0.001344429 853 185
0.14384079 0.095534511 0.49494365 0.001272534 820 176
0.14670266 0.095881872 0.49611586 0.0013326387 815 175
0.14912096 0.095932968 0.49572682 0.0012690988 822 177
0.15149911 0.095957048 0.49517143 0.0012766713 828 178
0.15398534 0.096047811 0.49493241 0.0012548087 873 191
0.15622048 0.095981605 0.4938572 0.0013022876 853 185
0.15893655 0.096208461 0.49426135 0.0012489993 850 185
0.16116612 0.0961385 0.49311152 0.0012009017 905 200
0.16422281 0.09655688 0.4944357 0.0012888324 842 182
0.16699694 0.096799627 0.4948267 0.0012068658 899 199
0.16888055 0.096526608 0.49255356 0.0011684182 958 216
0.17203328 0.096976526 0.49393955 0.0012491301 943 211
0.1747895 0.097193748 0.4941065 0.0011783679 946 212
0.1768444 0.097020395 0.49226028 0.0011863261 931 208
0.17965591 0.097261235 0.49248821 0.0012200621 942 211
0.1824417 0.097482041 0.49258444 0.0011695096 963 217
0.18512306 0.097642109 0.49234512 0.0011604247 967 218
0.18875782 0.098294578 0.49455673 0.001166243 954 214
0.19140016 0.098420352 0.49408826 0.0011943685 917 204
0.193533 0.098284282 0.49228609 0.0012543384 934 209
0.19620055 0.098419748 0.4918271 0.0012103685 910 202
0.19888246 0.098559067 0.49137041 0.0012461432 936 209
0.20234559 0.099077582 0.49278596 0.0011917413 932 208
0.20496793 0.09917701 0.49210301 0.001252341 891 196
0.20762804 0.099292196 0.49149352 0.0013174097 880 193
0.21079794 0.099645719 0.49206075 0.0013159891 869 190
0.21385179 0.099936925 0.49232072 0.0012958954 822 177
0.21729559 0.10040176 0.49344105 0.0013135226 780 165
0.22014849 0.10058624 0.49319649 0.0013912079 738 153
0.22272357 0.10064112 0.49234071 0.0013510626 755 157
0.22516306 0.10063419 0.49121627 0.0014560927 724 148
0.22732446 0.10050449 0.48953527 0.0014026809 703 142
0.23050438 0.10082304 0.49008432 0.0014449988 666 132
0.23415434 0.1013383 0.49163759 0.001554388 671 133
0.23731697 0.10163406 0.49218172 0.001479704 646 126
0.24023628 0.10182061 0.49226302 0.0016427034 620 119
0.24290638 0.10189879 0.49189478 0.0015247545 610 116
0.24487205 0.10168286 0.49018976 0.0015708936 589 110
0.24737298 0.10169133 0.48965448 0.0017027729 558 101
0.25028545 0.10186709 0.49001467 0.001700111 530 93
0.25323898 0.10205596 0.4905304 0.0019093679 500 84
0.25550511 0.10196684 0.48980615 0.0017723483 486 80
0.25865585 0.10222904 0.4908672 0.0020682751 448 69
0.26169267 0.10244164 0.4917883 0.001887041 442 68
-0.29933125 0.10627975 0.50611013 0.0032893489 215 3
-0.29786089 0.10665947 0.5068357 0.0030108478 229 7
-0.29567116 0.10678593 0.50641763 0.0031598192 251 13
-0.29305092 0.10675769 0.50533348 0.00304944 253 14
-0.29045716 0.10673875 0.50436521 0.0032336183 241 10
-0.2880002 0.10677018 0.50370979 0.0027386372 265 17
-0.28556564 0.10681052 0.5031743 0.0029522965 270 18
-0.28359148 0.10702536 0.50354081 0.0025821039 281 22
-0.28180704 0.10731633 0.5043478 0.0024614714 300 27
-0.2792339 0.10730954 0.50384235 0.0025803924 294 25
-0.276889 0.10739113 0.50384301 0.0023501772 320 33
-0.27644444 0.10821819 0.5074327 0.0023286622 325 34
-0.27389777 0.10823014 0.50729531 0.0022652759 334 37
-0.26963773 0.10755887 0.50405526 0.0025345078 337 38
-0.26748329 0.1077227 0.50482917 0.0023956553 312 30
-0.2640726 0.10737887 0.50332439 0.0026583048 276 20
-0.26142406 0.10734126 0.50335521 0.0022005085 354 42
-0.25877026 0.10730073 0.50347191 0.0020330574 398 55
-0.25613379 0.10726664 0.50371695 0.001965106 407 58
-0.2535916 0.10727177 0.5042417 0.0020315829 417 61
-0.25101706 0.10726316 0.50479448 0.0019086314 444 68
-0.24770053 0.10693405 0.50392509 0.001975236 478 78
-0.24442305 0.10661516 0.50318271 0.0018829808 496 83
-0.24160342 0.10649134 0.50343508 0.0017956507 479 78
-0.23917791 0.10654048 0.50457537 0.001748792 496 83
-0.236292 0.10638339 0.50480217 0.001681507 534 94
-0.23334125 0.10619339 0.50492638 0.0017590434 544 97
-0.22972523 0.10569314 0.50361806 0.0016678487 564 103
-0.22701769 0.1056044 0.50430661 0.0016661654 569 104
-0.22363332 0.10519533 0.50349444 0.0015431208 610 116
-0.2204456 0.10487051 0.50310498 0.0015188006 623 120
-0.21706828 0.10444705 0.50225443 0.0015218364 639 124
-0.21409252 0.10420921 0.502303 0.0014850365 651 128
-0.21083637 0.1038277 0.50166011 0.001441906 692 139
-0.20809615 0.10369425 0.50221252 0.0014752926 674 134
-0.20541734 0.10358855 0.50289422 0.0013805469 731 150
-0.20249291 0.10335492 0.50294435 0.0014527884 684 137
-0.19959271 0.10312806 0.50301164 0.0014002366 711 145
-0.19684933 0.10297757 0.50343311 0.0015317753 699 141
-0.19318154 0.10233362 0.50141633 0.0014826901 704 143
-0.19109981 0.10252412 0.5034638 0.0014112021 710 144
-0.18832131 0.10234088 0.50365448 0.0014655433 716 146
-0.18510668 0.10191276 0.50261021 0.0013778728 715 146
-0.18276379 0.10195955 0.50387949 0.0014567152 698 141
-0.17958912 0.10153733 0.50280106 0.0014534906 724 148
-0.17707618 0.10148284 0.50351226 0.0014785983 717 146
-0.17395636 0.10107423 0.50243461 0.0013871175 722 148
-0.17128456 0.1009181 0.50257885 0.0013762193 731 150
-0.1687225 0.10082312 0.50299728 0.0014161133 714 146
-0.1661358 0.10071046 0.50329739 0.001467057 699 141
-0.16341428 0.10051157 0.50313556 0.0013892343 722 148
-0.16064304 0.10027573 0.50275719 0.0014257819 694 140
-0.15830013 0.10030417 0.50367415 0.0014379441 670 133
-0.15545712 0.10001177 0.50295025 0.001507621 675 134
-0.15260382 0.099703521 0.50211513 0.0014161654 691 139
-0.15010442 0.099620409 0.50238407 0.0014725504 700 142
-0.14766881 0.099577665 0.50282931 0.0014573229 671 133
-0.144976 0.09935724 0.50234979 0.0015219828 717 146
-0.14243729 0.099236876 0.50234848 0.0013790779 718 147
-0.14005059 0.099220149 0.50284618 0.0014578034 655 129
-0.13735513 0.098980322 0.50218761 0.0014381077 695 140
-0.13483883 0.098863497 0.50212735 0.0014192255 681 136
-0.1323415 0.098756678 0.50209373 0.0014488765 667 132
-0.12984076 0.098643377 0.50200367 0.001438611 681 136
-0.12747718 0.098632067 0.50241017 0.0014843481 698 141
-0.12532954 0.098790511 0.50366092 0.0014357665 690 139
-0.12299906 0.098808162 0.50417393 0.001428116 691 139
-0.12037097 0.098582752 0.50342596 0.0014629395 695 140
-0.11776222 0.098364532 0.50269353 0.0014003132 712 145
-0.11521547 0.0981903 0.50216562 0.0015325219 666 132
-0.1126614 0.098002464 0.50154889 0.0014316387 697 141
-0.11031304 0.097989425 0.50180846 0.0014790633 653 128
-0.10801682 0.098023131 0.50229061 0.001478709 664 131
-0.10564367 0.097986974 0.50239855 0.0014482507 673 134
-0.10333253 0.098007992 0.50278383 0.0014618003 661 130
-0.10098816 0.09799774 0.50299364 0.0015059564 624 120
-0.098659173 0.098002285 0.50326473 0.0016010703 662 131
-0.096089259 0.097761959 0.50226372 0.0015178684 680 136
-0.093808457 0.097811095 0.50273603 0.0013993413 712 145
-0.091134094 0.097441956 0.50104481 0.0014205069 690 139
-0.088711753 0.097330034 0.50066286 0.0014163166 716 146
-0.085249148 0.096040167 0.49420714 0.0011954006 928 207
-0.083185434 0.096298598 0.4957056 0.0011408783 1005 229
-0.081673115 0.09722808 0.50064963 0.001218012 945 212
-0.079386614 0.097263291 0.50098002 0.0011787821 961 216
-0.076801106 0.096923247 0.49936742 0.0011062231 1053 243
-0.074436679 0.096849807 0.49911833 0.0011737818 958 216
-0.07131017 0.095748425 0.49356133 0.0013631907 796 169
-0.066476829 0.092206798 0.47541162 0.0012479421 865 189
-0.064162754 0.092036948 0.47463468 0.0012382122 873 191
-0.062077787 0.092195362 0.47554323 0.0012442482 913 203
-0.059989344 0.092360027 0.47647759 0.0011972362 926 206
-0.0579402 0.092600033 0.47779435 0.0012374768 872 191
-0.05585723 0.092802823 0.4789134 0.0011960081 934 209
-0.053764664 0.093005724 0.48002756 0.0011715259 958 216
-0.051707018 0.093289062 0.48155156 0.0012422106 885 195
-0.049555313 0.09342052 0.48228675 0.0012653797 830 179
-0.047830682 0.09440729 0.48743334 0.0014618848 747 155
-0.046589859 0.096493416 0.49825299 0.0014003626 718 147
-0.044314064 0.096541233 0.49854431 0.0012473192 988 224
-0.042045653 0.096611239 0.49894619 0.0011409752 1023 234
-0.03974751 0.096617095 0.49901298 0.0011276481 1009 230
-0.037376802 0.096436426 0.4981128 0.0011498934 986 224
-0.034996729 0.09620636 0.49695414 0.00115665 968 218
-0.032606348 0.095913745 0.49546909 0.0011820126 962 217
-0.030288959 0.095807947 0.49494621 0.0012126692 934 209
-0.027955882 0.095631242 0.49405441 0.0012958877 899 199
-0.025701988 0.095718071 0.49452174 0.0012919761 901 199
-0.02346069 0.095873281 0.49534008 0.0012624086 845 183
-0.021204971 0.095996678 0.49599203 0.0013327237 770 162
-0.018990351 0.096358418 0.4978736 0.0014314927 679 136
-0.016755611 0.096703477 0.49966744 0.0015999812 622 119
-0.014443474 0.096640632 0.49935195 0.0014169554 706 143
-0.012146046 0.09667103 0.49951667 0.0014373374 763 160
-0.0098423064 0.09665367 0.49943313 0.0012952462 816 175
-0.0075242296 0.096441932 0.49834383 0.0012406623 873 191
-0.0052546258 0.096938409 0.50091285 0.00121035 899 199
-0.0029341367 0.096538626 0.49884921 0.0012651902 894 197
-0.0006324118 0.096097015 0.49656814 0.0012127676 920 205
0.0016590911 0.096282728 0.49752754 0.0012468279 897 198
0.0039666155 0.096643321 0.49938929 0.0013182147 864 189
0.0062638102 0.096579842 0.49905849 0.0013058705 826 178
0.0085560102 0.096494123 0.4986116 0.0012537452 855 186
0.01086242 0.096571036 0.4990035 0.001230292 871 191
0.013176802 0.096679553 0.49955747 0.0012649505 831 179
0.015484237 0.096712425 0.49971899 0.0013445331 820 176
0.017763363 0.096582852 0.4990395 0.0013909681 808 173
0.020066086 0.096596576 0.49909884 0.0012811683 814 174
0.022395948 0.096724682 0.49974719 0.0012683262 825 177
0.024698339 0.096721329 0.4997144 0.0012631548 838 181
0.026982239 0.096652299 0.49934021 0.0012518222 846 183
0.029256107 0.096561022 0.49884877 0.0013304447 836 181
0.031549368 0.096542381 0.49873003 0.0013405252 829 179
0.033843514 0.096528798 0.49863482 0.0013086194 844 183
0.036184326 0.096641593 0.49918938 0.0013664396 805 172
0.038474955 0.096614853 0.49902019 0.0012868968 806 172
0.040855538 0.096804306 0.49996397 0.0013050572 788 167
0.043103766 0.09667664 0.49926636 0.0012817637 823 177
0.045375992 0.096613012 0.49889562 0.0013955142 779 164
0.047707915 0.096676521 0.49917716 0.0014214474 768 161
0.050024692 0.096704878 0.49927261 0.0014007062 781 165
0.052387353 0.096815556 0.49978814 0.0013138958 793 168
0.054513279 0.096497834 0.4980872 0.0013139826 789 167
0.056696363 0.096302889 0.49701479 0.0013818979 811 173
0.058949292 0.096237145 0.49660346 0.0014226073 786 166
0.061299521 0.096329212 0.49700037 0.0013692846 777 164
0.063629411 0.09638384 0.49719736 0.0013163515 786 166
0.066021681 0.096525848 0.4978379 0.0014084353 779 164
0.068361595 0.096584342 0.49804026 0.0012972413 813 174
0.070586681 0.096482083 0.49740583 0.0013441963 836 181
0.072933175 0.096546963 0.49762502 0.0013177641 789 167
0.075365305 0.096717805 0.49838135 0.001312281 777 164
0.077547103 0.096566759 0.49746999 0.0014074765 783 165
0.079767488 0.096471094 0.49683467 0.0013655311 786 166
0.082388021 0.096851178 0.49863911 0.0013699826 740 153
0.084833831 0.097010747 0.49929687 0.0013843495 751 156
0.087138049 0.097004257 0.49908862 0.0013229753 774 163
0.088957191 0.096472017 0.49616492 0.0013167906 782 165
0.091263823 0.096481964 0.49601886 0.001308537 787 167
0.093603499 0.09652549 0.49603277 0.0012726022 833 180
0.096130505 0.096755475 0.49699131 0.0012887103 820 176
0.098722942 0.097038999 0.49821001 0.0012970355 809 173
0.10094552 0.096954346 0.49752384 0.0014970155 735 152
0.10317291 0.09687797 0.49686596 0.0013323945 772 162
0.10566923 0.097051956 0.49747658 0.0013501662 759 159
0.10792179 0.096999377 0.49690977 0.0014034346 742 154
0.11022367 0.096992426 0.49656036 0.0013329427 772 162
0.11260819 0.097056977 0.49656004 0.0014136725 765 160
0.11501602 0.097138613 0.49662897 0.0014307296 757 158
0.11718915 0.097022735 0.49567002 0.0013437624 759 159
0.11989333 0.097342491 0.49691722 0.0013678339 807 172
0.12212951 0.097277358 0.49617904 0.0013453749 759 159
0.12428959 0.097155154 0.49513078 0.0013236003 780 165
0.12705253 0.097500056 0.49644145 0.0013888878 773 163
0.12957767 0.097653359 0.49675298 0.0013084591 786 166
0.1318332 0.097601652 0.49599925 0.0013173807 788 167
0.13431716 0.097717933 0.49607649 0.0012668472 847 184
0.13679282 0.097824305 0.49607921 0.0012713087 829 179
0.13908744 0.09779983 0.49539429 0.0012871121 853 185
0.14137948 0.097774364 0.49468052 0.0013147363 858 187
0.14416903 0.098088242 0.49565709 0.0013693983 819 176
0.14681904 0.098298661 0.49608228 0.0013175466 833 180
0.14929767 0.098389551 0.4958764 0.0012405227 863 188
0.1515256 0.098314963 0.49481019 0.0012623477 831 179
0.15386614 0.098314591 0.49409139 0.0012948404 871 191
0.15693109 0.098770164 0.49563345 0.0012971987 870 190
0.15857179 0.098329119 0.49264899 0.0012160261 895 197
0.16176206 0.098847806 0.49444458 0.0012360605 875 192
0.16422479 0.098913409 0.4939414 0.001237845 868 190
0.16680257 0.099045463 0.49374044 0.0012051446 918 204
0.1693778 0.099172354 0.49348381 0.0012043252 910 202
0.17185618 0.099239834 0.49290222 0.0012548617 886 195
0.17449257 0.099395476 0.49272928 0.0012354323 959 216
0.17731348 0.099650659 0.49301913 0.001221876 915 203
0.17989777 0.099767901 0.49259701 0.0011408469 993 226
0.18263121 0.09996368 0.49253449 0.0012064858 958 216
0.1855946 0.10027869 0.49303061 0.0011950977 952 214
0.18858816 0.1006018 0.49353743 0.0012614813 935 209
0.19125801 0.10074627 0.49314263 0.001182772 935 209
0.19391094 0.10087838 0.49266621 0.0012691868 910 202
0.19624801 0.10084493 0.49136478 0.0011813373 936 209
0.19908173 0.10106441 0.49128133 0.0012075353 957 215
0.20264718 0.10164568 0.49293876 0.0012080538 895 197
0.20566933 0.10194393 0.49320894 0.0012150982 890 196
0.20772584 0.10176218 0.49115527 0.0012347753 894 197
0.21103017 0.10218886 0.49204034 0.0012517102 855 186
0.21416697 0.10252559 0.49249414 0.0013382249 809 173
0.21702081 0.10272082 0.49227878 0.0013312058 760 159
0.21924242 0.10261579 0.49064639 0.0014033943 773 163
0.22260071 0.10303921 0.49156713 0.0013378076 766 161
0.22573778 0.10335213 0.49198985 0.0013589461 743 154
0.22783515 0.10318742 0.49018139 0.0014495844 701 142
0.23076341 0.1033985 0.49020913 0.001447594 664 131
0.2336791 0.10359958 0.49024424 0.0014956592 640 124
0.23727877 0.10409651 0.49173871 0.0014914292 638 124
0.24027944 0.10432309 0.49202254 0.0016685762 588 110
0.24267748 0.10428608 0.49113983 0.0016088559 581 108
0.24504656 0.10423749 0.4902865 0.0016161845 587 109
0.24730039 0.10414134 0.48929811 0.0016304512 557 101
0.24999391 0.10423043 0.48927131 0.0018151167 522 91
0.25273919 0.10433912 0.48943022 0.0019003158 480 79
0.2557863 0.10456909 0.49025342 0.001982349 475 77
0.25903907 0.1048779 0.49154276 0.0018381905 464 74
0.26386607 0.1058121 0.49586043 0.001910292 431 65
-0.30011004 0.10909363 0.50783032 0.0030323754 220 4
-0.29728031 0.10898645 0.50623143 0.0031295789 228 6
-0.29518008 0.10914716 0.50593984 0.0028837877 239 10
-0.29280749 0.10920907 0.50525504 0.0029793731 251 13
-0.29039317 0.10925638 0.50457168 0.0032398873 245 11
-0.2879999 0.10931251 0.50400132 0.0027975126 250 13
-0.28591499 0.10948772 0.50405502 0.0031290809 256 14
-0.2837356 0.10962959 0.50403321 0.0029004728 259 15
-0.2815105 0.10975619 0.50402284 0.0025368468 292 25
-0.28114194 0.11061556 0.50745952 0.0025694817 274 20
-0.2787784 0.11069865 0.5074209 0.0024908551 300 27
