# .PCD v0.7 - Point Cloud Data file format
VERSION 0.7
FIELDS x y z noise intensity gray
SIZE 4 4 4 4 2 1
TYPE F F F F U U
COUNT 1 1 1 1 1 1
WIDTH 845
HEIGHT 1
VIEWPOINT 0 0 0 1 0 0 0
POINTS 845
DATA ascii
-0.28215659 -0.02325161 0.50878 0.0022167659 375 54
-0.27947804 -0.023243586 0.50904936 0.002005497 408 63
-0.27680826 -0.023236144 0.50944477 0.0022087551 383 56
-0.27393913 -0.023211675 0.50957561 0.0019874759 414 65
-0.27088189 -0.023170648 0.50944567 0.0020161765 442 73
-0.26773536 -0.023121124 0.50922406 0.0019346466 458 78
-0.26420745 -0.023037385 0.50833458 0.0020153553 461 78
-0.26111358 -0.022990229 0.50832957 0.0019754253 467 80
-0.25798249 -0.022938827 0.50830001 0.0018390324 469 81
-0.2546584 -0.022869071 0.50792241 0.0017731329 529 98
-0.25142756 -0.022806369 0.50774992 0.0016515383 538 100
-0.24833727 -0.022755267 0.50787503 0.0016482688 554 105
-0.24513164 -0.022692436 0.50776851 0.0018149248 537 100
-0.24226871 -0.022660358 0.50837201 0.0016282338 561 107
-0.23857878 -0.022549437 0.50721771 0.0016084895 568 109
-0.23510553 -0.022456864 0.50647521 0.001516407 625 125
-0.23184958 -0.022383284 0.50615519 0.0015969084 619 123
-0.2289668 -0.022344524 0.50661385 0.0015683471 592 115
-0.2259182 -0.022288557 0.50666869 0.0015691639 618 123
-0.22207674 -0.022152262 0.50487328 0.0014901388 641 129
-0.21912332 -0.02210249 0.50502169 0.0014702892 667 137
-0.21588068 -0.022022083 0.50444168 0.0014461566 681 141
-0.21262673 -0.021938669 0.50375968 0.0014996871 666 136
-0.2098971 -0.021908049 0.5042569 0.0014748354 649 132
-0.20714547 -0.021874383 0.50465202 0.0014882592 648 131
-0.20435029 -0.021835269 0.50488728 0.0014983501 668 137
-0.2013177 -0.021769544 0.50447005 0.0014981264 678 140
-0.19801228 -0.021672355 0.50328314 0.0014954973 638 128
-0.19510594 -0.021616993 0.50302666 0.0015845902 643 130
-0.19217043 -0.021556983 0.50262302 0.0014785485 671 138
-0.18998034 -0.02158013 0.50412261 0.0014358816 682 141
-0.18743329 -0.021562802 0.50464272 0.0015494589 670 137
-0.18460822 -0.021512626 0.50435734 0.0014777 656 134
-0.18149909 -0.021427602 0.50321555 0.0014624689 656 134
-0.17884687 -0.021394972 0.50326627 0.0014972906 638 128
-0.17629604 -0.021373762 0.50355047 0.0014732183 654 133
-0.17383394 -0.021362878 0.50404423 0.0015320377 656 134
-0.17052363 -0.021246009 0.50200093 0.001540985 637 128
-0.16808197 -0.021235606 0.50243765 0.0015658592 597 117
-0.16574492 -0.021238314 0.50315356 0.0015111489 623 124
-0.16322844 -0.021217771 0.50328803 0.0015232152 651 132
-0.16089109 -0.021220261 0.50393873 0.0014889671 654 133
-0.15845279 -0.021209307 0.50424123 0.0015138937 656 134
-0.15583788 -0.021174025 0.50393611 0.0015173218 643 130
-0.15258572 -0.021049755 0.50148183 0.0015512216 602 118
-0.14943433 -0.020935731 0.49923974 0.0014458717 664 136
-0.14566004 -0.020729458 0.49476513 0.0013511102 801 174
-0.1433022 -0.020721382 0.49499184 0.0012881886 809 177
-0.14100052 -0.020721292 0.49538514 0.0012765551 834 184
-0.1384701 -0.020687023 0.49493763 0.0013108915 828 182
-0.1361704 -0.020686653 0.49527791 0.001272893 856 190
-0.13394314 -0.020697461 0.49586421 0.0013514226 854 189
-0.13105154 -0.020604203 0.49393505 0.0012285303 882 197
-0.12886888 -0.020621069 0.49462423 0.0012664072 848 188
-0.1265292 -0.020612961 0.49469489 0.0012854966 852 189
-0.12371406 -0.020525672 0.49284539 0.0012690226 863 192
-0.12105833 -0.020462051 0.49154398 0.0012738468 875 195
-0.11911969 -0.020519521 0.49313402 0.0013743533 840 186
-0.11714688 -0.020573232 0.49461767 0.0013351146 808 176
-0.11468925 -0.020542247 0.49404904 0.0013727507 780 169
-0.11264136 -0.020584876 0.49523553 0.0013177163 788 171
-0.11043818 -0.02060031 0.49575296 0.0014031813 767 165
-0.1080102 -0.020573575 0.49524125 0.0013953758 756 162
-0.10567507 -0.020563753 0.49512264 0.0013321706 770 166
-0.1031433 -0.020514386 0.4940384 0.0013905393 774 167
-0.10085933 -0.020513188 0.49410155 0.0013289205 768 165
-0.098604955 -0.020518096 0.49429977 0.0014399365 763 164
-0.09612415 -0.020475 0.49333015 0.0014093041 742 158
-0.093849927 -0.020474888 0.49338537 0.0013410156 762 163
-0.091170259 -0.020384124 0.49124569 0.0013680562 779 168
-0.088812865 -0.020362619 0.49076542 0.0014058669 774 167
-0.086192705 -0.020278178 0.48875919 0.0013879791 771 166
-0.083731309 -0.020227553 0.48755941 0.0013398373 769 165
-0.081390046 -0.020203965 0.48700354 0.0013854816 736 156
-0.079204053 -0.020218674 0.48736337 0.0013737179 735 156
-0.076863736 -0.020193694 0.4867599 0.0014028903 733 155
-0.07420823 -0.020081921 0.48405808 0.0013719738 737 156
-0.071715198 -0.020008551 0.48227629 0.0014728074 730 154
-0.069444843 -0.019994602 0.48192152 0.0013755264 731 155
-0.067179039 -0.019981086 0.48157257 0.0013332269 774 167
-0.065004975 -0.019994866 0.4818773 0.001320253 784 170
-0.062864631 -0.020020362 0.48246041 0.0013014128 800 174
-0.060443491 -0.019955017 0.48085111 0.0012937178 819 180
-0.058327895 -0.019989416 0.48164257 0.001342005 772 166
-0.057001758 -0.020307789 0.48927316 0.0014204084 720 152
-0.055014968 -0.020407334 0.49162853 0.0015227475 696 145
-0.053251967 -0.020602008 0.49627328 0.0014794182 651 132
-0.051123433 -0.020666394 0.4977777 0.0015121058 664 136
-0.048876021 -0.020686522 0.49821505 0.0014590933 664 136
-0.046639293 -0.020713378 0.49881372 0.0014682913 665 136
-0.044270933 -0.020681527 0.49799854 0.0014795504 694 144
-0.041814283 -0.020602686 0.49605235 0.0014299563 735 156
-0.039510429 -0.020594364 0.4958047 0.0012920123 801 174
-0.037166148 -0.020562654 0.49499488 0.0012539363 861 191
-0.034894671 -0.020569704 0.49511939 0.0012602888 907 204
-0.032544475 -0.020528097 0.4940742 0.0011697565 959 219
-0.03007574 -0.020399813 0.49094483 0.0011704658 961 220
-0.027780868 -0.020378165 0.49038419 0.0011501162 986 227
-0.025482209 -0.020349652 0.48966041 0.0011575068 979 225
-0.023164734 -0.020299101 0.48840913 0.001181596 987 227
-0.020925488 -0.020313594 0.48872548 0.0011995479 980 225
-0.018556911 -0.02019087 0.48574337 0.0011809279 951 217
-0.016328739 -0.02020818 0.48613322 0.0011982716 917 207
-0.014036471 -0.020139039 0.48444661 0.0012631485 912 206
-0.011774711 -0.020095756 0.48338535 0.0012021984 922 209
-0.0095265657 -0.020060901 0.48253024 0.0012703427 913 206
-0.0072825998 -0.020016264 0.48144314 0.0011970125 928 210
-0.00504801 -0.019969491 0.48030835 0.0012581152 920 208
-0.0028177162 -0.019879742 0.47814339 0.0011960962 927 210
-0.00060957152 -0.019862195 0.47771868 0.0012916191 912 206
0.0015924776 -0.019817285 0.47663927 0.0012177275 897 202
0.0037983512 -0.019844467 0.47729743 0.0012785085 915 207
0.0059832297 -0.019782273 0.47580937 0.0012044604 918 208
0.0081601366 -0.019734208 0.47466454 0.0012511981 932 212
0.010343112 -0.019718058 0.4742907 0.001239209 891 200
0.012524006 -0.01970428 0.47397721 0.001204872 913 206
0.014705597 -0.019695535 0.47378796 0.0012530196 865 193
0.016881626 -0.019682568 0.47350019 0.0012636856 851 189
0.01905288 -0.019667644 0.47316819 0.0012664723 843 186
0.021222785 -0.01965454 0.47288293 0.0012296509 898 202
0.023420159 -0.019666949 0.47321397 0.0012317165 883 198
0.025703914 -0.01974359 0.47509325 0.0012938626 812 178
0.027972534 -0.019797476 0.47642732 0.0013189125 793 172
0.030276947 -0.01986699 0.47813991 0.0013159933 793 172
0.032603264 -0.01994046 0.47994965 0.0014675783 703 147
0.034758352 -0.019906521 0.47917575 0.0014502323 688 143
0.037119437 -0.019987563 0.48117104 0.0014549111 693 144
0.039373681 -0.020005174 0.48164052 0.0014699019 676 139
0.041671801 -0.02004201 0.48257363 0.0014530816 701 146
0.043983627 -0.020081364 0.48356795 0.0014209884 702 147
0.046266682 -0.020104423 0.48416996 0.0015189542 679 140
0.048547469 -0.020124411 0.48469788 0.0015426765 679 140
0.050802544 -0.020132458 0.48493755 0.0014224662 690 143
0.053105082 -0.02015784 0.48559377 0.0013458354 761 163
0.055453692 -0.02019795 0.4866035 0.0014368952 770 166
0.057830069 -0.020244664 0.48777056 0.0013655721 761 163
0.05980124 -0.020151332 0.48556113 0.0013357027 772 166
0.061977956 -0.020131504 0.48511988 0.0013238231 777 168
0.064167567 -0.020117098 0.48480609 0.0013970773 794 173
0.066507965 -0.020149343 0.48561299 0.0013613587 781 169
0.068581209 -0.020101186 0.48447818 0.0013253269 781 169
0.070693552 -0.020067163 0.48367938 0.0012867417 813 178
0.073018864 -0.020093827 0.48433831 0.0013089266 804 175
0.075274147 -0.02010021 0.48450303 0.0013783236 779 168
0.077147 -0.020007046 0.48226225 0.0013440989 768 165
0.079738192 -0.020100174 0.4845055 0.0013688738 737 156
0.081723817 -0.020039741 0.4830403 0.0013442965 764 164
0.083926231 -0.020034261 0.48289236 0.0014045944 732 155
0.086427554 -0.020098574 0.48441851 0.0013977551 706 148
0.090070941 -0.020418547 0.49209747 0.0016996992 583 113
0.092282437 -0.020406179 0.49175709 0.0015148654 652 132
0.094130538 -0.020315968 0.4895314 0.0014267574 705 147
0.096424565 -0.020323973 0.48966217 0.0014480659 677 139
0.098655432 -0.020318603 0.48945975 0.0015277824 662 135
0.10092109 -0.020320481 0.4894205 0.0014813532 732 155
0.10333122 -0.020350726 0.49005228 0.0014315664 689 143
0.10554977 -0.020342756 0.48975107 0.001429069 699 146
0.10774621 -0.020330945 0.48934424 0.0014620231 693 144
0.11002371 -0.020334603 0.48929593 0.0014243942 696 145
0.11237244 -0.020351015 0.4895398 0.0014352719 675 139
0.11457429 -0.0203407 0.48912567 0.0014333712 687 142
0.11666308 -0.020311104 0.48823246 0.0014418543 689 143
0.11916349 -0.020352932 0.48903957 0.0014740834 655 133
0.12142472 -0.020353111 0.4888286 0.0014797525 655 133
0.12369367 -0.020354558 0.48863021 0.0014858196 655 133
0.1260853 -0.020375775 0.48888785 0.001474255 650 132
0.12846054 -0.020393644 0.48904556 0.001411452 685 142
0.130816 -0.020407805 0.4890942 0.001400496 709 148
0.13293834 -0.020385738 0.48825434 0.0014983236 701 146
0.1351112 -0.020372022 0.48759392 0.0015226059 665 136
0.13737407 -0.020372117 0.48724255 0.0014436299 673 138
0.1394691 -0.020347714 0.48628321 0.0013735601 728 154
0.1419393 -0.020377953 0.48660645 0.0014218393 695 145
0.14452595 -0.020423701 0.48727465 0.0014318441 685 142
0.14654778 -0.020389447 0.4860093 0.0015434263 684 141
0.14878082 -0.020385176 0.48543435 0.0013973614 709 148
0.15097728 -0.020376096 0.48471916 0.0014311415 761 163
0.15348455 -0.020408617 0.48496649 0.001423202 699 146
0.15597579 -0.020438083 0.4851121 0.0014557644 741 158
0.15838546 -0.020456173 0.48495856 0.001366647 744 158
0.16087763 -0.020484256 0.4850117 0.0013300023 770 166
0.16369748 -0.020552697 0.48598817 0.0013933637 711 149
0.16551217 -0.020494791 0.48394686 0.0013276261 781 169
0.16771337 -0.020485664 0.48302907 0.0014066604 778 168
0.1702404 -0.020516051 0.48301107 0.0014415558 766 165
0.17297402 -0.020570202 0.48351809 0.0013444546 764 164
0.17566322 -0.020617725 0.48383358 0.001361474 773 167
0.17820314 -0.020646734 0.48367915 0.0013593106 749 160
0.18082072 -0.02068389 0.48368043 0.0014342614 746 159
0.18371738 -0.020751633 0.48435962 0.0014739289 724 153
0.18608987 -0.020759227 0.48359895 0.0013938947 731 155
0.18843994 -0.020764163 0.48274311 0.0013497523 745 159
0.19119209 -0.020812748 0.48286736 0.0013267898 783 169
0.19413981 -0.020881208 0.48341531 0.0013552159 735 156
0.1965865 -0.020894798 0.482658 0.0013684239 731 155
0.19896288 -0.020900689 0.48169196 0.0013620175 751 160
0.20160861 -0.02093441 0.48133698 0.0013099957 800 174
0.20488857 -0.021032467 0.48242745 0.0013600354 737 156
0.20771861 -0.021082651 0.48238719 0.0013459276 755 161
0.21046205 -0.021123022 0.48209566 0.0014529015 743 158
0.21285807 -0.021128019 0.48097569 0.0013266194 773 167
0.21564855 -0.021171635 0.48071736 0.0013449923 767 165
0.21891302 -0.021260342 0.48146486 0.0013848172 721 152
0.2217924 -0.021310158 0.48131797 0.0013986763 691 143
0.22440262 -0.021333331 0.48056573 0.0014108141 704 147
0.22666086 -0.02132291 0.47906268 0.0015252319 684 141
0.22964123 -0.021379933 0.47908616 0.001448055 682 141
0.23313197 -0.021482822 0.48014963 0.0014893932 633 127
0.23540135 -0.021472216 0.47870082 0.0016326479 640 129
0.23850068 -0.021536773 0.47896305 0.001590329 608 120
0.24129029 -0.021572355 0.47862253 0.0015919911 570 109
0.24426951 -0.021624021 0.47869056 0.0018352115 541 101
0.24713236 -0.021664483 0.47857085 0.0018230549 513 93
0.25016952 -0.021719296 0.47883737 0.0017667906 500 89
0.25355476 -0.021802995 0.47981653 0.0017663565 479 83
-0.30917728 -0.020925555 0.51623023 0.0028203814 247 18
-0.30422953 -0.020766258 0.51173413 0.0028149225 253 20
-0.30124021 -0.020739051 0.51060152 0.0025327879 284 28
-0.29803187 -0.020696159 0.50919127 0.0024900038 308 35
-0.29735199 -0.020829644 0.51223016 0.0025673572 311 36
-0.29221097 -0.020650215 0.50768763 0.0023817783 321 39
-0.29002815 -0.020678507 0.50836873 0.0023282785 322 39
-0.28792378 -0.020712951 0.50931847 0.0022984282 334 42
-0.28512442 -0.020697568 0.50916117 0.0023730418 332 42
-0.28212035 -0.020666908 0.50874519 0.0022560321 341 44
-0.27965623 -0.020675603 0.50941372 0.0024127197 364 51
-0.27663344 -0.020642772 0.50917202 0.0020816852 376 54
-0.27340603 -0.020593906 0.5086419 0.0019349427 430 70
-0.27096421 -0.02060385 0.5096671 0.0020154323 445 74
-0.26803514 -0.020576583 0.50986922 0.0018131332 469 81
-0.26408711 -0.0204698 0.50818551 0.0020532445 452 76
-0.26095745 -0.020424984 0.50811511 0.0020013871 446 74
-0.25801176 -0.020393828 0.50845379 0.00181606 468 80
-0.25457826 -0.020323109 0.50786442 0.0017201464 510 92
-0.25144625 -0.020275272 0.5078944 0.0018352288 538 100
-0.24803039 -0.020203343 0.50735843 0.0016666787 538 100
-0.24441102 -0.020113185 0.50639021 0.0016138351 559 106
-0.24166928 -0.02009413 0.50723171 0.0016203239 566 108
-0.23844054 -0.020033751 0.50704354 0.0016307788 547 103
-0.23451039 -0.019912541 0.50531399 0.0015357377 615 122
-0.23150066 -0.019867718 0.50551546 0.0016724624 609 120
-0.22839393 -0.019813513 0.50546885 0.0015556728 618 123
-0.22571327 -0.019795485 0.50633186 0.0015119337 619 123
-0.22213016 -0.019697037 0.50511676 0.0015397846 647 131
-0.21897733 -0.01963496 0.50480628 0.0014110965 702 147
-0.21529901 -0.019523825 0.5032022 0.0014997621 703 147
-0.21251158 -0.019491863 0.50360519 0.0014235183 697 145
-0.20974249 -0.019460855 0.50400233 0.0014367054 683 141
-0.20715712 -0.019446369 0.50479555 0.0014419684 676 139
-0.20431031 -0.019406708 0.50490165 0.0015676281 641 129
-0.20097978 -0.019319594 0.50373393 0.0014916984 646 131
-0.19817537 -0.019281551 0.50380611 0.0014235051 700 146
-0.19469064 -0.019175567 0.50206161 0.0014930309 668 137
-0.19208315 -0.019154416 0.50249791 0.001511296 644 130
-0.18966503 -0.019151857 0.50338662 0.0014990567 684 141
-0.1872706 -0.019151654 0.50430316 0.00156926 658 134
-0.18440352 -0.019102484 0.50389379 0.0015409937 665 136
-0.18147191 -0.019045256 0.50323331 0.0014495675 677 139
-0.17862678 -0.0189957 0.50273716 0.0015143917 670 137
-0.1759849 -0.018966716 0.50274932 0.0014673503 649 132
-0.17332931 -0.018935444 0.50266582 0.0015152239 660 135
-0.17095245 -0.018934175 0.50334555 0.0015251309 622 124
-0.16809595 -0.018879002 0.50255889 0.0016019552 617 122
-0.16547638 -0.01884925 0.50241506 0.0015127158 632 127
-0.1631617 -0.018853867 0.50315636 0.0015197566 618 123
-0.16023946 -0.01878739 0.5019691 0.0015625071 656 134
-0.15795586 -0.018794924 0.50272882 0.0015565709 665 136
-0.15551388 -0.018783558 0.50295484 0.0014955003 645 130
-0.15277909 -0.018735936 0.50218117 0.001558427 629 126
-0.14810251 -0.018444991 0.49485064 0.0013937817 705 147
-0.14556797 -0.018415844 0.49451026 0.0013044849 801 174
-0.14316456 -0.018402619 0.49457175 0.0012971609 823 181
-0.14089063 -0.018405873 0.49505207 0.0012619271 860 191
-0.13838708 -0.018378746 0.49469155 0.0012530545 866 193
-0.13624212 -0.018399127 0.4955872 0.0012905041 891 200
-0.13401435 -0.018408831 0.49617395 0.001227783 873 195
-0.13122833 -0.018340854 0.494645 0.0012715487 874 195
-0.12887858 -0.018332519 0.49470288 0.0012617366 892 200
-0.12675858 -0.018357148 0.49563104 0.0012440894 870 194
-0.12448809 -0.018360499 0.49596596 0.0012503074 859 191
-0.12230234 -0.018376702 0.49663004 0.0012766721 845 187
-0.12000404 -0.018376293 0.49682778 0.0013513016 849 188
-0.11758891 -0.018357627 0.49651465 0.0013656194 824 181
-0.11519329 -0.018341323 0.49624875 0.0013959587 800 174
-0.11289154 -0.018339608 0.49636182 0.0013677382 821 180
-0.11069031 -0.018354494 0.49690914 0.0013268676 780 169
-0.10836817 -0.018349534 0.49690485 0.0013812083 780 169
-0.10586683 -0.018313359 0.49604133 0.0013204572 787 171
-0.10347711 -0.018295325 0.49565557 0.0014291618 774 167
-0.1010491 -0.01826955 0.49504754 0.0013411177 793 172
-0.098834276 -0.018282019 0.49546373 0.0013472218 759 163
-0.096498579 -0.018272191 0.49526438 0.0013822158 728 154
-0.093953684 -0.018221315 0.49394155 0.0014252272 739 157
-0.091495894 -0.018185224 0.49300909 0.0013928477 746 159
-0.089111403 -0.018162237 0.49242216 0.0013946348 748 160
-0.08695025 -0.018184759 0.49306017 0.0013598915 742 158
-0.084485084 -0.018143198 0.49195224 0.0013788544 731 155
-0.082093842 -0.01811566 0.49121663 0.0013838175 726 153
-0.079489022 -0.018038094 0.48911712 0.0014321345 736 156
-0.077157609 -0.018019859 0.48861966 0.0013974336 714 150
-0.074825183 -0.018000277 0.48807937 0.0014615534 698 145
-0.072275989 -0.017925728 0.4860431 0.0013908539 720 152
-0.069534436 -0.017797174 0.48253748 0.0013926751 720 152
-0.067138121 -0.017751405 0.48127192 0.0014001395 755 161
-0.064957671 -0.017761542 0.48151788 0.001325426 783 169
-0.062512718 -0.017697509 0.47974944 0.0013442405 778 168
-0.060271289 -0.017688513 0.47946984 0.0014007183 785 170
-0.058147114 -0.017714553 0.48013699 0.0013919304 760 163
-0.055963598 -0.017723862 0.48034808 0.0013562818 754 161
-0.053921133 -0.017780447 0.48183841 0.001396075 721 152
-0.052315295 -0.017992059 0.48752746 0.0015257956 675 139
-0.049914576 -0.017937023 0.48598954 0.0014346241 686 142
-0.048031736 -0.018071664 0.48958984 0.0014719121 676 139
-0.046143524 -0.018217469 0.4934912 0.001541674 659 134
-0.043866888 -0.018217091 0.49343222 0.0015725951 660 135
-0.041525383 -0.018188257 0.49260285 0.0015147075 677 139
-0.039389107 -0.018251186 0.49425906 0.001516048 693 144
-0.037329651 -0.018359626 0.49714822 0.0013784822 756 162
-0.034889136 -0.018282581 0.49501589 0.0012643032 838 185
-0.032530777 -0.018240809 0.4938404 0.0012445091 913 206
-0.030158896 -0.018184591 0.49227583 0.0011851876 946 215
-0.027778435 -0.018113622 0.49031413 0.001239441 940 214
-0.025471995 -0.018082609 0.48943651 0.0011845105 976 224
-0.023213247 -0.018082716 0.48940372 0.0011487692 989 228
-0.020935478 -0.01806643 0.48893008 0.0011973615 979 225
-0.018609025 -0.017999118 0.4870784 0.0012123192 961 220
-0.016350809 -0.01798838 0.4867608 0.0012477477 953 217
-0.014063378 -0.017936954 0.48534542 0.0012573353 919 208
-0.011793243 -0.017892277 0.48411611 0.0011997173 920 208
-0.0095649315 -0.017904997 0.48444313 0.0012217707 914 206
-0.007318126 -0.017880296 0.48376137 0.0012575374 918 208
-0.0050714319 -0.017834283 0.48250636 0.0011994401 924 209
-0.002828229 -0.017738068 0.47989684 0.001205351 916 207
-0.00060950877 -0.017654723 0.47763917 0.0012431955 923 209
0.0015948525 -0.017642889 0.47731984 0.0012071603 923 209
0.0037912407 -0.017607756 0.47637379 0.0011953069 924 209
0.0059847673 -0.017590011 0.47590157 0.0012331484 935 212
0.0081685968 -0.017560951 0.47512674 0.0012698838 920 208
0.010356809 -0.017551621 0.47488919 0.0012156407 927 210
0.012544561 -0.017544908 0.47472578 0.0012140387 911 206
0.014670609 -0.017466728 0.47263181 0.0012425344 863 192
0.01685111 -0.017465228 0.47261578 0.0012639208 841 186
0.019052362 -0.017483117 0.47312737 0.0013230186 840 186
0.021232767 -0.017480161 0.4730778 0.0012925467 891 200
0.023444364 -0.017501043 0.47367603 0.0012320873 881 197
0.025672151 -0.017529415 0.47447968 0.0013578223 830 183
0.027977597 -0.017602189 0.47648755 0.0013464263 777 168
0.030260772 -0.017651362 0.47785893 0.0013315822 773 167
0.032432187 -0.017633097 0.47740671 0.001394898 724 153
0.034719158 -0.017675987 0.47861162 0.0015188088 706 148
0.036943905 -0.017683962 0.47887269 0.0014087586 711 149
0.039257925 -0.017731356 0.48020241 0.0014327948 696 145
0.041536629 -0.017758593 0.48098701 0.0014489456 690 143
0.043822732 -0.017786063 0.48177859 0.0014284477 701 146
0.046206415 -0.017848583 0.48351988 0.0016353467 640 129
0.048479334 -0.017864529 0.48399946 0.0015097605 635 128
0.050754432 -0.017879838 0.48446113 0.0014832355 687 142
0.052816182 -0.017821867 0.48293608 0.0014346207 758 162
0.055072546 -0.017831597 0.48324415 0.0013598609 769 165
0.057397816 -0.017862014 0.48411116 0.0013201089 783 169
0.059692342 -0.017880946 0.48466468 0.0012973166 810 177
0.061917894 -0.017878594 0.48463875 0.0013471341 807 176
0.064069554 -0.017855816 0.48405603 0.0012922396 814 178
0.066138819 -0.017812381 0.48290953 0.0013481115 817 179
0.068568721 -0.017865732 0.4843832 0.0012787674 827 182
0.070452288 -0.017777862 0.48202339 0.001256538 859 191
0.072814681 -0.0178125 0.48298028 0.0013123443 787 171
0.075193547 -0.017848991 0.48398203 0.0013617717 743 158
0.077438496 -0.017852506 0.48408383 0.0013923645 728 154
0.07961987 -0.017841576 0.48378763 0.0014144025 694 144
0.081560262 -0.017778715 0.4820762 0.0013142828 799 174
0.083477847 -0.017714346 0.48031667 0.0012803767 831 183
0.085788868 -0.017734634 0.48084465 0.0013313036 796 173
0.088918015 -0.017918769 0.48580623 0.0015590228 607 120
0.09190429 -0.018065779 0.48975161 0.001506602 669 137
0.094080381 -0.018050296 0.48928195 0.0014921802 672 138
0.096280493 -0.018040041 0.48894361 0.0014519111 666 136
0.098583139 -0.018049026 0.48911616 0.0014388602 690 143
0.10094569 -0.018068334 0.48955679 0.0015045697 665 136
0.10322215 -0.018071724 0.48955405 0.0014774721 652 132
0.10544057 -0.018065022 0.48926529 0.0015084057 685 142
0.10779996 -0.018082252 0.48961133 0.0015076213 684 141
0.11006165 -0.018082721 0.48948956 0.001529627 664 136
0.11213372 -0.018052643 0.48852673 0.001451992 699 146
0.1144299 -0.01805912 0.48853821 0.0014972117 692 144
0.11650608 -0.018031297 0.48760635 0.0014525178 667 137
0.11878145 -0.018034773 0.48750478 0.0014258191 688 143
0.12115174 -0.018052263 0.48776481 0.0015240004 692 144
0.12359075 -0.018079167 0.48826107 0.0015292411 693 144
0.12605646 -0.018108943 0.48881578 0.0014458278 673 138
0.12843283 -0.018125057 0.4889819 0.0014359164 676 139
0.13070455 -0.018126102 0.4887217 0.0013925583 716 150
0.1327779 -0.018100072 0.48771143 0.0014858836 721 152
0.13509248 -0.018107241 0.48757508 0.0013818585 729 154
0.13710606 -0.018074498 0.48634276 0.0014171947 703 147
0.139189 -0.018051814 0.48535967 0.0013897571 724 153
0.1418528 -0.018103981 0.48636547 0.0014739372 714 150
0.14412297 -0.018105064 0.48597389 0.0013961523 711 149
0.14621724 -0.01808436 0.48497349 0.0013599853 740 157
0.14848983 -0.018086001 0.48454756 0.0013390643 778 168
0.15086266 -0.018099621 0.48441631 0.0013722348 761 163
0.15317442 -0.018105621 0.484054 0.0013790036 738 157
0.15582055 -0.018150391 0.48469946 0.001370126 736 156
0.15818551 -0.018161599 0.48441896 0.0014255079 713 150
0.16059454 -0.018177476 0.48423335 0.0013770577 738 157
0.16325109 -0.018220536 0.48474076 0.0014766896 720 152
0.16532457 -0.018198235 0.48347837 0.0014182141 747 159
0.16747093 -0.018184446 0.48241323 0.0013636454 787 171
0.17038193 -0.018252943 0.48349795 0.0014255027 784 170
0.17276751 -0.018264089 0.48302859 0.001362561 753 161
0.1755362 -0.018314917 0.48357421 0.0013550045 735 156
0.17808427 -0.018341711 0.48344952 0.0013804132 762 163
0.18058671 -0.018363187 0.48314983 0.0013702564 783 169
0.1833338 -0.018408688 0.48344633 0.0013291313 771 166
0.18597303 -0.018442366 0.48339564 0.0013457383 753 161
0.18814082 -0.018429043 0.4820793 0.0013719909 765 164
0.19076942 -0.018460631 0.48190457 0.0013774224 758 162
0.19399975 -0.018548999 0.48317364 0.0013594142 746 159
0.19660175 -0.018575914 0.48280448 0.0013798134 725 153
0.19902772 -0.018585762 0.48195964 0.0013541583 753 161
0.20148312 -0.018598102 0.48114961 0.0013545306 769 165
0.20383133 -0.018600376 0.48005152 0.0013765653 732 155
0.20712446 -0.018687854 0.48112234 0.0013599525 771 166
0.21002263 -0.018738147 0.48120499 0.0014383493 763 164
0.21274902 -0.01877217 0.48084566 0.0014882255 731 155
0.21492253 -0.018757202 0.47921515 0.001376315 716 150
0.21802257 -0.018822547 0.47962251 0.0013887844 733 155
0.22130075 -0.018901713 0.48036656 0.0014560227 729 154
0.22400226 -0.018930471 0.47982252 0.001424811 743 158
0.22704823 -0.018987436 0.47999388 0.0014421376 666 136
0.2294528 -0.018990139 0.47880286 0.0015029858 671 138
0.23278917 -0.019069117 0.47955057 0.0014700349 661 135
0.23565648 -0.019108459 0.47932288 0.0015405436 631 126
0.23817725 -0.019119196 0.47841209 0.001509083 637 128
0.2413395 -0.019180698 0.47881377 0.0015819359 584 113
0.24432564 -0.019227134 0.47888842 0.0017978059 557 106
0.24702762 -0.019250523 0.47844946 0.0018315621 530 98
0.24981198 -0.019279819 0.4782275 0.0018313901 502 90
0.25406271 -0.019420641 0.48084497 0.0018332964 460 78
-0.30670777 -0.01816527 0.51206797 0.0029153747 237 15
-0.30309722 -0.018104497 0.50979686 0.0030936201 260 22
-0.30035287 -0.018094866 0.50907141 0.0026825294 280 27
-0.29815233 -0.018118111 0.5093779 0.0026871804 312 36
-0.29534867 -0.018104799 0.50876701 0.0027141033 299 33
-0.29254007 -0.018090937 0.50825495 0.0026963493 300 33
-0.2898916 -0.018086826 0.50813258 0.0024251253 318 38
-0.28768128 -0.018110219 0.5089007 0.002324264 326 40
-0.28522062 -0.018118136 0.50935233 0.0025756252 326 40
-0.28208005 -0.018082611 0.50870001 0.0024418246 337 43
-0.27954689 -0.018085729 0.50925022 0.0023828808 359 50
-0.27635694 -0.018046018 0.50870699 0.0021239221 371 53
-0.27320236 -0.018007888 0.50831461 0.0021265128 396 60
-0.27081519 -0.018020099 0.5094462 0.0019824379 433 70
-0.26807025 -0.018008508 0.51000267 0.0018453528 459 78
-0.26422021 -0.017921736 0.50851494 0.0018676586 459 78
-0.26080966 -0.017863372 0.50790679 0.0018229525 467 80
-0.25706616 -0.017780822 0.5066753 0.0017907989 480 84
-0.25392359 -0.017738607 0.5066483 0.0016985321 517 94
-0.25084457 -0.017700026 0.50677341 0.0016593634 543 102
-0.24677435 -0.017590003 0.50488693 0.0016785943 536 100
-0.24495283 -0.017639656 0.5076142 0.0017385423 533 99
-0.24112584 -0.017544424 0.50619483 0.001634072 578 111
-0.23743036 -0.017456857 0.50500071 0.0015524747 606 119
-0.23425181 -0.017405845 0.50486344 0.0016515322 605 119
-0.23090824 -0.017341351 0.50432938 0.0015294111 620 123
-0.22799385 -0.01730803 0.5046913 0.001532436 618 123
-0.2252468 -0.017286828 0.50539351 0.0015586162 604 119
-0.22244516 -0.01726092 0.50594085 0.0014818943 642 130
-0.21874164 -0.017163664 0.50436968 0.0014198086 686 142
-0.21593644 -0.017135488 0.50479782 0.0014628001 693 144
-0.21274139 -0.01707538 0.50425428 0.0013952352 704 147
-0.20996277 -0.017047688 0.50463462 0.0014358152 696 145
-0.20720404 -0.017020982 0.50501138 0.0015279101 663 135
-0.20441462 -0.016991088 0.50525904 0.001478804 652 132
-0.20096037 -0.016904553 0.50378275 0.0014799081 654 133
-0.19806626 -0.016863607 0.50362408 0.0014798698 658 134
-0.19566603 -0.016864218 0.50467032 0.0014958592 642 130
-0.19281359 -0.016825384 0.50449997 0.0015326177 656 134
-0.18958284 -0.016752142 0.50325733 0.00158371 674 139
-0.18645792 -0.016686499 0.50220084 0.0014367874 712 149
-0.18411347 -0.016689906 0.50318527 0.0014369767 677 139
-0.18143713 -0.016662924 0.50321853 0.0015773163 660 135
-0.17842764 -0.016604222 0.50225604 0.0015685866 664 136
-0.17552127 -0.016553665 0.5015015 0.0014195661 696 145
-0.17307371 -0.016545588 0.50199908 0.00144751 679 140
-0.17073201 -0.016547548 0.50276875 0.0016006384 649 132
-0.16804336 -0.016515465 0.50247145 0.0014776656 660 135
-0.16544242 -0.016491214 0.50237948 0.001529356 610 120
-0.16255583 -0.016437376 0.50135314 0.0015402009 606 119
-0.16007629 -0.016423726 0.50152069 0.0016371505 612 121
-0.15770721 -0.016421169 0.50199795 0.0016176733 627 125
-0.15521723 -0.016405758 0.50205362 0.001513059 625 125
-0.15240619 -0.01635542 0.50101125 0.0016223507 627 125
-0.14874622 -0.016210994 0.49705467 0.0014252147 691 143
-0.14544845 -0.016102102 0.49415496 0.0012964861 827 182
-0.14313564 -0.016100507 0.49452052 0.0012982254 843 186
-0.14075838 -0.01609149 0.49463397 0.0012617696 845 187
-0.13858168 -0.016105482 0.49543166 0.0012120388 900 202
-0.13626161 -0.016103005 0.49570048 0.0012748231 897 202
-0.1340853 -0.016117726 0.49647713 0.0012472743 910 205
-0.13163795 -0.016099807 0.49622729 0.0012226992 926 210
-0.12924442 -0.016087953 0.49614349 0.0011910225 934 212
-0.12685178 -0.016075782 0.49602991 0.0012533854 919 208
-0.12472966 -0.016098078 0.49696076 0.0012699687 897 202
-0.12249095 -0.016105877 0.49742645 0.0012621287 849 188
-0.12020913 -0.016108204 0.49770543 0.0012353872 872 195
-0.11786148 -0.016101625 0.49769232 0.0012498322 880 197
-0.11549971 -0.016092815 0.4975937 0.0013512881 837 185
-0.1131448 -0.016084624 0.49749839 0.0013529084 845 187
-0.11090737 -0.01609314 0.49790475 0.0013475397 862 192
-0.108482 -0.016074173 0.49744627 0.0012549624 856 190
-0.10595382 -0.01603882 0.49646661 0.0012709791 840 186
-0.10376681 -0.016054692 0.4970592 0.001308093 812 178
-0.10149157 -0.016057318 0.4972294 0.0012931458 804 175
-0.098658599 -0.015969791 0.4945955 0.001366829 775 167
-0.096764922 -0.016033757 0.49664217 0.0014305342 773 167
-0.094288968 -0.016002007 0.49571338 0.0013408011 769 165
-0.091686957 -0.015946753 0.49404606 0.0014282143 773 167
-0.089375809 -0.015940566 0.49388918 0.001359584 745 159
-0.087040223 -0.015929582 0.4935748 0.0013571237 755 161
-0.084672935 -0.015912047 0.49304903 0.001421595 754 161
-0.082241766 -0.015881212 0.49210313 0.0013628899 748 160
-0.07980711 -0.015847938 0.49107432 0.0013620231 766 165
-0.077393979 -0.015817121 0.49011502 0.0014024687 714 150
-0.075018071 -0.015792288 0.48933476 0.0015089064 669 137
-0.072558023 -0.015747653 0.48793542 0.00151121 669 137
-0.069982685 -0.015674345 0.48564249 0.0014140148 705 147
-0.067290559 -0.015569168 0.48235792 0.00138919 718 151
-0.064882532 -0.015524788 0.48095277 0.0014325065 737 156
-0.062650017 -0.015520745 0.4807938 0.0013805026 727 154
-0.060151342 -0.015448058 0.47850525 0.0013372197 773 167
-0.057883807 -0.015431453 0.47795126 0.0013468028 787 171
-0.055519711 -0.015386773 0.47652549 0.0013403321 779 168
-0.053503886 -0.015438912 0.47809613 0.0013422894 774 167
-0.051630761 -0.015538474 0.48113337 0.0013964784 716 150
-0.049426164 -0.015542741 0.48121834 0.0013692639 748 160
-0.047147401 -0.015522988 0.48055899 0.0014073109 721 152
-0.045515746 -0.015724853 0.48675931 0.0014621743 697 145
-0.043131374 -0.015674122 0.48514006 0.0014259603 691 143
-0.04116974 -0.015779864 0.48836419 0.0015439508 672 138
-0.039157338 -0.015877271 0.49133006 0.0014421508 705 147
-0.037160035 -0.015993139 0.49486756 0.0014402973 683 141
-0.035141222 -0.016114313 0.49856982 0.0014752351 704 147
-0.032559659 -0.015976334 0.49425572 0.0013427668 801 174
-0.030167978 -0.015917761 0.49240035 0.001239008 864 192
-0.027803348 -0.01586508 0.4907296 0.0012733105 920 208
-0.025477212 -0.01582697 0.48951209 0.0011699336 963 220
-0.023202505 -0.015816495 0.48915198 0.0012063765 980 225
-0.020941248 -0.015813924 0.48903903 0.0011591596 993 229
-0.018654151 -0.015788861 0.48823345 0.0011751954 954 218
-0.016352419 -0.015742816 0.48678225 0.0011853462 938 213
-0.014086255 -0.0157218 0.48610824 0.0011736706 953 217
-0.011820843 -0.015693814 0.48522219 0.0011838886 942 214
-0.0095779924 -0.015689697 0.48507756 0.0011954344 928 210
-0.0073205773 -0.015651926 0.48389602 0.0012554439 927 210
-0.0050627468 -0.015579696 0.48165283 0.0011758818 949 216
-0.0028281764 -0.015521935 0.47986063 0.0011821 949 216
-0.00061014685 -0.015465463 0.47811192 0.0011790558 948 216
0.0015945416 -0.015435925 0.47719958 0.0012121462 953 217
0.0037951225 -0.015423967 0.47683439 0.0011995422 926 210
0.0059883408 -0.015401852 0.47615874 0.0011942295 929 211
0.0081701232 -0.015370104 0.47518885 0.001185391 945 215
0.010363707 -0.0153693 0.47517905 0.0011972397 946 215
0.012541852 -0.015349878 0.47459701 0.0012123891 906 204
0.014698001 -0.015313318 0.47348845 0.0012370199 877 196
0.016886756 -0.015315799 0.47359002 0.0012612758 849 188
0.019063329 -0.015307928 0.47337461 0.0012901902 833 184
0.021249399 -0.015308518 0.47342369 0.0012933421 856 190
0.023446845 -0.01531643 0.47370192 0.0012617343 885 198
0.025655774 -0.015329851 0.47415316 0.0013177643 840 186
0.027880665 -0.015349953 0.47481349 0.0013426248 838 185
0.030188831 -0.015409632 0.47670034 0.0014508645 758 162
0.032396358 -0.015413321 0.47685716 0.0013832238 732 155
0.034570344 -0.015401602 0.47653884 0.0014370487 725 153
0.036835607 -0.015429515 0.47744831 0.0014519354 717 151
0.03914506 -0.015471743 0.47880191 0.0014397725 678 140
0.041397069 -0.015487971 0.47935182 0.0014541592 679 140
0.043695804 -0.015519147 0.48036498 0.0014589444 679 140
0.046058498 -0.015568937 0.48195466 0.0014601921 665 136
0.048284631 -0.015570105 0.48203909 0.0014324738 691 143
0.050536271 -0.015579032 0.48236325 0.0014029484 711 149
0.052832384 -0.015600338 0.48306978 0.001379492 729 154
0.054979008 -0.015577568 0.48240995 0.0013153516 791 172
0.057228073 -0.015584464 0.48266721 0.0014018418 795 173
0.059551626 -0.015610368 0.48351106 0.0013908172 778 168
0.061894279 -0.015639231 0.48444393 0.0013006999 810 177
0.064126104 -0.015639056 0.48447445 0.0013775631 798 174
0.066127531 -0.015584594 0.48281962 0.0013454697 833 184
0.068198681 -0.015549574 0.48176298 0.001363009 819 180
0.070414253 -0.01554865 0.48175821 0.0013171121 824 181
0.072805874 -0.015585471 0.48291814 0.0013502539 766 165
0.075178236 -0.015616111 0.48388129 0.001416211 716 150
0.077112034 -0.015556507 0.48204216 0.0013965019 725 153
0.079325028 -0.015554987 0.4819966 0.0014886247 683 141
0.081467614 -0.01554012 0.48153055 0.0014173121 710 149
0.083466791 -0.015499413 0.48025647 0.0013438012 800 174
0.085514173 -0.015469528 0.47930995 0.0012617798 848 188
0.088358328 -0.015581654 0.48275492 0.0014879366 668 137
0.091680713 -0.015770536 0.48856831 0.0015296279 660 135
0.094028942 -0.015786814 0.48902413 0.0015699406 672 138
0.09618707 -0.015771158 0.48848069 0.0014493738 668 137
0.098598041 -0.015796725 0.48920318 0.0014667208 690 143
0.10085783 -0.015797472 0.48914546 0.0016022867 651 132
0.1031327 -0.015800497 0.48914617 0.0015720911 667 137
0.10541129 -0.015803948 0.48914751 0.0014175858 701 146
0.1077445 -0.015815271 0.48937923 0.0015585684 691 143
0.11003432 -0.015819892 0.48938966 0.0015240868 698 145
0.11223657 -0.015811993 0.4889982 0.0014566504 665 136
0.11430202 -0.015785508 0.48801735 0.0014478553 682 141
0.11653448 -0.015782671 0.48775226 0.0014646659 700 146
0.11861953 -0.015760353 0.48686904 0.001508939 715 150
0.12089151 -0.01576324 0.48674789 0.00142618 714 150
0.12327842 -0.015780732 0.48705971 0.0013852709 721 152
0.12572221 -0.015804751 0.48755422 0.0014131796 704 147
0.12819147 -0.015831068 0.48809978 0.0014907587 725 153
0.12996764 -0.015772359 0.4860048 0.0013857388 726 153
0.13248569 -0.015804147 0.48667857 0.0013865799 730 154
0.13486189 -0.015818236 0.48678544 0.0014100999 727 154
0.13718919 -0.01582622 0.48668227 0.0015102751 675 139
0.13905765 -0.01578187 0.48494825 0.0014338237 717 151
0.1415074 -0.015803853 0.48522994 0.0013672719 745 159
0.14391947 -0.015821006 0.48533854 0.0013983879 709 148
0.14618611 -0.015821885 0.48492301 0.0013875322 722 152
0.1484337 -0.015820712 0.48441947 0.0014180631 715 150
0.15073639 -0.015825354 0.48406798 0.0015030215 706 148
0.15333429 -0.015860397 0.48461857 0.0014501142 721 152
0.15582782 -0.015883783 0.48478368 0.0014733349 715 150
0.15813759 -0.015888033 0.48433602 0.0014244876 693 144
0.16105968 -0.015952813 0.48570216 0.0013802282 710 149
0.16317536 -0.015937028 0.48458415 0.0013759045 740 157
0.16507299 -0.015900673 0.48281309 0.0014163349 744 158
0.16746128 -0.015911924 0.48245814 0.0013214493 773 167
0.17062104 -0.015995199 0.48425165 0.0013522683 762 163
0.1730509 -0.016008751 0.48389837 0.0013603694 742 158
0.17550498 -0.016024161 0.4835678 0.0014645902 742 158
0.17796278 -0.016039511 0.4832015 0.0014277165 770 166
0.18067119 -0.016076772 0.48345986 0.0013355444 779 168
0.1834299 -0.016117513 0.48378599 0.0013301135 771 166
0.18573102 -0.016117541 0.48285484 0.0014201863 759 163
0.18824989 -0.016136231 0.482449 0.0013095618 792 172
0.19099608 -0.016173718 0.48256937 0.0013226107 781 169
0.19357167 -0.016196039 0.48220173 0.0014176549 748 160
0.19663855 -0.01625845 0.48299092 0.0014577669 714 150
0.19903833 -0.016264893 0.48208296 0.0014537296 724 153
0.20136869 -0.01626558 0.48097521 0.0013483656 757 162
0.20395723 -0.016286865 0.48044804 0.0013688289 734 156
0.20638226 -0.016294764 0.47949925 0.0013842186 750 160
0.20956913 -0.016361969 0.48026785 0.0013810906 729 154
0.21240462 -0.016400555 0.48016974 0.0013409994 769 165
0.21503805 -0.01642287 0.47957525 0.0013480622 769 165
0.21758594 -0.016438246 0.47876424 0.0013658245 738 157
0.22032243 -0.016467387 0.47834465 0.0013715622 734 156
0.2241441 -0.016576162 0.48022735 0.0013862201 705 147
0.22668929 -0.016589256 0.47933432 0.0013805192 729 154
0.22947863 -0.016619759 0.4789539 0.001512064 674 139
0.23221567 -0.016645888 0.47846356 0.0015550386 650 132
0.23533858 -0.016698869 0.47876748 0.0015979507 609 120
0.23753633 -0.016685799 0.47721177 0.0016308358 623 124
0.24062815 -0.01673517 0.47748518 0.0015759475 575 111
0.24398039 -0.016801504 0.47828957 0.0017014355 557 106
0.24705985 -0.016847944 0.47858426 0.0017923152 526 97
0.24953687 -0.0168528 0.47776687 0.0017052878 514 93
0.25169858 -0.016836472 0.47642991 0.0018796091 511 93
-0.3032496 -0.015396547 0.50626123 0.0031288958 237 15
-0.30225039 -0.015476667 0.50834471 0.0029570847 260 22
-0.29998147 -0.015492592 0.50841963 0.0029558819 254 20
-0.29763386 -0.01550469 0.50847572 0.0026829436 274 26
-0.29527545 -0.015516436 0.50863087 0.0024810792 291 30
-0.29263264 -0.015513313 0.5084123 0.0024772275 300 33
-0.29003546 -0.015512573 0.50838798 0.00247359 304 34
-0.2874673 -0.015513386 0.50853223 0.0023663566 337 43
-0.28423563 -0.015478081 0.5076105 0.0023191415 325 40
-0.28222564 -0.015509266 0.50898683 0.0023885348 331 42
-0.27935076 -0.015493063 0.50892442 0.002384115 354 48
-0.27637506 -0.01547091 0.50877863 0.0020811914 380 55
-0.27305463 -0.015428863 0.50808495 0.0020992153 409 64
-0.26982886 -0.015391416 0.50764251 0.0018742059 449 75
-0.26852289 -0.015463811 0.51092219 0.0020351841 443 73
-0.26319906 -0.015303981 0.50661331 0.00183143 470 81
-0.26031873 -0.015284499 0.50701988 0.0018594974 482 84
-0.25670528 -0.015221162 0.50603789 0.0017347041 505 91
-0.25371704 -0.015194001 0.5063144 0.0017799105 516 94
-0.25062698 -0.015160133 0.50641584 0.0016322227 552 104
-0.24734282 -0.015113718 0.50613523 0.0016985735 586 114
-0.24365911 -0.015041682 0.50502092 0.001682846 565 108
-0.24058852 -0.015006392 0.50515664 0.0015897165 582 113
-0.23751277 -0.014970038 0.50526756 0.001703573 593 116
-0.23389925 -0.014898655 0.50419611 0.0015216303 621 124
-0.23084465 -0.014861728 0.50428367 0.0016072536 610 120
-0.22791368 -0.014832042 0.50460732 0.001571973 582 113
-0.22505243 -0.014806296 0.5050509 0.0016884446 597 117
-0.22178422 -0.014752909 0.50453073 0.001505891 632 127
-0.21887864 -0.014722718 0.50477815 0.0014824865 661 135
-0.21606438 -0.014698053 0.50518864 0.0015694854 646 131
-0.21258636 -0.014627153 0.50397712 0.0015062765 718 151
-0.20988861 -0.014608919 0.50454563 0.0014698126 665 136
-0.20676571 -0.014560319 0.50403076 0.0014401802 676 139
-0.20425057 -0.014553873 0.50493985 0.0014901242 655 133
-0.20062009 -0.014466842 0.50301397 0.00145357 660 135
-0.19798556 -0.014450389 0.50350136 0.0015687949 643 130
-0.19562003 -0.014453403 0.50463253 0.0014893013 652 132
-0.19306587 -0.014442382 0.50523901 0.0014803539 645 130
-0.18975037 -0.014373417 0.50377887 0.0014611909 700 146
-0.18650085 -0.014307746 0.5023911 0.0014040758 700 146
-0.18384229 -0.014286302 0.50251681 0.0014475998 674 139
-0.18123244 -0.014268129 0.50272137 0.0014341219 685 142
-0.17858067 -0.014246129 0.50275528 0.0015699158 629 126
-0.17531306 -0.014173747 0.50097293 0.001448316 670 137
-0.17267846 -0.014151268 0.50091684 0.0015541508 672 138
-0.17011982 -0.014134473 0.50102812 0.0014924712 638 128
-0.16778475 -0.014136048 0.5017584 0.0016421583 618 123
-0.16513097 -0.014110433 0.50149196 0.0015500683 602 118
-0.16245346 -0.014082018 0.50109345 0.0016887528 601 118
-0.16003983 -0.014075985 0.50146067 0.0015265547 629 126
-0.15758069 -0.014065707 0.50164741 0.0015209572 624 124
-0.15486459 -0.014031838 0.50096315 0.001474251 667 137
-0.15175374 -0.013960614 0.49891448 0.0015136764 631 126
-0.14895341 -0.013916185 0.49779302 0.0014123552 753 161
-0.14524136 -0.013783828 0.49349511 0.0012369914 879 197
-0.14275676 -0.013765579 0.49325329 0.0012267366 883 198
-0.14076753 -0.013795282 0.49470624 0.0012462701 862 192
-0.13861419 -0.013809619 0.49558628 0.0012702153 888 199
-0.13647863 -0.013826245 0.4965266 0.0011838004 941 214
-0.13422874 -0.013831655 0.49704307 0.0012540702 937 213
-0.13196309 -0.013835603 0.49748614 0.0012632757 949 216
-0.1295137 -0.013820086 0.49720854 0.0012550087 925 210
-0.12726262 -0.01382555 0.49766597 0.0011940297 923 209
-0.12474324 -0.013801533 0.49704278 0.0011692453 954 218
-0.1225064 -0.013808461 0.49751556 0.0012416915 936 213
-0.12007431 -0.013793224 0.49717185 0.0012405001 902 203
-0.11797965 -0.01381691 0.49821422 0.0012678127 906 204
-0.11568031 -0.013817092 0.49839315 0.0012506514 882 197
-0.11325742 -0.013802223 0.49801335 0.0012798894 901 203
-0.1108527 -0.013789001 0.49767756 0.0012337419 908 205
-0.10857339 -0.013791148 0.49788195 0.0013094577 863 192
-0.10612433 -0.013771359 0.49728057 0.0012625305 893 201
-0.10389636 -0.013780021 0.4976933 0.0012329579 881 197
-0.10163444 -0.013784466 0.49794143 0.001257019 844 187
-0.09908399 -0.013749084 0.49673867 0.0012828746 875 195
-0.096683919 -0.013733386 0.49623552 0.0012404872 871 194
-0.094255395 -0.013712791 0.49554452 0.0013086445 839 185
-0.091785878 -0.01368506 0.49458542 0.001333417 820 180
-0.089445442 -0.013675651 0.49427894 0.0013763664 766 165
-0.087175161 -0.013676758 0.49434349 0.0013283096 776 167
-0.084766656 -0.013655655 0.49359691 0.0013503851 759 163
-0.082374237 -0.013636054 0.49289671 0.0014308138 745 159
-0.080069691 -0.0136303 0.49268976 0.0013707341 738 157
-0.077643685 -0.013602928 0.49169469 0.0014081263 708 148
-0.075219788 -0.013574295 0.4906477 0.0014729107 660 135
-0.072960377 -0.013574489 0.49063724 0.0015039956 667 137
-0.07037735 -0.013512562 0.48837614 0.0014519417 677 139
-0.067507915 -0.013389735 0.4839097 0.001460197 703 147
-0.065063477 -0.013345693 0.48228681 0.0014014408 716 150
-0.062537298 -0.013281178 0.4799206 0.0014352034 719 151
-0.060129926 -0.013238086 0.47832564 0.0013532239 756 162
-0.05768995 -0.013184265 0.47634038 0.0013125753 795 173
-0.055340994 -0.013147809 0.47498044 0.0013064467 817 179
-0.053342573 -0.01319506 0.47664255 0.001326178 800 174
-0.051187456 -0.013205944 0.4769893 0.0013750788 798 174
-0.049011756 -0.013212256 0.47716972 0.001300119 818 179
-0.046890609 -0.013234559 0.47792679 0.0013337187 784 170
-0.044719622 -0.013244302 0.47822973 0.001433132 765 164
-0.042472158 -0.013231229 0.47770876 0.0013906307 766 165
-0.040748592 -0.013388867 0.48335111 0.0013857668 728 154
-0.038449213 -0.013364605 0.48242673 0.0013665492 757 162
-0.036247384 -0.013373353 0.48269504 0.0014395221 729 154
-0.034542136 -0.013578448 0.49005076 0.0014469159 700 146
-0.032377236 -0.013618935 0.49146631 0.0015195396 713 150
-0.03015418 -0.013639214 0.49215421 0.0013705691 738 157
-0.027848391 -0.013622328 0.4915033 0.0013033607 791 172
-0.025496021 -0.013577639 0.48985168 0.0012426903 863 192
-0.023217011 -0.013567124 0.48943558 0.0012488997 944 215
-0.020941526 -0.01355662 0.48902288 0.0011810054 990 228
-0.018625172 -0.013513929 0.48745209 0.0011794779 949 216
-0.016346525 -0.013490622 0.48658368 0.0012262502 939 214
-0.014053959 -0.013446568 0.48497042 0.0012081654 955 218
-0.011834278 -0.013468767 0.48574993 0.0011909859 958 219
-0.0095423777 -0.013399934 0.48325008 0.001203634 948 216
-0.0072819144 -0.013346706 0.48131657 0.0011603055 977 224
-0.00505294 -0.013329779 0.48069587 0.0011457741 996 230
-0.0028258082 -0.013294993 0.47943494 0.0011747788 981 225
-0.00061016309 -0.013258077 0.47810075 0.0011551712 985 227
0.0015964676 -0.013248385 0.47775209 0.0012229997 968 222
0.0037998499 -0.013238622 0.47740453 0.0011946617 933 212
0.0060023088 -0.013233991 0.47724578 0.0012106467 935 212
0.0082035782 -0.013229931 0.47711107 0.0011994544 964 221
0.01034394 -0.013150156 0.47424936 0.001170354 962 220
0.012543556 -0.013160427 0.47463849 0.0012051051 915 207
0.014728952 -0.013154942 0.47446266 0.0012129807 901 203
0.016901638 -0.013140995 0.47398499 0.001244612 863 192
0.019063462 -0.013122767 0.47335577 0.0012515434 856 190
0.021222001 -0.013106262 0.47279155 0.0012867682 886 199
0.023417367 -0.013113457 0.47308511 0.0012880008 907 204
0.025621496 -0.013123914 0.47349891 0.0012508398 876 196
0.027824672 -0.013132276 0.47383952 0.001249394 858 191
0.030147247 -0.013191666 0.47602379 0.0013851742 814 178
0.03236483 -0.013200168 0.47637373 0.0014273319 736 156
0.034451317 -0.013157519 0.47487938 0.0013653638 731 155
0.036639098 -0.013156345 0.47488326 0.0013509977 768 165
0.039002702 -0.013214874 0.47704327 0.0014360028 689 143
0.041247021 -0.013228895 0.47759765 0.0014136406 704 147
0.043651875 -0.01329037 0.47986603 0.0014563751 679 140
0.045909323 -0.0133032 0.48037842 0.0015632482 681 141
0.048142478 -0.013308131 0.48060542 0.0014751886 708 148
0.050485805 -0.013341744 0.48186791 0.0014174889 707 148
0.052794177 -0.013363674 0.48270765 0.001418386 734 156
0.055031586 -0.013366596 0.48285949 0.0013544735 752 161
0.057219006 -0.013357621 0.48257986 0.0013628999 772 166
0.059376899 -0.01334268 0.48208246 0.0013520395 774 167
0.061728235 -0.013370721 0.48313549 0.001352906 814 178
0.064242296 -0.013430827 0.48534441 0.0013223045 781 169
0.066125326 -0.013359401 0.4827967 0.0013069561 799 174
0.068255797 -0.01334099 0.48216072 0.0013460212 800 174
0.070409104 -0.013328061 0.48171851 0.001337375 771 166
0.072483964 -0.013301527 0.48077959 0.0014583732 726 153
0.07457196 -0.013278906 0.47997674 0.0014555033 731 155
0.076801538 -0.013282074 0.48010027 0.0013805995 735 156
0.079194792 -0.013312575 0.48120546 0.0014727036 677 139
0.08130832 -0.013295677 0.48059052 0.0014566904 668 137
0.083300546 -0.013260363 0.47930267 0.0014073132 706 148
0.085475989 -0.013255286 0.47909993 0.0014091219 707 148
0.089089014 -0.013467789 0.48675254 0.0016169356 620 123
0.091644578 -0.013513921 0.48838258 0.0015717177 584 113
0.094075643 -0.013539921 0.48927522 0.001583114 667 137
0.096500479 -0.013563831 0.49008191 0.0014667922 661 135
0.098801121 -0.01356959 0.49022189 0.0014587204 663 135
0.10097326 -0.013557835 0.48971772 0.0014969562 691 143
0.10307205 -0.013536964 0.4888725 0.001424172 690 143
0.10532084 -0.013536263 0.48874328 0.001586905 668 137
0.10766581 -0.013547694 0.48903891 0.0014507952 663 135
0.11005621 -0.013564257 0.48950559 0.0014483375 674 139
0.11221375 -0.013552029 0.48891893 0.0014416772 682 141
0.11430147 -0.013532017 0.48803672 0.0014532999 664 136
0.11632253 -0.013505042 0.48688838 0.0013698353 725 153
0.11862458 -0.013511091 0.48691458 0.0013969009 738 157
0.12085928 -0.013509388 0.48664451 0.0014599473 719 151
0.12320974 -0.013520451 0.4868165 0.0013966163 707 148
0.12565778 -0.013541632 0.48733416 0.0013856352 721 152
0.127777 -0.013527257 0.48655301 0.001472095 698 145
0.12983657 -0.013507173 0.48554778 0.0014951546 704 147
0.13217339 -0.013516127 0.48556632 0.0014156033 697 145
0.13436672 -0.013510348 0.48503464 0.0014136434 739 157
0.13667442 -0.013516074 0.48489437 0.0013602285 737 156
0.1391878 -0.013541624 0.48544222 0.0014865884 679 140
0.14132671 -0.013530509 0.48465219 0.0014275088 703 147
