# .PCD v0.7 - Point Cloud Data file format
VERSION 0.7
FIELDS x y z noise intensity gray
SIZE 4 4 4 4 2 1
TYPE F F F F U U
COUNT 1 1 1 1 1 1
WIDTH 845
HEIGHT 1
VIEWPOINT 0 0 0 1 0 0 0
POINTS 845
DATA ascii
-0.26775858 -0.041097578 0.50853646 0.0018432353 459 66
-0.26449615 -0.04098992 0.50807732 0.0017879673 499 76
-0.26081291 -0.040814314 0.50685757 0.001711015 514 80
-0.25715142 -0.040638674 0.50570869 0.0018193289 529 84
-0.2542322 -0.040578 0.50605518 0.0016837155 560 92
-0.25154364 -0.040553294 0.50691003 0.0016008847 570 95
-0.24788089 -0.040369436 0.50582182 0.0017029478 593 100
-0.24400787 -0.040147197 0.50428379 0.0016006299 575 96
-0.24096364 -0.040058117 0.50444317 0.0016169728 612 105
-0.23815408 -0.040006589 0.5050965 0.0015814664 587 99
-0.23521116 -0.039931331 0.50546396 0.0015546562 598 102
-0.23181754 -0.03977713 0.50483453 0.0015674363 652 116
-0.22856219 -0.03964356 0.50446099 0.0014939865 636 112
-0.22555959 -0.039551385 0.50460374 0.0015005271 645 114
-0.22257258 -0.039459929 0.50474143 0.0014669838 658 117
-0.21965651 -0.03937915 0.50499678 0.0014313649 694 126
-0.2168248 -0.039311826 0.50540274 0.0014439333 670 120
-0.21374989 -0.039198365 0.50518888 0.0014489293 678 122
-0.21048419 -0.03904688 0.50445294 0.001386576 716 132
-0.20683238 -0.038819376 0.50269699 0.0014373405 752 141
-0.20405504 -0.038752548 0.50298464 0.0014055163 707 130
-0.20156251 -0.038738847 0.50392962 0.001520802 660 118
-0.19827129 -0.038569454 0.50281292 0.0014841019 742 139
-0.19555558 -0.038509212 0.5030809 0.0013685357 741 139
-0.19237031 -0.038353857 0.50206786 0.0014714751 740 138
-0.18952851 -0.038263928 0.50187171 0.00139794 722 134
-0.18656699 -0.038147215 0.50128585 0.0013951716 725 134
-0.18350078 -0.038005803 0.50033575 0.0014206327 737 138
-0.17998992 -0.037767384 0.4980666 0.0012139292 905 181
-0.17690931 -0.037614111 0.49687874 0.0012269105 874 173
-0.17417902 -0.037532188 0.4965958 0.0013375324 764 145
-0.17126203 -0.037407257 0.49570742 0.0013677189 788 151
-0.16801649 -0.037206113 0.49377126 0.0012732804 862 170
-0.16503227 -0.037058003 0.49250129 0.0012294108 962 196
-0.16249409 -0.037007269 0.49249151 0.0012316924 976 199
-0.1604434 -0.037067682 0.49393168 0.0011661613 958 194
-0.1581267 -0.037067521 0.49453649 0.0011281322 1017 210
-0.15561305 -0.037020497 0.49448705 0.0010947115 1068 223
-0.15342644 -0.037051026 0.4954454 0.0011296271 1026 212
-0.15114965 -0.03706038 0.49609438 0.0011319226 1013 209
-0.14850898 -0.036979422 0.49550691 0.0011671181 974 199
-0.14623454 -0.036988534 0.49609977 0.0011744405 956 194
-0.14386132 -0.03697256 0.49633113 0.001172257 958 194
-0.14113398 -0.036863562 0.49528807 0.0011853472 939 190
-0.13857628 -0.036795989 0.49477613 0.0012020394 927 187
-0.13651279 -0.036859591 0.49600506 0.0011953771 923 185
-0.13427621 -0.036877826 0.49660248 0.001266258 926 186
-0.13188684 -0.036854014 0.49661213 0.0012168852 931 188
-0.1294985 -0.036829632 0.49659303 0.0011816924 942 190
-0.1271358 -0.036811799 0.4966419 0.001247318 908 182
-0.12477358 -0.036793455 0.49666423 0.0012135955 903 180
-0.12228515 -0.036736507 0.49614629 0.0012427778 928 187
-0.11980967 -0.036681343 0.49563387 0.0011957899 967 197
-0.11739361 -0.036642566 0.49532503 0.0012264792 959 195
-0.11501727 -0.036614899 0.49514934 0.0012594397 925 186
-0.1127964 -0.036636606 0.49562529 0.0011700013 962 196
-0.11057021 -0.036657453 0.49607465 0.0012165797 961 195
-0.10821444 -0.036635309 0.49592751 0.0012136718 958 194
-0.1058318 -0.036602914 0.49562719 0.0011700675 966 197
-0.10337245 -0.036541965 0.49492675 0.0012101361 925 186
-0.10097764 -0.036501601 0.4944917 0.0012104366 902 180
-0.098627068 -0.036475729 0.49424076 0.0012354903 866 171
-0.096124172 -0.036390971 0.49317992 0.0012589551 876 173
-0.09374436 -0.036349833 0.49269888 0.0012049684 906 181
-0.091342203 -0.036297765 0.49205923 0.0012473052 864 170
-0.088945232 -0.036245164 0.4914023 0.0012761098 833 162
-0.086606108 -0.036214005 0.49102661 0.0012768897 848 166
-0.084363103 -0.036222439 0.49117902 0.0012715383 840 164
-0.082322024 -0.036320429 0.49253774 0.0013133789 794 152
-0.079778954 -0.036196221 0.49087557 0.0014227924 775 147
-0.077235311 -0.036064491 0.48910409 0.0013411712 759 143
-0.074714184 -0.035935678 0.48736539 0.0013861188 778 148
-0.072456799 -0.035929669 0.48728618 0.0013999895 789 151
-0.069883637 -0.03576168 0.48500448 0.0013457062 826 160
-0.067482911 -0.035673745 0.48380342 0.0012504827 858 169
-0.065200083 -0.03564427 0.48339048 0.0012910899 868 171
-0.062962882 -0.035638522 0.48329532 0.0012585156 884 175
-0.060611468 -0.035565343 0.48228189 0.0012085156 915 183
-0.05830127 -0.035511699 0.48153016 0.0012331893 880 174
-0.056218758 -0.035597976 0.48267287 0.001209253 915 183
-0.05406728 -0.035645902 0.48329291 0.001290992 894 178
-0.051913761 -0.035696529 0.48394755 0.001212155 907 181
-0.049774427 -0.035761904 0.48480013 0.0012304732 880 174
-0.047787808 -0.035948299 0.48729187 0.0012916289 814 157
-0.045644872 -0.036029693 0.48835891 0.0013591953 799 154
-0.043412972 -0.036045671 0.48853865 0.0013867221 796 153
-0.041087694 -0.03598161 0.48763341 0.0013130545 796 153
-0.038900983 -0.036038518 0.4883675 0.0012834119 832 162
-0.036705624 -0.036093902 0.48908123 0.0013186869 865 171
-0.0343857 -0.036026035 0.48812556 0.001276238 894 178
-0.032172121 -0.036067892 0.48865744 0.0012397508 871 172
-0.029971521 -0.036131687 0.48948768 0.001264516 842 165
-0.027732028 -0.036155175 0.48977324 0.0012533137 870 172
-0.025497254 -0.03618953 0.49020749 0.0012590622 869 172
-0.023214681 -0.036156118 0.48972583 0.0012550176 886 176
-0.02092047 -0.036095437 0.48887685 0.0012613817 914 183
-0.018675517 -0.03611533 0.48912159 0.0012095603 914 183
-0.016432669 -0.036145326 0.4895055 0.0012395439 920 185
-0.014151374 -0.036086854 0.48869386 0.001228942 883 175
-0.011884875 -0.03605108 0.48819229 0.001276174 925 186
-0.009622423 -0.036013737 0.48767233 0.0011895185 936 189
-0.0073741968 -0.036023084 0.48778754 0.0012268855 910 182
-0.0051265443 -0.036044672 0.48807147 0.0011870185 964 196
-0.0028743409 -0.03604304 0.4880439 0.0011784405 951 193
-0.00062248955 -0.036049921 0.48813468 0.001211006 909 182
0.0016287287 -0.036023777 0.48778141 0.0012508722 898 179
0.0038670425 -0.03590814 0.48621938 0.0012130257 899 179
0.0061144689 -0.035930969 0.48653522 0.0011921606 924 186
0.0083619738 -0.035941873 0.48669258 0.0012306203 926 186
0.01059871 -0.035911672 0.48629621 0.0012129494 900 180
0.012845278 -0.035919514 0.48641798 0.0011961135 922 185
0.015109062 -0.035966009 0.48706579 0.0012551954 899 179
0.017375246 -0.036005437 0.48762062 0.0012350086 889 177
0.019637242 -0.036028139 0.48795149 0.001237929 873 173
0.021874208 -0.036004972 0.48766342 0.0012391985 892 177
0.024088781 -0.03595271 0.48698342 0.0012867943 931 188
0.026250763 -0.035837561 0.48545343 0.0012540012 942 190
0.028495584 -0.035844717 0.4855819 0.0011826121 946 191
0.030768786 -0.03588393 0.48614618 0.0011882269 938 189
0.033035982 -0.035911284 0.48655128 0.0012003818 924 186
0.035258405 -0.035889592 0.48629284 0.0012357472 922 185
0.037433594 -0.03582529 0.48545775 0.0012069819 922 185
0.039617378 -0.035775993 0.48482642 0.0012083829 919 184
0.041821279 -0.035749167 0.48449972 0.0012930317 891 177
0.044064965 -0.035757344 0.4846473 0.0012301791 880 174
0.046188537 -0.035671964 0.48352632 0.0012321606 924 186
0.048456948 -0.035701159 0.48395753 0.0012669095 914 183
0.050731827 -0.03573234 0.48441461 0.0011743848 957 194
0.052872695 -0.035670485 0.48360881 0.0011608021 970 198
0.055068873 -0.035649434 0.48335439 0.001222982 930 187
0.057295367 -0.035648882 0.48337561 0.0012160057 906 181
0.059410412 -0.035581622 0.48248962 0.001280268 908 182
0.061669279 -0.035602253 0.4827922 0.0012033643 923 185
0.063821867 -0.035562221 0.48226875 0.001217247 945 191
0.065884724 -0.035476565 0.48112258 0.0011974912 930 187
0.067901626 -0.035372548 0.47972289 0.0012023477 948 192
0.070330724 -0.035483044 0.4812277 0.0011667793 961 195
0.072468981 -0.035444543 0.48070645 0.001182953 942 190
0.074500576 -0.035357703 0.47952393 0.0012108418 967 197
0.076615535 -0.035314284 0.47892404 0.001167686 970 198
0.078678228 -0.035249885 0.47803298 0.0011824929 938 189
0.080632344 -0.035141665 0.47654063 0.0012341776 954 193
0.082840569 -0.035147008 0.47658056 0.0011976345 991 203
0.084944807 -0.03510908 0.47602573 0.0011482082 986 202
0.087077312 -0.035084456 0.47564253 0.0011869551 929 187
0.089859389 -0.035316341 0.47872731 0.0012705473 847 166
0.09247335 -0.035472617 0.48077673 0.00130932 791 151
0.095029145 -0.035599783 0.48242047 0.001446323 672 121
0.097217791 -0.035586737 0.48215306 0.0013602452 753 142
0.099753983 -0.03569866 0.48356679 0.0013149331 781 149
0.10188302 -0.035663161 0.48297122 0.0014288082 751 141
0.10384286 -0.035571221 0.48159903 0.0013912196 751 141
0.10617309 -0.035607353 0.48194763 0.0013455665 761 144
0.10836247 -0.035595734 0.48163587 0.0013462744 765 145
0.11056326 -0.035588257 0.48136565 0.0013857915 766 145
0.11287842 -0.035617154 0.48157233 0.0013843967 736 137
0.11515485 -0.035632968 0.48158589 0.0013604476 772 147
0.11755532 -0.035685822 0.48208338 0.0014363399 728 135
0.11978669 -0.035686333 0.48185635 0.0014099218 756 142
0.12197065 -0.035672959 0.48142418 0.0013240026 785 150
0.12454771 -0.035772972 0.48250332 0.0014181955 761 144
0.12625678 -0.035624553 0.4802129 0.0014447725 745 140
0.12853433 -0.035638891 0.48009789 0.0013544842 751 141
0.13089503 -0.03567541 0.48026088 0.0013850855 742 139
0.13300841 -0.035644423 0.47949409 0.0013616135 788 151
0.13481082 -0.035532501 0.47761834 0.0013320217 783 149
0.13722698 -0.035583343 0.47790885 0.0013017212 797 153
0.13924092 -0.035529938 0.47677627 0.0013389004 767 145
0.14180149 -0.035615496 0.47748449 0.001334548 766 145
0.14444846 -0.035719782 0.47841695 0.0012968885 799 154
0.1468707 -0.035766158 0.4785468 0.0013244977 774 147
0.14886764 -0.035709135 0.47726762 0.0013445928 763 144
0.15106151 -0.03570034 0.47660762 0.0013468764 771 146
0.15354176 -0.035758488 0.47681355 0.0013973886 772 147
0.15593494 -0.035794985 0.47670153 0.0013368613 798 153
0.15849596 -0.035868429 0.47705144 0.0013301411 833 162
0.1609107 -0.035907183 0.47690901 0.0013690552 821 159
0.16314766 -0.035905749 0.47620267 0.0012331904 882 175
0.16567792 -0.035968024 0.47631013 0.0012665291 839 164
0.1676283 -0.03590443 0.47472042 0.0012278819 893 178
0.17051768 -0.036040992 0.47574463 0.0012999714 887 176
0.17265713 -0.036017545 0.47462317 0.0012329353 875 173
0.17510366 -0.036057938 0.47431108 0.0013042738 824 160
0.17774345 -0.036136594 0.47446814 0.0012698304 839 164
0.18047984 -0.036232669 0.47481799 0.0012970672 802 154
0.18301439 -0.036286347 0.47457698 0.0013389139 824 160
0.18548873 -0.036326922 0.47413108 0.0013039855 852 167
0.1883563 -0.036442593 0.47463036 0.0013397117 842 165
0.19093898 -0.036501043 0.47434977 0.0013292242 861 170
0.19362754 -0.036578108 0.47427833 0.0013209826 819 159
0.19617406 -0.03662686 0.47380862 0.0013139336 785 150
0.19879186 -0.03668765 0.47346535 0.0013021791 819 159
0.20086844 -0.0366483 0.47180572 0.0012674824 850 167
0.20335016 -0.036682919 0.47107729 0.0013364659 837 163
0.20591637 -0.036731847 0.47051197 0.001342 771 146
0.20870069 -0.036818169 0.47040686 0.001351179 784 150
0.21149257 -0.036903925 0.47027859 0.0013850085 723 134
0.2149398 -0.037100956 0.47155339 0.0014103877 711 131
0.21784176 -0.037200671 0.47158119 0.0014409469 690 125
0.22091676 -0.037327513 0.47195143 0.0013912142 719 133
0.22353265 -0.037374943 0.47132444 0.0014707447 717 132
0.22641779 -0.037465941 0.47126225 0.0014752843 660 118
0.22924182 -0.037545074 0.47107297 0.0015448803 668 120
0.23201914 -0.037615031 0.47079974 0.0015900916 616 106
0.23482053 -0.037687443 0.47059733 0.0015280142 619 107
0.23750758 -0.03774026 0.47019941 0.001506401 628 109
0.24031766 -0.037811384 0.47008762 0.0015782822 581 97
0.24298292 -0.037858564 0.46974468 0.00171081 561 92
0.24569847 -0.037912589 0.46956167 0.0016344353 557 91
0.24902314 -0.038058683 0.47059923 0.0017712181 532 85
-0.3051154 -0.038708411 0.50988704 0.0029999728 260 15
-0.30325198 -0.038800053 0.51046538 0.0026793201 268 17
-0.30030528 -0.038753487 0.50932384 0.0026290568 269 17
-0.29790512 -0.03877724 0.50920993 0.0026237175 273 18
-0.2950699 -0.038744293 0.50845826 0.0026922855 297 24
-0.29262471 -0.038762424 0.50848705 0.0024709976 293 23
-0.2908788 -0.038874332 0.50985825 0.0024391352 305 26
-0.28863502 -0.038921118 0.51049018 0.0027438586 276 19
-0.28466225 -0.038733497 0.50816369 0.0022523196 346 37
-0.28203729 -0.038727503 0.50833559 0.0021676496 358 40
-0.2796483 -0.038754106 0.50905132 0.0020954823 378 45
-0.27693737 -0.038736176 0.509296 0.0020797302 387 47
-0.2742568 -0.038722191 0.50970328 0.0021172527 421 56
-0.27098057 -0.038623039 0.50909442 0.0019878882 428 58
-0.26745752 -0.038486473 0.50808895 0.0019333179 437 60
-0.26400167 -0.038357027 0.50726628 0.0019194438 452 64
-0.26036489 -0.038198501 0.50613904 0.001736084 500 77
-0.25719884 -0.038106591 0.5059666 0.0016759061 545 88
-0.25424242 -0.038044222 0.50625187 0.0016165149 585 98
-0.25112149 -0.037955716 0.50624567 0.0015813645 587 99
-0.24814133 -0.037886914 0.50654876 0.0016441721 547 89
-0.2445492 -0.037722297 0.50560522 0.0016605805 555 91
-0.24190947 -0.037702695 0.50663257 0.0015910459 574 96
-0.23869395 -0.037592005 0.50645596 0.0016562447 579 97
-0.23502219 -0.037406344 0.50527567 0.0015273616 622 108
-0.23179568 -0.03728833 0.50500751 0.0014931404 637 112
-0.22862591 -0.037176985 0.50482374 0.0014925298 633 111
-0.22530946 -0.03703909 0.50426692 0.0014566245 663 119
-0.22225411 -0.036941539 0.50424194 0.0014146325 694 126
-0.21928228 -0.036855835 0.50435835 0.0014068781 726 135
-0.21640731 -0.036784653 0.50465024 0.0013999521 706 130
-0.21337126 -0.036684152 0.50451261 0.0013890797 720 133
-0.21051343 -0.036612313 0.50473922 0.0013658036 736 137
-0.20689856 -0.036405582 0.50307029 0.0015049787 712 131
-0.2038046 -0.036286693 0.50257617 0.0014447717 706 130
-0.20053895 -0.036134008 0.50157541 0.0013630799 741 139
-0.19749519 -0.036018088 0.50104553 0.0013732731 734 137
-0.19522253 -0.03604167 0.5024212 0.0014724567 739 138
-0.19246244 -0.035974726 0.50250113 0.0014002343 727 135
-0.18916938 -0.035805218 0.50110865 0.0014881504 720 133
-0.18617682 -0.035688981 0.50042057 0.0014294307 702 129
-0.1826978 -0.035475284 0.4983241 0.0012668885 844 165
-0.17937329 -0.035286371 0.49653271 0.0012049942 935 189
-0.17684919 -0.03525199 0.49687755 0.0013005279 851 167
-0.17383614 -0.035117906 0.49578089 0.0012913968 809 156
-0.17093937 -0.035003971 0.49493122 0.0013436241 842 165
-0.16819741 -0.034919031 0.49445572 0.0012181983 896 179
-0.16507688 -0.034752008 0.492782 0.0011764464 948 192
-0.16223501 -0.034639731 0.49184895 0.0011663632 958 194
-0.15996917 -0.034648977 0.49260995 0.0011535183 1014 209
-0.15808208 -0.034741737 0.49453104 0.0011021008 1065 222
-0.15583025 -0.034755893 0.49530679 0.0011484231 1061 221
-0.15340534 -0.034731295 0.49550244 0.001103982 1053 219
-0.1509586 -0.03470093 0.49558786 0.0011962893 1012 208
-0.14845324 -0.034655932 0.49543688 0.0012171298 976 199
-0.14612707 -0.034652006 0.49584687 0.0011824404 941 190
-0.14388303 -0.034667745 0.49651337 0.0011950496 916 184
-0.14087057 -0.034495823 0.49446619 0.0012154846 952 193
-0.13836965 -0.034445532 0.49413654 0.0011962401 926 186
-0.13639987 -0.034528013 0.49568909 0.0011710072 959 195
-0.13432556 -0.034586404 0.49687526 0.001245206 923 185
-0.13206621 -0.034598358 0.49737364 0.0012120057 942 190
-0.12933213 -0.034484155 0.49603689 0.0012011882 922 185
-0.12701063 -0.034477815 0.49623069 0.0012294168 882 175
-0.12467829 -0.03446826 0.49635872 0.0012591117 851 167
-0.12227682 -0.03443886 0.49618232 0.0012381907 875 173
-0.11979665 -0.034385752 0.49564576 0.0012062142 911 182
-0.11735225 -0.034341037 0.49521238 0.0012117599 909 182
-0.11506349 -0.034340996 0.49540639 0.0012024895 922 185
-0.11282349 -0.034355801 0.49579883 0.0011892623 926 186
-0.11055671 -0.034362897 0.49606487 0.0012239608 942 190
-0.10816038 -0.034329168 0.49572676 0.0012206592 951 193
-0.10570738 -0.034275617 0.49508798 0.0011744732 962 196
-0.10336009 -0.034254733 0.4949075 0.0011801535 950 192
-0.1007638 -0.034148507 0.49348083 0.0012775639 907 181
-0.098401465 -0.034118507 0.49314296 0.0012402268 870 172
-0.096119657 -0.034115661 0.49318624 0.0012858333 871 172
-0.09387207 -0.034125119 0.49339631 0.0012077679 916 184
-0.091436177 -0.034064889 0.49258834 0.0012286319 890 177
-0.089027204 -0.034011882 0.49187484 0.0013183429 872 172
-0.086744227 -0.034005497 0.49182624 0.0013395757 856 168
-0.084368832 -0.033961564 0.49122587 0.0012581506 882 175
-0.082228437 -0.034012415 0.4919883 0.0012914119 817 158
-0.079932384 -0.033999942 0.49182704 0.0013058567 792 152
-0.077337898 -0.03385609 0.48975834 0.0013225349 789 151
-0.075018406 -0.033827592 0.48935163 0.0013401784 762 144
-0.072615996 -0.033758789 0.48835579 0.0013337869 780 149
-0.070075579 -0.033619374 0.48633298 0.0014008377 795 153
-0.067756057 -0.033580221 0.48575532 0.0012693844 840 164
-0.065261006 -0.033448435 0.48383337 0.0012607649 841 164
-0.063389957 -0.033638459 0.48656213 0.0013469221 848 166
-0.060901288 -0.033502653 0.48457429 0.0012715481 876 173
-0.058395505 -0.033346735 0.48229256 0.0012394831 874 173
-0.056162287 -0.033340286 0.4821699 0.0012386247 897 179
-0.053916223 -0.03332537 0.48192227 0.0012125429 909 182
-0.051749259 -0.033360161 0.48239151 0.0012558141 927 187
-0.049622953 -0.033425465 0.48330027 0.0012145046 899 179
-0.047402453 -0.033430479 0.48333591 0.0012524429 860 169
-0.045493145 -0.033666272 0.486707 0.0013013888 815 158
-0.043321759 -0.033722531 0.48748171 0.001342272 805 155
-0.041212022 -0.033835549 0.48907667 0.0013096868 796 153
-0.038970225 -0.033846963 0.4892028 0.0013112455 803 155
-0.036693435 -0.033827517 0.48888338 0.001247872 862 170
-0.034522273 -0.033909272 0.49002716 0.0012812609 891 177
-0.032241847 -0.033887647 0.48967803 0.0013032819 865 171
-0.029947923 -0.033847507 0.48906258 0.0012483584 868 171
-0.027639618 -0.033783246 0.48810029 0.0012137874 898 179
-0.025353426 -0.033737015 0.48740032 0.0012662499 887 176
-0.023161065 -0.033818793 0.48855171 0.0012633206 889 177
-0.020929683 -0.033855088 0.48904803 0.0012161137 900 180
-0.018684374 -0.033874899 0.48930863 0.0012857714 910 182
-0.016417556 -0.033855807 0.48900971 0.0012935622 897 179
-0.014147826 -0.033823662 0.48852497 0.0012627111 864 170
-0.011869949 -0.033756163 0.4875325 0.0012817777 918 184
-0.009633841 -0.033803657 0.48820364 0.0011939928 925 186
-0.0073785768 -0.033792417 0.48802963 0.0012599633 917 184
-0.0051248665 -0.03378154 0.48786378 0.001171792 956 194
-0.0028745078 -0.033793028 0.48802412 0.0011949069 935 189
-0.00062249543 -0.033797838 0.48809114 0.0012920916 895 178
0.0016296168 -0.033791423 0.4879992 0.001253768 903 180
0.0038791348 -0.033769872 0.48769179 0.0012053353 909 182
0.0061265412 -0.033752505 0.48744801 0.0012133593 896 179
0.0083670672 -0.033716742 0.48694158 0.0012141777 901 180
0.010596293 -0.033660229 0.48613846 0.0012715627 899 179
0.012845165 -0.033674963 0.48636723 0.0012440394 924 186
0.015109758 -0.033720404 0.48704231 0.001213345 895 178
0.01738142 -0.033767808 0.48774865 0.0012713283 869 172
0.019650413 -0.033799753 0.48823431 0.0013260496 868 171
0.021890828 -0.033781026 0.48799047 0.0012055025 905 181
0.024096528 -0.033717223 0.48709756 0.0012103986 912 183
0.026305083 -0.033667948 0.48641664 0.0012041894 925 186
0.028450934 -0.033552483 0.48478097 0.0012130479 904 181
0.030743394 -0.033614136 0.48570615 0.0012037181 912 183
0.033037826 -0.033669423 0.48654079 0.0012114797 910 182
0.035248101 -0.033637367 0.48611447 0.0012075277 916 184
0.037375502 -0.033534795 0.48466977 0.0012531475 935 189
0.039603818 -0.033529226 0.48462757 0.0012037407 911 182
0.041818552 -0.033513371 0.48443687 0.001219763 900 180
0.043944895 -0.03343188 0.48329741 0.0012110943 914 183
0.046262424 -0.033496678 0.48427224 0.0012839296 910 182
0.04856116 -0.033542529 0.4849726 0.0012944723 921 185
0.050794538 -0.033541191 0.48498964 0.001200079 940 190
0.053069741 -0.033566415 0.48538953 0.0011731917 957 194
0.055002626 -0.033381842 0.4827536 0.001183868 964 196
0.057222068 -0.033378787 0.48274013 0.0012380469 924 186
0.059444524 -0.033377636 0.48275179 0.0012510698 943 191
0.061624371 -0.033353515 0.4824281 0.0012433145 931 188
0.063730679 -0.033292655 0.48156962 0.0012403534 903 180
0.065777488 -0.033205852 0.4803319 0.0012391141 923 185
0.068144612 -0.03328114 0.48143458 0.0012278942 932 188
0.070472583 -0.033333164 0.482196 0.0011963206 927 187
0.0724416 -0.033217408 0.48052508 0.0011951234 931 188
0.074570566 -0.033179685 0.47997734 0.0011890754 944 191
0.076542497 -0.033076283 0.47847328 0.0011637411 965 196
0.078558907 -0.032997347 0.47731662 0.0012338368 970 198
0.080722585 -0.032982882 0.47708541 0.0011466664 992 203
0.082833819 -0.03294833 0.47655609 0.0011717748 956 194
0.084964409 -0.032923058 0.47615287 0.0012313697 942 190
0.087257415 -0.032960411 0.47664678 0.0012306626 911 182
0.089686759 -0.033046167 0.4778313 0.0012995815 832 162
0.092615284 -0.033307325 0.48154157 0.0013952004 718 133
0.095037065 -0.033378288 0.48249105 0.0014176004 704 129
0.097311668 -0.033395499 0.48265225 0.0013057888 793 152
0.09955471 -0.033401348 0.48263785 0.001321437 785 150
0.10176939 -0.033397634 0.48247293 0.0013630918 787 150
0.10401374 -0.033403605 0.48243538 0.0013621269 747 140
0.10618425 -0.033386111 0.48204562 0.001348327 756 142
0.1083831 -0.033378065 0.48177844 0.0013595376 760 143
0.11058344 -0.033370789 0.48150793 0.0014250512 770 146
0.1125667 -0.033299584 0.48030046 0.0013360388 775 147
0.11499331 -0.033359747 0.48097211 0.0014688161 743 139
0.11742015 -0.033417698 0.48159468 0.001375853 737 138
0.1195886 -0.033401318 0.4811289 0.0013811454 732 136
0.12170586 -0.033371504 0.48045221 0.0014022476 711 131
0.12407659 -0.033411015 0.48075524 0.0014568043 747 140
0.12620512 -0.033385061 0.48009726 0.0013238407 784 150
0.12810311 -0.033300076 0.47857189 0.0013252199 780 149
0.13068894 -0.033393744 0.47959358 0.0013701146 756 142
0.13268086 -0.03333506 0.47840601 0.0013857404 779 148
0.13479066 -0.033307444 0.47764364 0.0013215789 784 150
0.13702819 -0.033311769 0.47731742 0.0013145263 789 151
0.13962997 -0.033403091 0.47821373 0.0014422653 758 143
0.14167485 -0.033360414 0.47716743 0.0014129253 765 145
0.14378279 -0.033333685 0.47632584 0.0012795971 825 160
0.14654602 -0.033457361 0.47760716 0.0012911744 832 162
0.14872158 -0.033445176 0.47692171 0.001310034 785 150
0.15091343 -0.033436969 0.47626704 0.0013012501 797 153
0.15327229 -0.033465456 0.47610769 0.0013001745 799 154
0.15545553 -0.033455335 0.4753713 0.001330495 784 150
0.15765101 -0.033448096 0.47464788 0.0013493919 832 162
0.16062523 -0.033603981 0.47620761 0.0012728154 822 159
0.16334257 -0.033702571 0.47692102 0.0012854907 818 158
0.16576535 -0.033738535 0.47671548 0.001345727 831 162
0.16836911 -0.033809885 0.47697693 0.0012777024 830 162
0.16999906 -0.033686377 0.47445992 0.0013030918 872 172
0.17280427 -0.033795938 0.47519457 0.0013499716 847 166
0.17518908 -0.033821527 0.4747138 0.0012723693 829 161
0.1775914 -0.033849794 0.47423768 0.0013481006 846 166
0.1799127 -0.033862107 0.47350532 0.001251795 855 168
0.18271999 -0.033964448 0.47399732 0.0013008339 838 164
0.18566635 -0.034089826 0.4747732 0.0013348216 821 159
0.18843074 -0.034179159 0.47500995 0.0012921649 808 156
0.19095817 -0.034223896 0.4745928 0.0013055968 839 164
0.19345535 -0.034262214 0.47405505 0.0012538233 853 167
0.19661224 -0.034415111 0.4750689 0.0012720013 832 162
0.19844806 -0.034335919 0.4728502 0.0013095803 877 174
0.20083497 -0.034352787 0.47193238 0.0012723571 830 162
0.20311216 -0.034350719 0.47073251 0.0013774172 818 158
0.20569514 -0.034399837 0.47021389 0.0013169296 800 154
0.20885396 -0.034543112 0.47096044 0.0013511857 775 147
0.2118983 -0.034664541 0.47138879 0.0013068559 789 151
0.21463291 -0.034733225 0.47108686 0.0014161069 758 143
0.21771087 -0.03485541 0.47150266 0.0014898943 727 135
0.22052166 -0.034932695 0.47130907 0.0013583343 743 139
0.2232307 -0.034992419 0.47088519 0.0013981987 712 131
0.22592868 -0.035049185 0.47043619 0.001517461 660 118
0.22886515 -0.03514142 0.47048452 0.0014587918 664 119
0.23191512 -0.035249028 0.47076672 0.0015605963 624 108
0.23482458 -0.035333335 0.47077468 0.0016555536 612 105
0.23778358 -0.035423357 0.47090504 0.0016697496 589 99
0.24048664 -0.035473846 0.47056609 0.0015936312 575 96
0.24296573 -0.035490643 0.46984696 0.0016543079 549 89
0.24531235 -0.03548795 0.46894595 0.0017563214 550 89
0.24791688 -0.035522263 0.46861687 0.0017696113 536 86
-0.30714902 -0.036369532 0.51320273 0.0028050514 259 14
-0.30336896 -0.03622824 0.51059139 0.0027495667 264 16
-0.30054444 -0.036199603 0.5096705 0.002969279 261 15
-0.29728341 -0.036117442 0.50810117 0.0029237219 274 18
-0.29555708 -0.036221921 0.50926489 0.0028186992 284 21
-0.29281703 -0.036202922 0.50880253 0.0027087245 289 22
-0.29040667 -0.036224701 0.50902665 0.0026032217 321 30
-0.28827617 -0.036282104 0.50986654 0.0026347761 271 18
-0.28483543 -0.036174137 0.50849909 0.0026630347 324 31
-0.28233865 -0.036185168 0.50892079 0.0021417681 372 44
-0.27975616 -0.036185328 0.50930548 0.0020150268 399 51
-0.27696887 -0.036158759 0.50942761 0.0021667816 400 51
-0.27431774 -0.036149628 0.50990582 0.0019563781 421 56
-0.27061993 -0.036001079 0.50852078 0.0019277564 424 57
-0.26733801 -0.035905536 0.50798011 0.0019029846 440 61
-0.26351932 -0.035735358 0.50647092 0.0018064189 474 70
-0.25975579 -0.0355694 0.50509882 0.0018527376 523 82
-0.25692964 -0.035529796 0.50559258 0.0018116623 547 89
-0.25414005 -0.035494503 0.50621438 0.0016958494 569 94
-0.25087667 -0.035391662 0.50592774 0.0016859624 574 96
-0.24699588 -0.035198748 0.5043937 0.001580153 585 98
-0.24445099 -0.035194192 0.50559288 0.0016042585 566 94
-0.2416108 -0.035146594 0.50620371 0.001678139 596 101
-0.23848289 -0.035055697 0.50620937 0.001721661 590 100
-0.23494469 -0.034901921 0.50531334 0.0015946457 622 108
-0.23148085 -0.03475602 0.50452793 0.0015294374 668 120
-0.22839408 -0.03466418 0.50451982 0.0014747536 658 117
-0.22471586 -0.034479581 0.50314629 0.001426931 682 123
-0.22186036 -0.034418527 0.50355661 0.001450181 694 126
-0.21918884 -0.034384962 0.50435096 0.0014566766 687 125
-0.21652736 -0.034352228 0.50513661 0.0014088331 705 129
-0.21276686 -0.03414239 0.5032872 0.0014984355 718 133
-0.20994629 -0.034080263 0.50358069 0.0013818605 722 134
-0.20684832 -0.033971123 0.50314641 0.0014087007 703 129
-0.2038154 -0.033870205 0.50279772 0.0014780493 686 124
-0.20075303 -0.033761904 0.50230211 0.0015044765 682 123
-0.19754915 -0.033626888 0.50136954 0.0014151951 697 127
-0.19487165 -0.033579253 0.50170165 0.0013749454 728 135
-0.19225794 -0.033541549 0.50214666 0.0014259918 709 130
-0.18893629 -0.033377841 0.50066596 0.0014035674 701 128
-0.18528566 -0.033151086 0.4981949 0.0015562522 680 123
-0.18205719 -0.032994967 0.49674156 0.0013311316 838 164
-0.17949854 -0.032957744 0.49703997 0.0013023254 847 166
-0.17679553 -0.032892674 0.49688289 0.001268883 869 172
-0.17339775 -0.03269485 0.49468157 0.0012551837 906 181
-0.17085893 -0.032655802 0.49484491 0.0013107759 851 167
-0.16825132 -0.03260234 0.49475637 0.00127518 897 179
-0.16523446 -0.032466959 0.49338973 0.0012168406 940 190
-0.1626993 -0.032423731 0.49338943 0.0011849771 938 189
-0.16011572 -0.032369461 0.49318969 0.0011619738 966 197
-0.15810372 -0.03243085 0.49472326 0.0011617546 989 202
-0.15580609 -0.032434594 0.49535036 0.0011745949 992 203
-0.15343687 -0.032423329 0.49572039 0.0011744982 1020 210
-0.15085314 -0.032365698 0.49535346 0.0011378982 1003 206
-0.14829816 -0.032312531 0.49502683 0.0011796447 947 192
-0.14600143 -0.032314852 0.49552393 0.0012368298 917 184
-0.1436061 -0.032295071 0.49565697 0.001291703 904 181
-0.14106692 -0.032241762 0.49525058 0.0012285347 932 188
-0.13855587 -0.032193221 0.49489263 0.0012049507 913 183
-0.1364011 -0.032227222 0.49578068 0.0012652089 935 189
-0.13428038 -0.032270573 0.49679145 0.0012541305 924 186
-0.13187805 -0.032246578 0.49674448 0.0012011616 919 184
-0.12927122 -0.03217084 0.4958787 0.00119866 920 185
-0.12689714 -0.032151327 0.49585897 0.0013058383 887 176
-0.12445038 -0.032112349 0.49551925 0.0012290108 884 175
-0.12213387 -0.032106142 0.49566638 0.0012467852 862 170
-0.11977228 -0.03208762 0.49560544 0.0012287368 882 175
-0.11729614 -0.032037091 0.49503246 0.0012371993 891 177
-0.11503642 -0.032044835 0.49534315 0.0012091458 913 183
-0.11281858 -0.032064803 0.49582711 0.0012095778 905 181
-0.11049718 -0.032055549 0.4958441 0.0011972215 920 185
-0.10805497 -0.032010108 0.49528652 0.0012067896 946 191
-0.10563099 -0.031968232 0.49476969 0.001172526 960 195
-0.10317221 -0.031913746 0.49404395 0.0012309235 920 185
-0.10093977 -0.031928387 0.49437553 0.0012387586 903 180
-0.098420002 -0.031850714 0.49326554 0.0012230643 898 179
-0.096205071 -0.031870358 0.49365097 0.0012686072 914 183
-0.093892343 -0.031857762 0.49352625 0.0012577459 906 181
-0.091580138 -0.031844728 0.49338424 0.0012988244 883 175
-0.089220315 -0.031814054 0.49295908 0.0012473313 867 171
-0.086874403 -0.031786866 0.49257866 0.0012626646 879 174
-0.084615335 -0.031790845 0.49267253 0.0012842168 868 171
-0.082131453 -0.031708248 0.49141663 0.0012913023 847 166
-0.079877138 -0.031712115 0.49149305 0.0013279283 847 166
-0.077573113 -0.031695895 0.49125108 0.0012832502 817 158
-0.075248696 -0.031670116 0.49085432 0.0013873497 783 149
-0.072952695 -0.031655066 0.49061808 0.0014461707 762 144
-0.070301645 -0.031480074 0.48789722 0.0013165358 783 149
-0.067841113 -0.031381648 0.48635808 0.0013667521 802 154
-0.065683581 -0.031421445 0.4869568 0.0013422399 774 147
-0.063194759 -0.031299978 0.4850522 0.0013827976 808 156
-0.060899787 -0.031269137 0.48454845 0.0013176552 853 167
-0.058605861 -0.031236496 0.48401371 0.0012531321 850 167
-0.05626104 -0.031173075 0.48299944 0.0012693054 843 165
-0.053932454 -0.031113803 0.48204711 0.001240688 895 178
-0.051680379 -0.031095468 0.48172724 0.0012313221 917 184
-0.049499083 -0.031119986 0.48206967 0.0012305167 881 175
-0.047386184 -0.03119183 0.48314396 0.0012983166 867 171
-0.045317896 -0.031301573 0.48480424 0.0012619562 845 165
-0.043210719 -0.031394452 0.4862026 0.0012600367 852 167
-0.041132309 -0.031519532 0.48809919 0.0012834963 818 158
-0.038862523 -0.031503964 0.48781785 0.0013139045 797 153
-0.036755163 -0.031626236 0.4896712 0.0012685038 840 164
-0.03447092 -0.031602349 0.48926228 0.001261584 846 166
-0.032182578 -0.031571101 0.48874056 0.0013032425 848 166
-0.029902978 -0.031544365 0.4882901 0.0013372437 856 168
-0.027618881 -0.031508144 0.48769456 0.0012398745 913 183
-0.025357544 -0.031493764 0.48743898 0.0013012365 903 180
-0.023125559 -0.031516593 0.4877612 0.0012215809 892 177
-0.020972898 -0.031664096 0.49001512 0.0012405091 873 173
-0.018669726 -0.031592555 0.48888156 0.0012914303 910 182
-0.016397772 -0.031561442 0.48837632 0.0012782599 892 177
-0.014134919 -0.031540718 0.4880347 0.0012300941 880 174
-0.011881469 -0.031537097 0.4879604 0.0012238594 887 176
-0.0096192174 -0.031502958 0.4874171 0.0012150315 938 189
-0.0073833312 -0.031560682 0.48829809 0.0011908166 929 187
-0.0051302705 -0.031563457 0.488332 0.0012025683 919 184
-0.0028732354 -0.031526964 0.48776168 0.0012307527 930 187
-0.00062190689 -0.031515591 0.48758331 0.0012606006 917 184
0.0016288281 -0.031524166 0.48771662 0.0012195276 894 178
0.0038821918 -0.031544149 0.48802978 0.0012213166 891 177
0.0061306562 -0.031524263 0.48772928 0.0013207342 875 173
0.0083694262 -0.031478606 0.48703316 0.0012365435 886 176
0.010606181 -0.031446297 0.48654678 0.0012979412 885 176
0.012850769 -0.031444445 0.48653466 0.0013008495 887 176
0.01512256 -0.031499807 0.48741063 0.0012335615 878 174
0.017385507 -0.0315248 0.48781964 0.0012964726 875 173
0.019646684 -0.031541217 0.48809868 0.0012370981 867 171
0.021901527 -0.03154514 0.48818672 0.0012502795 867 171
0.024114173 -0.031493213 0.48741302 0.0012250106 890 177
0.026316045 -0.031437282 0.48657918 0.0012173587 900 180
0.028485615 -0.031354584 0.48533306 0.0012216173 889 177
0.030732114 -0.031362444 0.48549017 0.0012134084 901 180
0.033027861 -0.031416088 0.48635754 0.0011976811 923 185
0.035276592 -0.031421028 0.48647237 0.0012379094 922 185
0.037391052 -0.031312928 0.4848378 0.0012326119 932 188
0.039610349 -0.031299867 0.48467538 0.0012246838 911 182
0.041807294 -0.031271487 0.48427603 0.001242685 916 184
0.043880947 -0.03115844 0.48256531 0.0012116686 908 182
0.046220757 -0.031236168 0.48380896 0.0012528505 884 175
0.048621945 -0.031346314 0.48555434 0.0012036574 906 181
0.050898179 -0.031369753 0.4859558 0.0012139984 908 182
0.05304144 -0.031312708 0.48510909 0.0012350946 908 182
0.055068642 -0.031194549 0.48331359 0.0012297711 882 175
0.05718999 -0.031136824 0.48245218 0.0012430104 909 182
0.059394896 -0.031127213 0.4823336 0.0012591281 918 184
0.061559968 -0.031098168 0.48191097 0.0011959998 954 193
0.063725524 -0.031071389 0.48152 0.001175936 955 194
0.065828666 -0.031016998 0.48069727 0.0011939371 935 189
0.068039119 -0.031015065 0.48068336 0.0011934487 920 185
0.070351064 -0.031058064 0.48136109 0.0012075865 902 180
0.072490722 -0.031024689 0.48084995 0.0012390836 895 178
0.074368551 -0.030884575 0.47867879 0.0011935591 933 188
0.076537028 -0.030869747 0.47844332 0.0012350456 960 195
0.078541256 -0.030791355 0.47721624 0.0011576414 978 200
0.080614604 -0.030743595 0.47645682 0.0012130135 979 200
0.082777776 -0.030731719 0.476246 0.0012080292 949 192
0.084964834 -0.030729091 0.47617045 0.001171327 961 195
0.087234795 -0.030755825 0.47654128 0.0012895024 894 178
0.090062268 -0.03097298 0.47985297 0.0013838495 808 156
0.092682905 -0.03111029 0.48191741 0.0014618636 675 122
0.095006265 -0.031143731 0.48236191 0.001450972 753 142
0.097261816 -0.031153919 0.48243541 0.0014019315 787 150
0.099436328 -0.03113828 0.48209742 0.0013265894 771 146
0.10178329 -0.031176139 0.4825756 0.0013816032 787 150
0.10413385 -0.031213459 0.48303252 0.0013683247 765 145
0.10639825 -0.031223927 0.48306042 0.001353327 746 140
0.10853372 -0.031196913 0.48249453 0.001379895 721 133
0.11035021 -0.031081138 0.48054233 0.001304263 804 155
0.11247721 -0.031055659 0.47997189 0.0013410193 759 143
0.11457217 -0.031022495 0.47926721 0.0014399331 744 139
0.11734648 -0.031171042 0.4813529 0.0014112568 743 139
0.11948279 -0.031147737 0.48076701 0.0013590229 741 139
0.12159073 -0.031118032 0.48006514 0.0014465124 756 142
0.12384923 -0.031127229 0.4799453 0.0014468716 736 137
0.12627438 -0.031177254 0.48043564 0.0014202461 771 146
0.12837559 -0.031146938 0.47966829 0.0013351147 768 146
0.13036457 -0.031090897 0.47848538 0.0014070107 757 143
0.1326822 -0.031113794 0.47849673 0.0013643015 733 137
0.13477813 -0.031084813 0.47768885 0.0013536415 754 142
0.13733745 -0.031161914 0.47848836 0.0013945517 784 150
0.13964598 -0.031180549 0.47836608 0.0013978268 792 152
0.14196312 -0.031200504 0.47823989 0.0013448864 753 142
0.14382172 -0.031120619 0.47656 0.0014025731 785 150
0.14623123 -0.031160552 0.47669059 0.0013725562 809 156
0.14853154 -0.031176371 0.47642577 0.0013064693 823 160
0.15092818 -0.031211644 0.47643113 0.0013080507 791 151
0.15362662 -0.031307396 0.47733042 0.0013949407 779 148
0.1556868 -0.031272195 0.47620443 0.0012794568 822 159
0.1577915 -0.031246806 0.47520074 0.0012846384 818 158
0.16028157 -0.031297375 0.47532296 0.0012843834 823 160
0.16300368 -0.031391241 0.47607034 0.0013381653 845 165
0.16577105 -0.031491153 0.47687501 0.0013130691 830 162
0.16806334 -0.031499349 0.47625798 0.001316606 841 164
0.17053744 -0.031540956 0.47611398 0.0012564426 854 168
0.17283256 -0.031548809 0.47542787 0.001362575 813 157
0.17529158 -0.031585995 0.47515112 0.0013494625 831 162
0.177527 -0.031582456 0.47422904 0.0012405807 865 171
0.17980675 -0.031586789 0.47339353 0.0013153784 862 170
0.18242292 -0.031649388 0.47339773 0.001297059 866 171
0.18539625 -0.031771656 0.47425744 0.0012591984 881 175
0.18808532 -0.031842846 0.47431785 0.0012783564 838 164
0.19081675 -0.031919423 0.47442353 0.0012922878 828 161
0.19336034 -0.031963136 0.47400743 0.0012730442 833 162
0.19581036 -0.03199055 0.47331902 0.0012990147 845 165
0.1984254 -0.032043975 0.47298628 0.0012657589 844 165
0.20072407 -0.032045674 0.47186366 0.0012812231 823 160
0.20308629 -0.032057371 0.47086561 0.001353858 822 159
0.20587592 -0.03213552 0.47082132 0.0013652943 797 153
0.20891157 -0.03224992 0.47128513 0.0013974033 790 151
0.21173786 -0.032329861 0.47122648 0.0013644306 753 142
0.21457757 -0.032410111 0.47115907 0.0014015995 785 150
0.21745865 -0.032494821 0.47114831 0.0013492883 765 145
0.22019966 -0.032557037 0.47080997 0.0013650628 737 138
0.22283264 -0.032602146 0.47023058 0.0015216885 711 131
0.22575285 -0.032687914 0.47025052 0.0014969468 688 125
0.22846845 -0.032742601 0.46984351 0.0014452458 681 123
0.23125418 -0.032806132 0.46959239 0.0016801751 621 108
0.23437302 -0.032915171 0.47002882 0.0016940705 582 98
0.23717101 -0.032977432 0.46984208 0.0016627354 598 102
0.24044523 -0.033104032 0.47062519 0.0015882481 579 97
0.24306332 -0.033138711 0.47016439 0.0015902368 571 95
0.24520083 -0.033107836 0.46884897 0.0016521345 555 91
0.24614911 -0.032918509 0.46537787 0.0016805052 571 95
-0.30514827 -0.033552669 0.50978446 0.0028814953 242 10
-0.30333713 -0.033637922 0.51047283 0.0030687223 262 15
-0.29903311 -0.033445824 0.50705439 0.0025454587 285 21
-0.29785541 -0.033603091 0.50903738 0.0026311078 276 19
-0.29617965 -0.033706442 0.51030862 0.0025627892 280 20
-0.2926338 -0.033596907 0.50846839 0.0025435206 286 21
-0.28982401 -0.033570673 0.50800318 0.0022713994 338 35
-0.28730151 -0.033577558 0.50815463 0.0025870306 279 20
-0.28516215 -0.033629745 0.50910884 0.0025912968 333 34
-0.28252015 -0.033623062 0.50928903 0.0022809962 386 47
-0.27977103 -0.033603396 0.50938833 0.0022249555 405 52
-0.27662081 -0.033534735 0.50885779 0.002055143 390 48
-0.27390662 -0.033518139 0.50922626 0.002035483 418 55
-0.27122897 -0.033505745 0.50976402 0.0020274245 412 54
-0.26743942 -0.033354439 0.50828469 0.0020484037 439 61
-0.26459566 -0.033319294 0.50866407 0.0018035626 475 70
-0.25988394 -0.033045944 0.50548345 0.0018006137 520 82
-0.25705534 -0.033009019 0.50598639 0.0016738717 533 85
-0.25405899 -0.032949593 0.50620902 0.0017301677 541 87
-0.25024378 -0.032781705 0.50481582 0.0017755808 554 90
-0.24677521 -0.032656264 0.50411463 0.0016362787 590 100
-0.24394627 -0.032613765 0.50472695 0.0016671554 580 97
-0.24132814 -0.032598861 0.50579512 0.0016107912 561 92
-0.23802982 -0.032490794 0.50543529 0.0015811255 613 106
-0.23427325 -0.032317217 0.50405955 0.0015254399 631 110
-0.23116802 -0.032230739 0.50403851 0.0015572216 618 107
-0.22794105 -0.032125223 0.50371248 0.0014577338 659 117
-0.22483101 -0.032034058 0.50359803 0.0014420891 678 122
-0.22161874 -0.031926151 0.50320166 0.001418294 698 128
-0.21896933 -0.031897809 0.50403875 0.0014844005 697 127
-0.21528479 -0.031716336 0.50242859 0.0014202599 707 130
-0.21224207 -0.031626336 0.5022347 0.001414243 751 141
-0.20962635 -0.03159862 0.50300002 0.0013592331 743 139
-0.20689371 -0.031552423 0.50344104 0.0014065127 701 128
-0.20372966 -0.031438556 0.50276721 0.001375087 732 136
-0.20099515 -0.031389032 0.50308573 0.0014703415 696 127
-0.19765398 -0.031242415 0.5018096 0.0013801528 733 137
-0.19479443 -0.031169251 0.50167298 0.0014466401 679 123
-0.19184527 -0.031079747 0.50123507 0.001445288 726 135
-0.18910944 -0.031022985 0.50128704 0.0014289435 700 128
-0.18558225 -0.030833291 0.49914995 0.001428219 693 126
-0.18216206 -0.030656694 0.49718061 0.0013005849 801 154
-0.17945883 -0.030597711 0.49707878 0.0013167348 788 151
-0.17569132 -0.030353289 0.49392322 0.0012262219 968 197
-0.17360123 -0.030395981 0.49540201 0.0011566088 980 200
-0.17116828 -0.030378999 0.49587679 0.0012148343 887 176
-0.16797446 -0.030224632 0.49407351 0.0012010628 916 184
-0.16529568 -0.030159906 0.49369955 0.0011842386 940 190
-0.16290268 -0.030146232 0.4941293 0.0011679312 986 202
-0.16050857 -0.030131951 0.49451888 0.0011345786 1006 207
-0.15792371 -0.030080914 0.49427497 0.0011815148 1016 209
-0.15577745 -0.030113148 0.49537057 0.0011604854 977 199
-0.15323214 -0.030068053 0.49516612 0.001141538 999 205
-0.15075918 -0.030035986 0.495148 0.0011673035 960 195
-0.14818358 -0.029982157 0.49474359 0.0013157508 889 177
-0.14546804 -0.029897861 0.49380869 0.0011981636 969 197
-0.14345734 -0.029958054 0.49523512 0.001221846 921 185
-0.14111814 -0.029950488 0.49551812 0.001202942 905 181
-0.13870156 -0.029925976 0.49549693 0.0011918282 927 187
-0.13640119 -0.029926142 0.49586141 0.0011753413 957 194
-0.13416286 -0.029940147 0.49643344 0.0011784807 947 192
-0.13175379 -0.029915882 0.49634954 0.0012406816 870 172
-0.12923907 -0.029866332 0.49582484 0.0012215847 891 177
-0.12694861 -0.029867755 0.49612597 0.0012807134 820 159
-0.12463804 -0.029864414 0.49632889 0.0012478813 862 170
-0.12212656 -0.029811898 0.49569565 0.0012275043 895 178
-0.11915296 -0.029642412 0.49309796 0.0012222573 893 178
-0.11713638 -0.029709039 0.49441016 0.0012678993 875 173
-0.1149272 -0.0297285 0.49492157 0.0012592067 907 181
-0.11263495 -0.029726829 0.49506551 0.0012724746 892 177
-0.11035356 -0.029728014 0.49524182 0.0012100738 903 180
-0.10799817 -0.029708887 0.49506509 0.0012659254 926 186
-0.10559534 -0.029675607 0.49463859 0.0012417646 952 193
-0.10320196 -0.029643571 0.49421915 0.0012526397 952 193
-0.10087987 -0.029631021 0.49411184 0.0011915123 931 188
-0.098671496 -0.02965207 0.49455276 0.0012143116 906 181
-0.096181974 -0.029587628 0.49355617 0.0012395281 932 188
-0.093852922 -0.029570621 0.49333987 0.0012226774 938 189
-0.091552436 -0.029561989 0.49325293 0.0012939306 886 176
-0.089279093 -0.029561913 0.49329901 0.0012692312 880 174
-0.087029204 -0.029569799 0.49346876 0.0012213434 896 179
-0.084668152 -0.029539326 0.49298978 0.0012387306 873 173
-0.082020491 -0.029404422 0.49075973 0.0012438894 865 171
-0.079900041 -0.029456234 0.49163839 0.0012378963 872 172
-0.077689968 -0.029477065 0.49199295 0.0012675913 846 166
-0.075220764 -0.029397873 0.4906716 0.0012763158 838 164
-0.072958723 -0.029397251 0.49065566 0.0012982927 812 157
-0.070526846 -0.029325962 0.48945478 0.0012847251 831 162
-0.068350874 -0.029359888 0.49000499 0.0013750463 824 160
-0.06548176 -0.029088225 0.48545077 0.0012854036 827 161
-0.063205712 -0.02907012 0.48512426 0.0012900182 815 158
-0.061033312 -0.029100103 0.48559669 0.0012840917 848 166
-0.058750752 -0.029077843 0.48519412 0.0012881934 839 164
-0.056378376 -0.029007616 0.48398867 0.0012551504 884 175
-0.053977042 -0.028916085 0.48242569 0.0012338642 875 173
-0.051699605 -0.028885916 0.48188469 0.0012377881 876 173
-0.04949506 -0.028895589 0.48200685 0.0012322105 884 175
-0.047309503 -0.028917782 0.48233676 0.0012609954 890 177
-0.04520455 -0.028993864 0.48356462 0.0012944475 821 159
-0.043153409 -0.029114148 0.48552895 0.0013393274 845 165
-0.040895358 -0.029100353 0.48525718 0.0012904895 821 159
-0.038666803 -0.029107166 0.48532936 0.0013440631 836 163
-0.036516853 -0.029177627 0.48646313 0.0012482222 858 169
-0.034306813 -0.029206153 0.48689854 0.0013211626 850 167
-0.032074872 -0.029218728 0.48706916 0.0012814418 841 164
-0.029838668 -0.029229023 0.48720315 0.0012783529 836 163
-0.027617909 -0.029257353 0.4876394 0.0012550898 853 167
-0.025358172 -0.029245755 0.48741201 0.0012189372 892 177
-0.023150198 -0.029297406 0.48824087 0.0012333022 905 181
-0.020958599 -0.029383153 0.48964009 0.001264913 879 174
-0.018652342 -0.029309453 0.48838484 0.0012306027 880 174
-0.01639156 -0.029296778 0.48814923 0.0013190546 880 174
-0.014140812 -0.029300844 0.4881953 0.0012372785 875 173
-0.011873141 -0.029264739 0.48757514 0.0012219873 894 178
-0.0096140485 -0.029237852 0.48711157 0.0012980289 895 178
-0.0073650023 -0.029234415 0.48704198 0.0011948972 932 188
-0.0051220404 -0.029262723 0.48750439 0.0011945032 928 187
-0.0028690475 -0.029233191 0.48700652 0.0012023825 918 184
-0.0006208698 -0.029216494 0.48672575 0.0012127733 905 181
0.0016278095 -0.029254952 0.48736721 0.0012404217 905 181
0.0038847954 -0.029311465 0.48831272 0.0012113454 901 180
0.0061276359 -0.029258933 0.48744494 0.0012380382 899 179
0.008370446 -0.029234512 0.48704877 0.001244817 891 177
0.010622885 -0.029246941 0.48726964 0.0013001687 870 172
0.012883006 -0.02927248 0.48771206 0.0012383156 891 177
0.015127533 -0.029260265 0.48752853 0.0012551151 873 173
0.017358109 -0.029227715 0.48700905 0.0012333462 877 174
0.019625409 -0.029257381 0.48752892 0.0012308487 881 175
0.021872172 -0.029253475 0.48749208 0.0012152393 900 180
0.024079794 -0.029202828 0.48667866 0.0012354953 896 179
0.026298519 -0.029173141 0.48621672 0.0012550434 905 181
0.028501315 -0.029131837 0.48556322 0.0012111211 905 181
0.0307648 -0.029154064 0.48597029 0.0012034819 922 185
0.03299867 -0.029147109 0.48589256 0.0012835438 911 182
0.035103805 -0.029034568 0.48405579 0.0012082943 911 182
0.037328444 -0.029028418 0.48399362 0.0012112949 908 182
0.039623607 -0.029074708 0.4848066 0.0011828342 938 189
0.041811261 -0.029041382 0.48429248 0.001208643 907 181
0.044055652 -0.02904884 0.48445854 0.001271498 909 182
0.046337098 -0.029078837 0.48500037 0.0012190382 897 179
0.04857837 -0.029082021 0.48509449 0.0012283656 896 179
0.050815906 -0.029082784 0.48514727 0.001208764 908 182
0.052905254 -0.029002253 0.48384258 0.0012069446 911 182
0.054968107 -0.028914293 0.48241207 0.0012264714 885 176
0.057032797 -0.028834106 0.48110896 0.0011981333 920 185
0.059212495 -0.028815884 0.48083726 0.0011938901 920 185
0.0614397 -0.028821263 0.48095649 0.0012241084 939 190
0.063693285 -0.028838214 0.4812654 0.0012324771 936 189
0.065913923 -0.028839607 0.48131111 0.0012109606 901 180
0.068102829 -0.028827481 0.48112693 0.0011969368 921 185
0.070293151 -0.028816693 0.48096043 0.0012904735 887 176
0.07236886 -0.028761022 0.48003975 0.0012779402 915 183
0.07425905 -0.028637109 0.47797444 0.0012314434 946 191
0.076301858 -0.028577486 0.47697619 0.0011599255 971 198
0.078514092 -0.028582888 0.47705665 0.0012408992 949 192
0.080548972 -0.028525181 0.47607684 0.0011896834 945 191
0.082721576 -0.028518021 0.47593319 0.0012476306 938 189
0.085085087 -0.02857534 0.47685754 0.0011734326 941 190
0.087490998 -0.028643658 0.47795671 0.0012530186 892 177
0.090471625 -0.028892161 0.48205283 0.0014032039 735 137
0.09277311 -0.028917057 0.48240799 0.0014087892 712 131
0.0949779 -0.02891136 0.48224244 0.0013185383 806 155
0.097220704 -0.028917225 0.4822588 0.0012815436 829 161
0.09947256 -0.028925462 0.48230326 0.0013375268 774 147
0.10167119 -0.028918201 0.48207736 0.0013232498 782 149
0.10400371 -0.028948518 0.48246518 0.0013407659 812 157
0.10635433 -0.028982492 0.48290041 0.0014262518 723 134
0.10844684 -0.028946187 0.48215085 0.00140753 730 136
0.1104416 -0.028885767 0.48098582 0.0013125713 797 153
0.11243389 -0.028827099 0.47983563 0.0013280077 780 149
0.11438885 -0.028761316 0.47855204 0.0013040785 814 157
0.11689711 -0.028834511 0.47956479 0.001425726 791 151
0.11954571 -0.028938947 0.48107889 0.0014003243 716 132
0.12156908 -0.028890982 0.4800415 0.0013836615 728 135
0.12375742 -0.028883243 0.47965479 0.0013176337 789 151
0.12614268 -0.028920924 0.48000333 0.0014666219 732 136
0.12837742 -0.028923385 0.47974735 0.0014631515 749 141
0.13044702 -0.02888919 0.47886351 0.0013310057 784 150
0.13242011 -0.028835118 0.47763044 0.0013855695 783 149
0.13524124 -0.028964464 0.47941309 0.0013708484 729 136
0.13711081 -0.02888912 0.47778505 0.0013119702 801 154
0.13967159 -0.028959492 0.47854394 0.0013192343 795 153
0.14195225 -0.028970489 0.47829702 0.001347167 780 149
0.14413993 -0.028962467 0.47771183 0.0013660182 818 158
0.14618365 -0.028926196 0.4766365 0.0014150696 778 148
0.14857471 -0.028958715 0.47666913 0.0013373485 796 153
0.15121137 -0.02903744 0.47743401 0.0013551085 779 148
