# .PCD v0.7 - Point Cloud Data file format
VERSION 0.7
FIELDS x y z noise intensity gray
SIZE 4 4 4 4 2 1
TYPE F F F F U U
COUNT 1 1 1 1 1 1
WIDTH 847
HEIGHT 1
VIEWPOINT 0 0 0 1 0 0 0
POINTS 847
DATA ascii
-0.037707295 -0.088046059 0.50276011 0.0011353903 1013 238
-0.035309102 -0.087843291 0.50161898 0.00115075 1030 243
-0.03291022 -0.087610289 0.50030279 0.0011444535 999 234
-0.030582335 -0.087545417 0.49994463 0.0011639833 965 224
-0.028350245 -0.087766543 0.50121802 0.0011644865 967 225
-0.026055973 -0.087817304 0.50151688 0.0011539517 976 227
-0.023746818 -0.087822907 0.5015564 0.0012298573 948 219
-0.02144823 -0.087873019 0.50184894 0.001238948 968 225
-0.019109271 -0.087749861 0.50115073 0.0011757973 951 220
-0.016779223 -0.087639377 0.50052392 0.0011853098 936 216
-0.014471374 -0.087628111 0.50046313 0.0012323462 950 220
-0.012182229 -0.087747306 0.5011465 0.0012215329 918 210
-0.0098407865 -0.087457456 0.4994933 0.0011921107 933 215
-0.0075466069 -0.08753892 0.49996021 0.0011831208 945 218
-0.0052466979 -0.087596305 0.50028902 0.0013570214 825 183
-0.0029409658 -0.087570205 0.50014067 0.0014376626 681 140
-0.0006268209 -0.08619836 0.49230587 0.0014181688 703 147
0.0016257759 -0.085385568 0.48766375 0.0014032457 776 168
0.0038465199 -0.08481355 0.48439625 0.0012799973 856 192
0.0060698637 -0.084697843 0.48373464 0.0012172634 902 206
0.0082909223 -0.084620975 0.48329437 0.0012471995 925 212
0.010513409 -0.084588133 0.48310494 0.0011964723 961 223
0.012729618 -0.084525079 0.48274258 0.0012448042 965 224
0.014944432 -0.084472917 0.48244169 0.0011640557 968 225
0.017153459 -0.084405765 0.48205459 0.0012294682 948 219
0.019363008 -0.084356293 0.48176748 0.0012609338 941 217
0.021569788 -0.084306166 0.48147577 0.0011676699 959 222
0.023750698 -0.084173709 0.48071274 0.0011546242 977 228
0.025907086 -0.083984353 0.47962356 0.0011490157 991 232
0.028084854 -0.083888628 0.47906765 0.0011661801 987 231
0.030272188 -0.083833337 0.47874108 0.0012334058 979 228
0.03242797 -0.083704107 0.47799051 0.0011411285 1001 235
0.034657795 -0.083770305 0.47835386 0.0011509177 998 234
0.036878698 -0.083808295 0.4785538 0.0011719717 963 224
0.038990837 -0.083608769 0.47739512 0.0011603945 980 229
0.041163847 -0.083554119 0.47706094 0.0011953578 930 214
0.043492373 -0.083804667 0.4784663 0.0012358705 884 200
0.04573318 -0.083870173 0.47881165 0.001290192 854 191
0.048226029 -0.084370583 0.48163617 0.0013858426 771 167
0.051090851 -0.085449092 0.48775604 0.0013524739 751 161
0.053134788 -0.085121602 0.4858458 0.0011555003 976 227
0.055421125 -0.085193232 0.48620901 0.0010987294 1070 255
0.057762984 -0.085341319 0.48700345 0.0011485653 1073 255
0.059955109 -0.085265376 0.48651406 0.0011723468 995 233
0.062075537 -0.085096642 0.48548961 0.0011777304 952 220
0.06450627 -0.085350215 0.48686826 0.0012117663 929 214
0.066742741 -0.085338324 0.48672599 0.0012335604 873 197
0.069060229 -0.085427456 0.4871529 0.0013413937 840 187
0.071722113 -0.085923545 0.48989245 0.0014668712 748 160
0.074358553 -0.086359762 0.49228185 0.0014608324 662 135
0.07789132 -0.087780237 0.50027132 0.0016697841 600 117
0.080101803 -0.087671645 0.49953586 0.0014379892 731 155
0.082572706 -0.08784619 0.500404 0.001343357 790 173
0.085039124 -0.088006578 0.50118136 0.0014436438 730 155
0.087188542 -0.087839112 0.50008124 0.0014945142 729 155
0.089544445 -0.087882943 0.50017333 0.0013985712 715 150
0.091859415 -0.087885395 0.50001842 0.0014740536 745 159
0.094400547 -0.088098802 0.50105125 0.0014659546 668 137
0.096537977 -0.087934256 0.49992201 0.0014119428 723 153
0.098726124 -0.087822519 0.49908069 0.0014851405 711 149
0.10139041 -0.088129774 0.50060618 0.0014679754 679 140
0.10361437 -0.088049106 0.49991354 0.0014944044 679 140
0.10572757 -0.087879911 0.49870411 0.0014410401 715 150
0.10814836 -0.087968133 0.49894056 0.0014013591 712 150
0.11085943 -0.088283829 0.50045002 0.0014259137 692 144
0.11319824 -0.088296212 0.5002225 0.001488314 704 147
0.1155049 -0.088283502 0.49983576 0.0014094708 706 148
0.11782277 -0.088279717 0.49948177 0.0015020793 710 149
0.12031183 -0.088401854 0.49982157 0.0014585314 690 143
0.12281601 -0.088530242 0.50017661 0.0015048782 656 133
0.12509783 -0.088496558 0.49959597 0.0014525672 677 139
0.12729523 -0.088405475 0.49867159 0.0013970273 713 150
0.13010646 -0.08873634 0.5001052 0.0014268267 688 142
0.13223587 -0.088598698 0.49887595 0.0014705245 730 155
0.13435706 -0.088460401 0.49762228 0.0014549749 702 147
0.13675228 -0.088504165 0.4973706 0.0014337529 708 148
0.13954911 -0.088802025 0.49852145 0.0014689032 697 145
0.14203396 -0.088894822 0.49849474 0.0014520899 674 138
0.14437854 -0.088898242 0.49794161 0.0015039131 709 149
0.14639987 -0.088705704 0.49626687 0.0014020571 710 149
0.14856558 -0.0886053 0.49508381 0.0013713769 739 158
0.15150326 -0.088961303 0.49642289 0.0014355328 705 147
0.15418355 -0.089157633 0.49683991 0.0014601966 739 158
0.15685216 -0.089341424 0.49715686 0.0014451152 753 162
0.15925653 -0.089371502 0.49658886 0.0014005151 746 160
0.16186234 -0.089512087 0.49660522 0.0013482706 751 161
0.16441102 -0.089617528 0.49639595 0.0013886733 757 163
0.16695881 -0.089719489 0.49613684 0.0013674228 732 155
0.16924533 -0.089680173 0.49506706 0.0013330798 769 166
0.17165141 -0.089704417 0.49431929 0.0014107616 771 167
0.17545335 -0.090447582 0.49749658 0.0013990402 755 162
0.17806672 -0.090566337 0.49720183 0.0014347215 757 163
0.18053593 -0.090609603 0.49646267 0.0013642911 781 170
0.18279222 -0.090546273 0.49511203 0.0013610499 788 172
0.1857674 -0.090836085 0.49566275 0.0013298448 769 166
0.18831128 -0.090910323 0.4950074 0.0013155818 791 173
0.19106856 -0.091084436 0.49486837 0.0013617638 777 169
0.19377343 -0.091229551 0.49454528 0.001359867 770 167
0.19679272 -0.091517344 0.49496961 0.0013175593 789 172
0.1997724 -0.09177997 0.49523279 0.0013027871 800 175
0.20230667 -0.091834143 0.49435174 0.0013135396 790 173
0.2049727 -0.091946132 0.49376777 0.0013289881 770 167
0.20796549 -0.092200384 0.49393499 0.0013746246 733 156
0.21083952 -0.092396736 0.49378243 0.0013830728 726 154
0.21373975 -0.092599936 0.49366251 0.0013831798 723 153
0.21687764 -0.092900366 0.49406099 0.001388295 718 151
0.21969938 -0.093060203 0.49371853 0.001413736 698 145
0.2221054 -0.093042359 0.4924508 0.0014867624 706 148
0.2248916 -0.093182422 0.49204338 0.0014120208 701 146
0.22781748 -0.093376733 0.49195161 0.0014387029 676 139
0.23101909 -0.093678683 0.49246195 0.001513429 632 126
0.23383781 -0.093820654 0.49217471 0.0015413228 605 118
0.23660535 -0.093939312 0.49181843 0.0015537322 600 117
0.23964319 -0.094161756 0.49206558 0.00180585 547 101
0.24266551 -0.094373599 0.49232382 0.001670694 537 98
0.24530026 -0.094431937 0.49185619 0.0016468774 548 101
0.24791561 -0.094481722 0.49142632 0.0016608675 540 99
0.25119248 -0.094780132 0.49237567 0.00175082 504 88
0.25378686 -0.094817668 0.49206063 0.0019631507 467 77
0.25606412 -0.094737165 0.49122939 0.0020434046 441 70
0.25853506 -0.094729178 0.49087331 0.0018895612 444 71
0.25938702 -0.094133794 0.48757499 0.0020576622 429 66
-0.30427298 -0.095197856 0.51266241 0.0028765348 238 10
-0.30282682 -0.095553271 0.51357448 0.0028432172 246 12
-0.30010074 -0.095507465 0.51240063 0.003009863 271 20
-0.29793355 -0.095640279 0.51226139 0.0025233456 289 25
-0.29545429 -0.095674366 0.51167256 0.0026978084 278 22
-0.29260802 -0.095589161 0.51053071 0.0024772491 296 27
-0.29018307 -0.095641285 0.51021051 0.0025561098 320 34
-0.28849426 -0.095939167 0.51129085 0.0025157933 307 30
-0.28617725 -0.096031651 0.51136941 0.0022497636 341 40
-0.28415111 -0.096224308 0.51207864 0.0026444639 316 33
-0.28169137 -0.096272357 0.51211834 0.002924975 265 18
-0.27885926 -0.096192837 0.51158273 0.0022169051 349 43
-0.27496794 -0.095743015 0.50918245 0.0020264452 398 57
-0.27223706 -0.095692553 0.50901145 0.0021504043 415 62
-0.26939937 -0.095603198 0.50873882 0.0019131009 428 66
-0.26656348 -0.095512763 0.50856489 0.0019435921 471 79
-0.26445666 -0.09568435 0.50988978 0.0017552638 491 84
-0.26140395 -0.095513724 0.50949204 0.0018639601 494 85
-0.25870168 -0.095468998 0.5098623 0.0017063364 520 93
-0.25600395 -0.095425062 0.51032937 0.0017020224 519 93
-0.25285679 -0.095211022 0.50997275 0.0017521121 520 93
-0.249083 -0.094754197 0.5083915 0.0016276891 555 103
-0.2460787 -0.094583645 0.50841522 0.0016238667 558 104
-0.24324426 -0.094475493 0.50883883 0.0017416854 574 109
-0.23991236 -0.094169773 0.50825363 0.0015254082 617 122
-0.23660477 -0.093867145 0.50772989 0.0015383868 672 138
-0.23349389 -0.093636841 0.5076347 0.0015884746 674 138
-0.23064676 -0.093508415 0.50812328 0.0014808881 684 141
-0.22756486 -0.093280926 0.50809711 0.0013708713 733 156
-0.22458972 -0.093092591 0.50829989 0.0014068952 710 149
-0.22115798 -0.092708573 0.50744069 0.0014113986 762 164
-0.2186278 -0.092698008 0.50862825 0.0013873547 721 152
-0.21580432 -0.092561416 0.50912434 0.0013630142 737 157
-0.21211836 -0.092047341 0.5075323 0.0013442744 766 165
-0.20939806 -0.091945097 0.50819486 0.0013660098 740 158
-0.20678875 -0.091889709 0.5091024 0.0013899433 770 167
-0.20327528 -0.091426305 0.50772727 0.0013540003 753 162
-0.20060132 -0.091333739 0.50838578 0.0013089963 792 173
-0.19793053 -0.091240317 0.50901598 0.0013174098 778 169
-0.19512247 -0.091080479 0.50924915 0.0013481847 775 168
-0.1908714 -0.090234362 0.50560796 0.0012813694 819 181
-0.18916593 -0.090585344 0.50864208 0.0013359461 783 170
-0.18657292 -0.09051495 0.50928563 0.0013718455 759 163
-0.18279546 -0.089860424 0.50660598 0.0013162721 795 174
-0.17993046 -0.089642867 0.50635099 0.0013638535 783 170
-0.17773922 -0.089759625 0.50795382 0.0014523856 710 149
-0.17523454 -0.089719146 0.50863785 0.0013337213 769 166
-0.17215186 -0.089377441 0.50758046 0.0013317848 776 168
-0.16877246 -0.088869758 0.50554246 0.0012923874 817 181
-0.16619051 -0.088773385 0.50580889 0.0013959833 745 159
-0.1637926 -0.088773966 0.50659752 0.0014198312 728 154
-0.16130368 -0.088724487 0.50707102 0.0013612785 754 162
-0.15859202 -0.088549145 0.50679475 0.0014251205 744 159
-0.15569049 -0.0882608 0.50583977 0.0013283289 771 167
-0.15290923 -0.088032722 0.50519854 0.0013400206 778 169
-0.15046731 -0.087995872 0.50562572 0.0013871649 716 151
-0.14819899 -0.08806102 0.5066126 0.001374079 738 157
-0.14597638 -0.088155881 0.50774556 0.0014428563 725 153
-0.143286 -0.087966718 0.50721669 0.0013218763 775 168
-0.14079645 -0.087896563 0.5073477 0.0014097294 758 163
-0.13824978 -0.08778771 0.50723004 0.0013632143 741 158
-0.13576157 -0.087712839 0.50728428 0.0014498766 711 149
-0.13322785 -0.087605365 0.50712627 0.0014120101 705 147
-0.13077877 -0.08755067 0.50725073 0.0013836045 728 154
-0.12842569 -0.087559417 0.50772107 0.0013481235 756 163
-0.12603316 -0.087541081 0.50801349 0.0014080673 715 150
-0.12350629 -0.08742696 0.50772923 0.0013900824 719 152
-0.12096477 -0.087297805 0.50733739 0.0013600625 749 160
-0.11839476 -0.087142557 0.50677359 0.0014187057 752 161
-0.11609861 -0.087186664 0.50735062 0.0014034589 718 151
-0.11333014 -0.086870559 0.50581294 0.0013787876 730 155
-0.11045279 -0.086455822 0.50368172 0.0013824281 727 154
-0.10716946 -0.085698552 0.4995349 0.0012336378 883 200
-0.10470829 -0.08557979 0.49909174 0.0012561709 946 219
-0.1021177 -0.085347496 0.49797073 0.0011884752 933 215
-0.099774532 -0.085316025 0.49800637 0.0012849215 876 198
-0.097402401 -0.085257724 0.49787152 0.0012101361 904 206
-0.095125377 -0.085281864 0.4982048 0.0011491544 990 232
-0.092815377 -0.085276894 0.49835548 0.0011225207 1039 246
-0.090445712 -0.085215457 0.49816406 0.0012487704 913 209
-0.08807344 -0.085148297 0.49792731 0.0012946645 812 179
-0.085812174 -0.085187733 0.49830297 0.0012487929 876 198
-0.083532773 -0.085210837 0.49857271 0.0012352718 922 211
-0.081199422 -0.085178666 0.49850899 0.0012253165 927 213
-0.078833066 -0.085108981 0.49821609 0.0012380265 915 209
-0.076751925 -0.085352279 0.49974662 0.0012666309 917 210
-0.074595734 -0.085524604 0.50085354 0.0012105061 908 207
-0.072373092 -0.085629329 0.50155675 0.0011907292 937 216
-0.070021905 -0.085583851 0.50137258 0.0011903639 955 221
-0.067733862 -0.085615091 0.5016306 0.0012288274 986 230
-0.065530352 -0.085759185 0.50254321 0.0011971712 983 229
-0.063207105 -0.085751377 0.5025593 0.0011506622 982 229
-0.060906958 -0.085775517 0.50275671 0.001272407 929 214
-0.058470123 -0.085601442 0.50178671 0.0012111469 926 213
-0.056134414 -0.085567176 0.50163096 0.0012365682 903 206
-0.053849682 -0.085611016 0.50192815 0.0012001544 921 211
-0.051556528 -0.085644811 0.5021621 0.001170118 958 222
-0.04927491 -0.085701823 0.50252813 0.0011663714 960 223
-0.046930261 -0.085649438 0.50224888 0.0011640857 968 225
-0.044648979 -0.085713275 0.5026477 0.0011571553 982 229
-0.042284884 -0.085616402 0.50210088 0.0012236106 987 231
-0.03998119 -0.085637711 0.50224429 0.0011609358 989 231
-0.037630297 -0.085554309 0.50177097 0.0011558549 1004 236
-0.035299599 -0.085508913 0.50151819 0.0011351232 1020 240
-0.032970861 -0.085462242 0.50125593 0.0011565208 985 230
-0.030626226 -0.08536423 0.50069058 0.0011928175 956 221
-0.028324367 -0.085379198 0.50078636 0.001187632 943 218
-0.026033035 -0.085431352 0.50109881 0.0012108664 953 221
-0.023774371 -0.085611314 0.50215971 0.0012399053 926 213
-0.021448294 -0.085561134 0.50186974 0.0011820177 944 218
-0.019139376 -0.085575558 0.50195777 0.0012072345 929 214
-0.016777901 -0.085326657 0.5005005 0.0011778506 948 219
-0.014458327 -0.08524549 0.5000264 0.0011756963 952 220
-0.012145416 -0.085180283 0.49964547 0.0011930676 955 221
-0.009841091 -0.085158885 0.49952111 0.0012156089 965 224
-0.0075386702 -0.085145935 0.49944595 0.0012063589 913 209
-0.0052439049 -0.085246041 0.50003374 0.0014564253 733 156
-0.0028973711 -0.084002122 0.49273741 0.0014583563 701 146
-0.00061835482 -0.082796693 0.48566678 0.0013358741 769 166
0.0016152556 -0.082600892 0.48451829 0.0013172508 824 183
0.0038402365 -0.082447015 0.48361546 0.0013028749 885 201
0.0060581216 -0.082309723 0.48280966 0.0012690548 922 211
0.0082890987 -0.082376279 0.48319948 0.0011908844 951 220
0.01052429 -0.082447663 0.48361728 0.0011628725 971 226
0.012742711 -0.082385696 0.48325247 0.0011646547 963 224
0.014933516 -0.082190163 0.48210382 0.0011733548 961 223
0.01713971 -0.082118995 0.48168418 0.0011866704 932 214
0.019356607 -0.082109533 0.4816258 0.0012114666 909 208
0.021546111 -0.081997775 0.4809666 0.0012492506 948 219
0.023726163 -0.081874244 0.48023751 0.0011440227 995 233
0.025914367 -0.081797518 0.47978181 0.0011611346 966 224
0.028132601 -0.081820197 0.47990799 0.0011687326 966 224
0.030287659 -0.081669204 0.47901413 0.0011676589 954 221
0.032462221 -0.081587747 0.47852644 0.0011779763 1001 235
0.034671862 -0.081599206 0.47858188 0.0011675014 967 225
0.03684143 -0.081520647 0.4781073 0.0012595481 934 215
0.038941454 -0.08130572 0.47683072 0.0011706658 969 225
0.041140355 -0.081309192 0.47683239 0.0011949237 922 211
0.04344403 -0.081508875 0.47798193 0.0012454895 926 213
0.045634344 -0.081486873 0.47782812 0.0012486451 866 195
0.047853757 -0.08151646 0.47797346 0.0013002051 840 187
0.050873999 -0.082847588 0.48574618 0.0014248256 772 167
0.053099662 -0.082827061 0.48558927 0.0012214151 899 205
0.055222467 -0.08265426 0.48453531 0.0011584613 1046 248
0.057568785 -0.082816422 0.48544016 0.0011238002 1025 242
0.059947874 -0.083011836 0.48653439 0.001223625 971 226
0.062179562 -0.082996391 0.48638725 0.0012238414 888 201
0.064419061 -0.082992099 0.48629937 0.0012230246 894 203
0.066897213 -0.083285198 0.48794764 0.0012999027 865 195
0.069381073 -0.083566107 0.48951703 0.0013995291 775 168
0.072384372 -0.084435217 0.49452373 0.0016033455 652 132
0.075274125 -0.085122809 0.49845797 0.001655058 630 125
0.077564925 -0.085112385 0.49829569 0.0014408703 682 141
0.080035761 -0.085294433 0.49925134 0.0014402492 717 151
0.082784958 -0.085754625 0.50182498 0.0014632229 730 155
0.085075468 -0.08572755 0.50153673 0.0014382843 717 151
0.087492391 -0.085825935 0.50197208 0.0014192838 697 145
0.089527875 -0.085554712 0.50023526 0.0014602779 705 147
0.09195143 -0.085658647 0.50068104 0.0014013717 709 149
0.09427052 -0.085662574 0.50053024 0.0014552159 669 137
0.096388005 -0.085487492 0.49932137 0.0014052477 711 149
0.098699413 -0.085488573 0.49912906 0.0014051429 710 149
0.10122433 -0.085670307 0.49997765 0.0014385898 686 142
0.10359058 -0.085712641 0.49999809 0.0015342834 677 139
0.1057145 -0.085556999 0.4988493 0.0013944746 712 150
0.10798769 -0.085526235 0.49841416 0.0014247363 724 153
0.11055871 -0.085727692 0.49931604 0.0014110146 703 147
0.1131126 -0.085907884 0.50007635 0.0014623735 728 154
0.11550406 -0.085959949 0.50007302 0.0013825026 730 155
0.11791089 -0.086021163 0.5001049 0.0014421337 691 143
0.12009764 -0.085922554 0.49918967 0.0014164344 698 145
0.12240504 -0.085912369 0.49876958 0.0014279314 679 140
0.12486523 -0.086007811 0.49894291 0.0014337713 701 146
0.12726931 -0.086061805 0.49885508 0.0014353184 685 142
0.12959123 -0.086059324 0.49841884 0.0014326388 680 140
0.13183768 -0.086007677 0.49767673 0.0014396287 678 140
0.13401426 -0.08591304 0.4966647 0.0013938642 714 150
0.13685788 -0.086241953 0.49807724 0.001369285 743 159
0.13944222 -0.08639922 0.49847236 0.001429901 689 143
0.14201617 -0.086544968 0.49877518 0.0014123532 701 146
0.14411394 -0.086400494 0.49738085 0.0014672315 742 158
0.14612666 -0.086210467 0.49570131 0.001379139 733 156
0.1486163 -0.086303338 0.49562344 0.0014490912 749 160
0.15130891 -0.086509407 0.49616727 0.0014254848 734 156
0.15421657 -0.086830273 0.49733862 0.0013690153 738 157
0.15648316 -0.086786002 0.49638897 0.0013271999 776 168
0.15906122 -0.086913213 0.49639171 0.0013573794 747 160
0.16169925 -0.087069005 0.49652702 0.0013640986 761 164
0.16453443 -0.087324984 0.49720138 0.0013767825 729 155
0.16696692 -0.087363005 0.49660313 0.00143733 759 163
0.16923514 -0.087315232 0.4954882 0.0013604824 802 176
0.17157988 -0.087307706 0.49457303 0.0012755938 836 186
0.17431615 -0.087496899 0.4947412 0.0013791232 780 170
0.17787288 -0.088087335 0.49714106 0.0013399877 765 165
0.18007308 -0.087999277 0.49567753 0.0013050194 797 175
0.18247761 -0.088012047 0.49475458 0.0013579045 829 184
0.18513979 -0.088147186 0.49449027 0.0012792862 837 186
0.18826327 -0.088495702 0.49539095 0.001270352 833 185
0.19070232 -0.088517793 0.49443468 0.0012854871 819 181
0.19357954 -0.088740207 0.49457058 0.0013178976 787 172
0.19671261 -0.08907304 0.49529308 0.0012850394 819 181
0.19892313 -0.088985123 0.49365351 0.0013167666 790 173
0.20171037 -0.089154221 0.49342182 0.0013055119 792 173
0.20460755 -0.089367338 0.49341527 0.0013507163 770 167
0.20780592 -0.089705504 0.49408188 0.0013355257 770 167
0.21065699 -0.089887679 0.49387684 0.0013698136 737 157
0.21350773 -0.090065546 0.49364233 0.001468194 718 151
0.21639173 -0.090253301 0.49346152 0.0014666786 730 155
0.21902026 -0.090331495 0.49268851 0.001421978 725 153
0.22180772 -0.090472788 0.49227345 0.0013893892 722 153
0.22458589 -0.090607248 0.49184108 0.0014349862 682 141
0.22796282 -0.090977773 0.49271443 0.0014744437 667 136
0.23088206 -0.091159686 0.49259749 0.0015554349 657 133
0.23365122 -0.091279112 0.49218541 0.0016531615 605 118
0.236237 -0.091325156 0.49142924 0.0017507985 573 109
0.23919719 -0.091513507 0.49149758 0.0017338675 555 103
0.24250917 -0.091831207 0.49232399 0.0016384245 553 103
0.24546941 -0.092010617 0.49247989 0.0016643106 547 101
0.2481539 -0.092084117 0.49214846 0.0016905572 528 95
0.2513364 -0.092339128 0.49287212 0.0018852239 496 86
0.2534014 -0.092182584 0.49149039 0.0019549874 471 79
0.25597131 -0.092210993 0.49119121 0.0017867023 482 82
0.25813949 -0.092095509 0.49022451 0.0020593845 447 71
0.26295081 -0.092916213 0.49433964 0.0020269733 396 56
-0.30391049 -0.092514932 0.5117358 0.0029050393 240 10
-0.30250943 -0.092873663 0.51273924 0.003121828 242 11
-0.29976362 -0.092822149 0.51154947 0.0027909144 256 15
-0.29805979 -0.093095198 0.51222485 0.0028600176 282 23
-0.29631925 -0.093361437 0.51294076 0.0025951769 282 23
-0.29308909 -0.093158931 0.51116681 0.0025522988 297 27
-0.29077804 -0.09324754 0.51108092 0.0024488256 303 29
-0.28724048 -0.092940882 0.50892282 0.0024753963 325 35
-0.28638253 -0.093503572 0.51162034 0.0024291617 317 33
-0.28462651 -0.093780652 0.51285172 0.0024109033 311 31
-0.28189367 -0.093738027 0.51243633 0.0028506268 271 20
-0.27742538 -0.093112141 0.50893772 0.0022042776 351 43
-0.27557406 -0.093361057 0.51032656 0.0022037718 398 57
-0.27264902 -0.093247496 0.50984019 0.0021106061 423 64
-0.26950055 -0.093054622 0.50902587 0.0021217186 426 65
-0.26678517 -0.093008995 0.50912166 0.0018805994 445 71
-0.26404166 -0.092952557 0.50926113 0.0018381982 470 78
-0.26141053 -0.092934966 0.50971371 0.0017664729 488 84
-0.25863755 -0.092866085 0.50998145 0.0017097425 515 91
-0.25569126 -0.092732966 0.50998682 0.0017719314 507 89
-0.25253791 -0.09252128 0.50964367 0.0017319382 504 88
-0.249255 -0.092257291 0.50908804 0.0016636438 575 109
-0.2453327 -0.091748692 0.50724757 0.0016550956 565 106
-0.24257091 -0.091667987 0.50783134 0.001600691 578 110
-0.2396111 -0.091509938 0.50804114 0.0016167093 623 123
-0.23663934 -0.091343887 0.50825173 0.0014617778 659 134
-0.2338759 -0.091255523 0.50893253 0.0014613337 679 140
-0.23095743 -0.091104068 0.50929159 0.0014632678 704 147
-0.22765072 -0.090794414 0.50878578 0.0014035209 740 158
-0.22482559 -0.090672038 0.50934219 0.0014344258 728 154
-0.2210853 -0.090173617 0.50778937 0.001403891 747 160
-0.21819255 -0.090013459 0.5081377 0.0013250577 789 172
-0.21467376 -0.089588284 0.50698203 0.0014197329 769 166
-0.21183063 -0.089438438 0.50737119 0.0013439785 765 165
-0.20923683 -0.089391544 0.50833225 0.0014458676 755 162
-0.20598443 -0.089058794 0.50764894 0.0013049642 800 175
-0.20328952 -0.088961914 0.50828755 0.0013417643 747 160
-0.20042719 -0.088788457 0.50846535 0.0013101829 787 172
-0.19777024 -0.088702813 0.50912023 0.0013186292 795 174
-0.19405647 -0.088135034 0.50697541 0.0013214486 822 182
-0.19162305 -0.088141665 0.50810176 0.001317782 791 173
-0.18902056 -0.088069685 0.50874692 0.0013154206 792 173
-0.18638593 -0.087980673 0.5092634 0.0014245019 779 169
-0.18266003 -0.087367333 0.50670773 0.0013972326 735 156
-0.17976777 -0.087141551 0.50636095 0.0013723931 743 159
-0.17642944 -0.086690456 0.5046677 0.0012876128 812 179
-0.17416838 -0.086763509 0.50599176 0.0013304387 781 170
-0.17195222 -0.086861312 0.50743186 0.0013803578 795 174
-0.16880371 -0.086484209 0.50606501 0.0013292307 796 174
-0.16592328 -0.086235553 0.50541395 0.0013320746 756 163
-0.16343492 -0.086186379 0.50589985 0.0013032219 794 174
-0.16120848 -0.086275898 0.50717127 0.001333371 766 165
-0.15872848 -0.08623039 0.50762045 0.0013525699 790 173
-0.15603374 -0.086065032 0.50733417 0.0012998446 798 175
-0.15316406 -0.085796528 0.50640881 0.0014365207 775 168
-0.1504463 -0.085605986 0.50591308 0.0013918892 715 150
-0.14793395 -0.085528083 0.50605452 0.0013863862 719 152
-0.14577946 -0.085657917 0.50739956 0.0013641629 743 159
-0.1432893 -0.085591532 0.50755745 0.0013376215 773 168
-0.14079122 -0.085518122 0.50764811 0.001424246 697 145
-0.13831018 -0.085452698 0.5077613 0.0015386435 683 141
-0.13589276 -0.085425004 0.50807476 0.0013836809 733 156
-0.13326244 -0.085260108 0.50754839 0.0014589439 739 158
-0.13079973 -0.08519841 0.50761312 0.0013753682 753 162
-0.12833287 -0.085131697 0.507626 0.0014838784 715 150
-0.1258108 -0.085025169 0.50738001 0.0014557195 735 156
-0.12345885 -0.085031725 0.50778824 0.001391543 718 151
-0.12087981 -0.084879085 0.50722587 0.0014324697 718 151
-0.11838873 -0.08478336 0.50698376 0.0015371797 692 144
-0.11586602 -0.084660634 0.50656146 0.0014685728 711 149
-0.1133129 -0.08451017 0.50595462 0.0013784176 739 158
-0.11056191 -0.08420261 0.50438911 0.0014012551 717 151
-0.10707708 -0.08331082 0.49930394 0.0013056583 869 196
-0.10468195 -0.083246194 0.49915794 0.0012276893 921 211
-0.10209164 -0.083019927 0.49802715 0.0011921399 927 213
-0.099740744 -0.082982391 0.49801362 0.0012265345 889 202
-0.097534128 -0.083065964 0.49871352 0.0012015365 919 211
-0.095097497 -0.082952946 0.49822003 0.0012056014 975 227
-0.092824027 -0.082980156 0.49855617 0.0012015881 942 217
-0.090487801 -0.08295124 0.49854308 0.0012936007 864 194
-0.088132314 -0.0829027 0.49840051 0.001252374 857 192
-0.085766509 -0.082841568 0.49817127 0.0012245249 900 205
-0.083603159 -0.08297801 0.49912 0.0011820154 942 217
-0.081268743 -0.082947597 0.49905524 0.0011687996 963 224
-0.079013042 -0.082998104 0.499468 0.0011886659 934 215
-0.077043623 -0.08336138 0.50175476 0.0012558412 926 213
-0.074729748 -0.083362937 0.50185621 0.0011919446 928 213
-0.072339065 -0.083276168 0.50141793 0.0012413572 942 217
-0.070045941 -0.083299689 0.50163597 0.0011460801 994 233
-0.067851618 -0.083446316 0.50258863 0.0012089312 998 234
-0.06550736 -0.083412401 0.50244737 0.0011594213 974 227
-0.063160211 -0.083372191 0.50226176 0.0011684481 964 224
-0.060727671 -0.083211899 0.50134689 0.0012377416 953 221
-0.058515657 -0.083353065 0.50224286 0.0012020562 954 221
-0.056251362 -0.083428331 0.50273681 0.001178035 949 219
-0.05382473 -0.083258927 0.50175166 0.0011914718 932 214
-0.051454704 -0.083165817 0.50122201 0.0012372034 963 224
-0.049214572 -0.083283775 0.50196028 0.0012065164 972 226
-0.046958812 -0.083385602 0.50259793 0.0012005252 982 229
-0.044563476 -0.083237313 0.50172472 0.0011586699 981 229
-0.042237662 -0.083209738 0.50157619 0.001210553 985 230
-0.039931286 -0.083219483 0.5016498 0.0011915138 1001 235
-0.037644506 -0.083273776 0.5019896 0.0011809333 986 230
-0.035328291 -0.083265811 0.50195199 0.0011583391 979 228
-0.033020694 -0.083278455 0.50203669 0.0011666267 965 224
-0.030671237 -0.083179474 0.50144696 0.0011929307 930 214
-0.028350528 -0.083148696 0.50126684 0.0012164983 943 218
-0.026055112 -0.083193213 0.50153935 0.0012369624 936 216
-0.023742326 -0.083185539 0.50149626 0.0011943266 946 219
-0.021457942 -0.083286442 0.5021069 0.0012400468 917 210
-0.019082952 -0.083017558 0.50048757 0.0011745535 951 220
-0.016761823 -0.082941286 0.50002897 0.0012150188 959 222
-0.014455874 -0.082927808 0.49994826 0.0011745488 958 222
-0.012150911 -0.082915932 0.49987707 0.0011657525 967 225
-0.0098442677 -0.082884364 0.49968696 0.0011948968 930 214
-0.0075420681 -0.082882352 0.49967492 0.0013904597 772 167
-0.0052260361 -0.082659781 0.4983331 0.0014256248 695 145
-0.0028615508 -0.080721639 0.48664847 0.0014009391 780 170
-0.000617299 -0.080421694 0.48484015 0.0012628651 839 187
0.0016091147 -0.080063194 0.48267895 0.0012211048 897 204
0.0038343249 -0.080095537 0.48287395 0.0012332709 878 198
0.0060586557 -0.080092505 0.48285562 0.0013208148 885 201
0.008281759 -0.080079228 0.48277557 0.0012384126 930 214
0.01051798 -0.080171563 0.48333222 0.001165331 969 225
0.012744791 -0.080172434 0.48333716 0.0011684899 982 229
0.014931598 -0.079958841 0.48204893 0.0012448396 933 215
0.017125662 -0.079834364 0.48129773 0.0012097071 929 214
0.019338066 -0.079814129 0.48117447 0.001214238 913 209
0.021529214 -0.079719357 0.48060119 0.0011802554 945 218
0.023721298 -0.079645395 0.4801527 0.0011504283 999 234
0.025962338 -0.079734407 0.48068583 0.0012617558 945 218
0.028187055 -0.079763234 0.48085517 0.0012310202 961 223
0.030375477 -0.079692632 0.48042372 0.0011642526 977 228
0.03249523 -0.079463705 0.47903645 0.0011953422 962 223
0.034648556 -0.079340763 0.47828639 0.0012149308 946 219
0.036771506 -0.079167143 0.47722903 0.00117396 952 220
0.038940292 -0.079106212 0.47684887 0.0011698526 952 220
0.041084882 -0.079005279 0.47622511 0.0011976896 920 211
0.043295477 -0.079035051 0.47638664 0.001223358 917 210
0.045622885 -0.079264916 0.47775123 0.0012626919 918 210
0.048176125 -0.079847917 0.48124072 0.0012912987 865 195
0.050616357 -0.080200538 0.48333782 0.0013014789 801 176
0.053245489 -0.08081013 0.48697928 0.0014179987 789 172
0.0554052 -0.080686778 0.48619932 0.0012047095 968 225
0.057633672 -0.080669276 0.48605263 0.0011617924 993 232
0.059877913 -0.08067432 0.48603672 0.0011889911 956 221
0.062228039 -0.080816522 0.48684165 0.0012433192 861 193
0.06480699 -0.081235647 0.48930866 0.0013576188 803 176
0.067222759 -0.0814289 0.49040839 0.0013965047 778 169
0.070322864 -0.082411572 0.49625471 0.0014389521 688 142
0.073075682 -0.082938105 0.49934584 0.0015743945 597 116
0.0753861 -0.082945697 0.49930435 0.0014116988 702 147
0.077591479 -0.082840718 0.49857724 0.0014745564 734 156
0.080034882 -0.082988575 0.49936315 0.0013806465 729 155
0.08279711 -0.083449498 0.50202292 0.0013857016 723 153
0.085280813 -0.083612241 0.50287831 0.00144196 701 146
0.087250493 -0.08327575 0.50072145 0.0013992139 720 152
0.089572102 -0.083283857 0.50062633 0.0013523882 750 161
0.091917515 -0.08331313 0.50064731 0.0013759898 735 156
0.094200447 -0.083285742 0.50031614 0.0014683364 714 150
0.096515872 -0.083287679 0.50014895 0.0015328384 660 134
0.098790906 -0.0832555 0.4997642 0.0014417933 686 142
0.1012974 -0.083415382 0.50051874 0.0013855827 729 155
0.10359154 -0.083397187 0.5001905 0.0015409335 668 137
0.10575522 -0.083277032 0.4992367 0.0014168253 692 144
0.10791167 -0.083156444 0.49826604 0.0014035559 706 148
0.11029969 -0.083215639 0.49835709 0.0014133574 708 148
0.11293151 -0.08345256 0.4994953 0.0013901122 725 153
0.11555514 -0.083674006 0.50052243 0.0014056433 709 149
0.11779801 -0.08361645 0.4998627 0.0014396779 719 152
0.11981709 -0.083405353 0.49826786 0.0015000671 715 150
0.12214566 -0.083413601 0.49796566 0.001541164 667 136
0.12462994 -0.083525904 0.4982647 0.0015170659 659 134
0.1270663 -0.083602563 0.49833032 0.0014163929 696 145
0.1294207 -0.083623521 0.49804288 0.0013721061 740 158
0.1315576 -0.083505705 0.49690807 0.0014999951 711 149
0.13392064 -0.083532982 0.49661547 0.0013807082 741 158
0.13639116 -0.083625257 0.49668586 0.001468855 700 146
0.139033 -0.08381772 0.49732658 0.0015504468 686 142
0.14137235 -0.083824493 0.49684048 0.0013923331 716 151
0.14380789 -0.083887137 0.49666071 0.0014160264 761 164
0.14610374 -0.083867617 0.49596909 0.0014860915 719 152
0.14852151 -0.083917595 0.49566251 0.0014063747 785 171
0.15138115 -0.084211826 0.49676991 0.0013512505 748 160
0.15395252 -0.084339179 0.49686286 0.0013229803 780 170
0.1565242 -0.084462889 0.496905 0.0013908956 721 152
0.15876697 -0.084408097 0.4958685 0.0014326592 759 163
0.16147873 -0.084600575 0.49625519 0.0014321849 759 163
0.16433057 -0.0848599 0.49700117 0.001341234 796 174
0.16704068 -0.085039712 0.49724838 0.0013359264 770 167
0.16925409 -0.084965192 0.49597818 0.0014192302 788 172
0.17160553 -0.084961057 0.4950901 0.0013548874 746 160
0.17442337 -0.085184798 0.49549827 0.0013499085 746 160
0.17696679 -0.08527033 0.49506992 0.0012959734 809 178
0.17967567 -0.085432269 0.49505347 0.0012715252 827 183
0.18226546 -0.085534118 0.49465719 0.0013830444 786 171
0.18507461 -0.085734956 0.49480173 0.0013874109 779 169
0.18797973 -0.085974574 0.49513775 0.0013763065 765 165
0.19081223 -0.086175397 0.49521887 0.0013118216 804 177
0.19324084 -0.086191088 0.49420896 0.0012709955 833 185
0.19610184 -0.086396903 0.49426341 0.0013064165 815 180
0.19857024 -0.086426847 0.49328813 0.0013183159 776 168
0.20125791 -0.0865504 0.49282706 0.0012976847 817 181
0.20422909 -0.0867915 0.49301535 0.0014126295 783 170
0.20705484 -0.086965896 0.49280772 0.0013298915 775 168
0.21076925 -0.087505206 0.49465054 0.0013729346 730 155
0.21334927 -0.087566644 0.49378091 0.001382843 727 154
0.21576309 -0.087559238 0.49252465 0.0014440474 769 166
0.21866734 -0.087748811 0.49238175 0.0014756104 711 149
0.22154143 -0.087922238 0.49215767 0.00148342 682 141
0.2246487 -0.088183388 0.49243978 0.0014336013 696 145
0.22771151 -0.088421673 0.49261549 0.001444309 684 141
0.23078255 -0.088658005 0.4928101 0.0015363466 644 130
0.23360565 -0.088795133 0.49249178 0.0016410996 617 122
0.23626579 -0.088868082 0.49186623 0.0015504143 598 116
0.23894121 -0.088945225 0.49132097 0.0015861316 581 111
0.24263652 -0.089396551 0.49290353 0.0016501116 537 98
0.24520007 -0.089425966 0.4922286 0.0016517015 550 102
0.24813868 -0.089590207 0.49237421 0.0016328257 555 103
0.2500965 -0.089400597 0.49066126 0.0018283605 523 94
0.25350884 -0.089729533 0.49188435 0.0018181929 486 83
0.25583875 -0.089672677 0.49108598 0.001862828 476 80
0.25835481 -0.089681529 0.49074611 0.0019565802 473 79
0.26009917 -0.089424886 0.4890548 0.0019216955 438 69
-0.3067928 -0.09079849 0.51628506 0.0029775032 227 7
-0.30234352 -0.090244681 0.51217544 0.0028745071 242 11
-0.29967919 -0.090218715 0.5111441 0.0028399804 246 12
-0.29803577 -0.090502277 0.51194429 0.00276729 267 18
-0.29570827 -0.090581283 0.51166803 0.0025124419 293 26
-0.2932367 -0.090617165 0.511235 0.0025025494 288 25
-0.29051024 -0.090574205 0.51044852 0.0026924955 298 28
-0.28801829 -0.090604246 0.51016819 0.0026264726 315 33
-0.2861048 -0.090818465 0.51102185 0.0023854699 311 31
-0.28349242 -0.090812713 0.51073784 0.0024436235 316 33
-0.28216022 -0.091220737 0.51288372 0.0026783547 270 19
-0.27842471 -0.090852149 0.51076859 0.0022035406 347 42
-0.27573186 -0.090820044 0.51065189 0.0020704365 402 58
-0.27344871 -0.09092357 0.51140529 0.0020111336 404 59
-0.2697641 -0.090558596 0.50962985 0.0018665491 448 72
-0.2666674 -0.090385854 0.50903982 0.0020593395 433 67
-0.26394054 -0.090336286 0.50924575 0.0019520589 437 68
-0.26141778 -0.090356305 0.5099439 0.0018515202 455 74
-0.25864461 -0.090289302 0.51024663 0.001935611 491 84
-0.25552362 -0.090098314 0.50993752 0.00172381 513 91
-0.25237468 -0.089893468 0.50963145 0.0017962208 517 92
-0.24910901 -0.089642413 0.5091368 0.0016411773 582 111
-0.24657905 -0.089653648 0.51020014 0.0016417241 552 102
-0.24261254 -0.089137308 0.50831825 0.0015759352 586 112
-0.23962 -0.088971645 0.50848275 0.0015809549 652 132
-0.23671423 -0.088835016 0.50885594 0.0014936292 664 135
-0.23386832 -0.088718124 0.50937736 0.0014937749 661 135
-0.23096947 -0.088578373 0.50979477 0.0014342063 683 141
-0.22773473 -0.08830528 0.50946224 0.0014197058 701 146
-0.22446297 -0.088011548 0.5090186 0.0014366914 719 152
-0.22115332 -0.087696135 0.50845045 0.0013345621 765 165
-0.21777067 -0.087344214 0.50766432 0.0014216686 766 165
-0.21405412 -0.086848676 0.50602937 0.0013505213 756 163
-0.21144253 -0.086795077 0.50695449 0.0013373927 769 166
-0.20911975 -0.08686018 0.50856191 0.0014213193 749 160
-0.2061168 -0.086640909 0.50848728 0.0013729432 800 175
-0.20277543 -0.086272366 0.50751013 0.0012921455 822 182
-0.19996767 -0.086124547 0.50780344 0.0013017516 805 177
-0.19654992 -0.085707061 0.50647604 0.0012897485 814 180
-0.19383645 -0.085590027 0.50689197 0.0012911431 807 178
-0.19124654 -0.085525252 0.50758845 0.0012959718 808 178
-0.18888204 -0.08556091 0.50885278 0.0013723703 771 167
-0.18559113 -0.085172348 0.50756103 0.0014192195 770 167
-0.18256399 -0.084896125 0.50690144 0.0013662998 752 161
-0.17955846 -0.084622651 0.50622195 0.0013637057 747 160
-0.17636451 -0.084251702 0.50492209 0.0013526133 758 163
-0.17396207 -0.08425384 0.50582391 0.0013323291 772 167
-0.17144118 -0.084197849 0.50634599 0.0013924253 797 175
-0.16880721 -0.084083952 0.50648803 0.0013474164 753 162
-0.16614655 -0.083953276 0.50649673 0.001458361 758 163
-0.1632704 -0.083708301 0.50578272 0.001319295 788 172
-0.16112529 -0.083836406 0.50729287 0.00137103 746 160
-0.15839794 -0.083660848 0.50693637 0.0013077876 795 174
-0.15573953 -0.083516896 0.50674051 0.0013544455 758 163
-0.15351415 -0.083604291 0.50792003 0.001392574 715 150
-0.15045717 -0.083234385 0.50629234 0.0014272222 699 146
-0.14797629 -0.083176449 0.50653255 0.0013714458 732 155
-0.14564081 -0.08319965 0.50724077 0.0013910178 736 157
-0.14316918 -0.083144575 0.50744629 0.0013205711 782 170
-0.14063263 -0.083049305 0.50738102 0.0013764364 728 154
-0.13829882 -0.083072536 0.50801528 0.0015287354 710 149
-0.13569836 -0.082933605 0.50763392 0.0014096724 704 147
-0.13317895 -0.082840182 0.50750715 0.0013745463 738 157
-0.13070631 -0.082772963 0.50751817 0.0013696258 753 162
-0.12810874 -0.082622722 0.50699788 0.0014202867 726 154
-0.1257706 -0.08263728 0.50746751 0.0014124881 706 148
-0.1233946 -0.082627043 0.50776505 0.0013893326 722 153
-0.12081774 -0.082479276 0.50719756 0.0014195489 692 144
-0.11829686 -0.082364641 0.50681394 0.0014580905 706 148
-0.11595748 -0.082374252 0.50717658 0.0014137375 700 146
-0.11355042 -0.082335219 0.50722229 0.0013952024 709 149
-0.11095915 -0.082158111 0.50639999 0.0014760131 712 150
-0.1070689 -0.080990776 0.49945396 0.0012603039 846 189
-0.10450123 -0.080794409 0.49847633 0.0012254766 936 216
-0.10229503 -0.080874942 0.49919212 0.0012443517 868 196
-0.10001997 -0.080903515 0.49957338 0.0013342446 827 183
-0.097475693 -0.080710515 0.49857262 0.0012600276 921 211
-0.095122844 -0.080670521 0.49850357 0.0011429887 998 234
-0.092659682 -0.08053264 0.49781701 0.0011983836 929 214
-0.090465389 -0.080627382 0.49855652 0.0013676102 829 184
-0.08805389 -0.080528438 0.49808705 0.0012292212 886 201
-0.085651144 -0.080432393 0.49762464 0.0011882673 937 216
-0.083403498 -0.080480732 0.49804506 0.0012417363 927 213
-0.081411086 -0.080785081 0.50004071 0.0012210081 949 219
-0.079252444 -0.080937423 0.50108677 0.0011881308 938 216
-0.077036127 -0.081038237 0.50180554 0.0011891086 929 214
-0.074805461 -0.081129745 0.50245845 0.0011976309 924 212
-0.072505176 -0.081149183 0.50265741 0.0011777272 948 219
-0.07021457 -0.081181094 0.50292617 0.0011506836 990 232
-0.067855202 -0.081132978 0.50269228 0.0011535009 1002 235
-0.06547796 -0.081059322 0.50229359 0.0011552587 976 227
-0.063073657 -0.080945544 0.50163996 0.0012378854 972 226
-0.060712349 -0.080880381 0.50128198 0.0012092859 976 227
-0.058444142 -0.080938987 0.50168586 0.0012131002 974 227
-0.056195945 -0.081031285 0.50229377 0.001162771 967 225
-0.053763613 -0.080854587 0.5012297 0.0011742364 952 220
-0.051477436 -0.080891706 0.5014869 0.001223363 974 227
-0.049159549 -0.080880135 0.5014385 0.0011958221 947 219
-0.046938043 -0.081033818 0.50241119 0.001257594 940 217
-0.044610389 -0.081010677 0.50228465 0.0012229522 960 223
-0.042261709 -0.080944732 0.50188977 0.0011725846 956 221
-0.040041156 -0.08113078 0.50305486 0.0011858407 934 215
-0.037695188 -0.081069954 0.50268704 0.0011684085 958 222
-0.035364494 -0.081036143 0.5024848 0.001175371 950 220
-0.033044979 -0.081025027 0.50242156 0.0011724242 952 220
-0.030711297 -0.080974884 0.50211477 0.0012026291 951 220
-0.028401323 -0.080984183 0.50217527 0.0011930469 956 221
-0.026095934 -0.081009343 0.50233322 0.0011639859 966 224
-0.023774486 -0.080984704 0.50218147 0.001240527 941 217
-0.021413228 -0.080804519 0.50106472 0.0011651411 961 223
-0.019077014 -0.080686726 0.50033414 0.0011790616 949 219
-0.016757742 -0.080618054 0.49990794 0.0011959506 945 218
-0.014457626 -0.080634356 0.50000834 0.001235641 937 216
-0.01215148 -0.080616809 0.49989885 0.0011803166 945 218
-0.0098376581 -0.080528244 0.49934885 0.001315602 840 187
-0.0075164004 -0.08030615 0.49797094 0.0014576061 720 152
-0.0050980952 -0.078396566 0.48612931 0.0013232816 804 177
-0.0028495586 -0.078150794 0.48460495 0.0012104376 910 208
-0.00061463489 -0.077850625 0.48274341 0.0012047252 911 208
0.0016086869 -0.077818833 0.48254633 0.0012283248 920 211
0.0038334599 -0.077853404 0.48276097 0.0012170845 907 207
0.0060645905 -0.077944301 0.48332506 0.001218696 921 211
0.0082986411 -0.078013822 0.48375675 0.0012183873 937 216
0.010531629 -0.078046046 0.48395726 0.0011918808 938 216
0.012755595 -0.078011811 0.48374575 0.0011793673 946 219
0.014949379 -0.077830642 0.48262301 0.0011743845 951 220
0.017137319 -0.077669896 0.48162681 0.001163927 967 225
0.019340687 -0.077607907 0.48124266 0.0012608622 934 215
0.021555478 -0.077599786 0.4811922 0.0012023002 912 209
0.023715755 -0.077415243 0.48004714 0.0011608034 972 226
0.025946053 -0.077471241 0.48039305 0.0011446807 992 232
0.028208701 -0.077607453 0.48123538 0.001176452 1004 236
0.030415367 -0.077581011 0.48106807 0.0011701005 961 223
0.032510303 -0.077292524 0.47927466 0.0011616693 977 228
0.034616645 -0.077066123 0.47786474 0.0011756101 954 221
0.036765702 -0.076956213 0.47717547 0.0011904389 959 222
0.038922545 -0.076874092 0.4766565 0.0011833715 948 219
0.041104756 -0.076848157 0.4764837 0.0011995983 922 211
0.043291606 -0.076833077 0.47637579 0.0012589538 929 214
0.045613039 -0.077046797 0.47768354 0.0012080664 946 219
0.048034664 -0.077402286 0.47986704 0.0012557672 871 196
0.050412603 -0.077659182 0.48143572 0.0012918891 808 178
0.053396758 -0.078788921 0.48841113 0.0014592458 733 156
0.055646338 -0.078787223 0.48836827 0.0012437609 875 198
0.057766862 -0.078610025 0.48723313 0.0012285432 938 216
0.060023997 -0.078625038 0.48728451 0.0013044039 864 194
0.062464155 -0.078870066 0.48875597 0.0013560154 808 178
0.064934388 -0.079134673 0.49034286 0.0014023832 775 168
0.067829102 -0.079881392 0.49491015 0.0014573281 680 140
0.070803285 -0.080670051 0.49972948 0.0015218292 629 125
0.073229887 -0.080804743 0.50048977 0.001474669 669 137
0.075575829 -0.080844939 0.50065708 0.001408704 711 149
0.077944405 -0.08090625 0.500947 0.0013822143 729 155
0.080300435 -0.080951363 0.5011282 0.0014290856 757 163
0.082688063 -0.08102493 0.50147611 0.0014009776 764 165
0.085047096 -0.081067227 0.50162107 0.0014604855 720 152
0.087031588 -0.080759734 0.49959204 0.0014130843 711 149
0.089456938 -0.080866635 0.50011635 0.0013967149 721 152
0.091886997 -0.080972314 0.50062168 0.0015194553 706 148
0.094204642 -0.080976181 0.5004859 0.0013692876 724 153
0.09640421 -0.080880783 0.4997246 0.0014285953 709 149
0.098871522 -0.081009224 0.50033379 0.001452105 674 138
0.10131753 -0.081114747 0.5007875 0.0015278214 672 138
0.10370654 -0.081170931 0.5009225 0.0014459298 679 140
0.1058822 -0.081061319 0.50002021 0.0015034083 703 147
0.10802846 -0.080934368 0.49899673 0.0014289768 689 143
0.11028721 -0.08089526 0.49849978 0.0014318933 694 144
0.11277515 -0.081022426 0.49901107 0.0014372149 708 148
0.1155237 -0.081327923 0.50060248 0.0014223006 725 153
0.11749095 -0.081082202 0.49878338 0.0014334809 707 148
0.11977746 -0.081062049 0.498335 0.0014088666 710 149
0.12203325 -0.081022248 0.49774751 0.0014260376 712 150
0.1244414 -0.081083223 0.49775973 0.0014240436 696 145
0.12694524 -0.08120317 0.49811339 0.0014279109 751 161
0.1292669 -0.081204362 0.49771753 0.0013723752 742 158
0.13150464 -0.081153743 0.49698305 0.0014571758 726 154
0.13383579 -0.081161506 0.49658468 0.001372074 728 154
0.13624276 -0.081214204 0.49643847 0.0014341437 689 143
0.13864429 -0.081261933 0.49623829 0.0014242519 693 144
0.14109942 -0.081339017 0.49619278 0.0013895391 723 153
0.14359356 -0.081435718 0.4962416 0.0013650258 731 155
0.1460907 -0.081531011 0.49625546 0.0013829346 730 155
0.1486412 -0.081652619 0.49640232 0.0013957333 732 155
0.15131818 -0.081838883 0.49691379 0.0013680666 731 155
0.15374069 -0.08188393 0.49653918 0.0013674187 736 157
0.15622255 -0.081958771 0.49631694 0.001338675 762 164
0.15865673 -0.082006767 0.49590322 0.0013817385 736 157
0.16111976 -0.082068056 0.49554059 0.0013436791 763 165
0.16382638 -0.08224988 0.49587488 0.0013001426 818 181
0.16730143 -0.0828069 0.49843493 0.0013210113 779 169
0.1683833 -0.082180396 0.49384248 0.0014251245 764 165
0.17181326 -0.082701348 0.49611679 0.0013989934 714 150
0.17432521 -0.082772285 0.49565563 0.0013228334 801 176
0.17706551 -0.082948297 0.49579141 0.0013196467 785 171
0.17950755 -0.08298178 0.49504349 0.0012782076 823 182
0.18203047 -0.083051287 0.49448013 0.0012799995 825 183
0.18490855 -0.083278969 0.49482667 0.0013607094 783 170
0.18756375 -0.083401769 0.49451783 0.0012904651 807 178
0.19086167 -0.083803684 0.49583074 0.0013105305 789 172
0.19354641 -0.08392974 0.49547938 0.0012900656 831 185
0.1955855 -0.083776169 0.4934538 0.0013387016 790 173
0.19841647 -0.083961375 0.49340156 0.0013699092 756 163
0.20123112 -0.084135354 0.49325919 0.001322281 778 169
0.20419908 -0.084368564 0.49344218 0.0014123089 767 166
0.20701058 -0.084532447 0.49320096 0.001419264 762 164
0.21008675 -0.084799372 0.49354571 0.0013530891 761 164
0.21305159 -0.085015796 0.49358493 0.0013715797 762 164
0.21540417 -0.084985763 0.49219102 0.0013954502 718 151
0.21842964 -0.085218951 0.49232426 0.001414529 703 147
0.22185075 -0.085599631 0.4933129 0.001481609 699 146
0.22457537 -0.085706212 0.49273354 0.0014165626 706 148
0.22733736 -0.085824609 0.49224463 0.0014140105 698 145
0.2304396 -0.086067557 0.49249849 0.0015833837 645 130
0.23364352 -0.086342946 0.4929719 0.0014812374 640 128
0.23646531 -0.086472832 0.49265826 0.0015037733 630 125
0.23931216 -0.086609118 0.49243447 0.0015747673 586 112
0.24209173 -0.086718507 0.49211937 0.0016401566 590 114
0.24483013 -0.086811081 0.49177819 0.0015513379 597 116
0.24780397 -0.086984448 0.49197069 0.0018107306 553 103
0.25070897 -0.08713045 0.49209011 0.001735263 545 100
0.25356668 -0.087257296 0.4921895 0.0019027117 499 87
0.2560679 -0.087260209 0.49168348 0.0017977012 480 81
0.25871387 -0.087311909 0.49155027 0.0019102343 470 78
0.26142839 -0.08738552 0.49164054 0.0019668536 417 63
-0.30545411 -0.087819748 0.51374346 0.0029497943 232 8
-0.30247772 -0.08770556 0.51213408 0.0029254162 239 10
-0.30038181 -0.087846898 0.51209456 0.0029804334 262 17
-0.29773694 -0.087828733 0.51120567 0.0027597055 268 19
-0.29551765 -0.087936923 0.51113683 0.002634251 274 20
-0.29328454 -0.088042848 0.51114243 0.002774436 294 26
-0.29080263 -0.08807531 0.51081342 0.0024206042 307 30
-0.28802732 -0.088018693 0.51006424 0.0025411597 304 29
-0.28506911 -0.087904662 0.50908244 0.0023013251 330 37
-0.28327563 -0.088150978 0.51028907 0.0023441061 323 35
-0.28120148 -0.088313714 0.51111579 0.0026779117 266 18
-0.27806938 -0.088144116 0.51012552 0.0021516508 366 48
-0.27568647 -0.088211045 0.51061171 0.0020856166 379 51
-0.27420172 -0.088569358 0.51289338 0.0020166014 405 59
-0.27003658 -0.088060461 0.51025999 0.002026883 459 75
-0.26618356 -0.087644465 0.50826693 0.0018262622 462 76
-0.2639221 -0.087749504 0.50939685 0.0019297689 474 79
-0.26140395 -0.087770425 0.51013887 0.0017571007 500 87
-0.25876755 -0.087751664 0.51074523 0.0018585521 495 86
-0.25556001 -0.087536916 0.51029867 0.0016864684 524 94
-0.2523765 -0.087326087 0.50995398 0.0017205415 534 97
-0.24942975 -0.087193698 0.51014024 0.0016592115 555 103
-0.24573345 -0.086793818 0.50882381 0.0015747164 586 112
-0.24242854 -0.086525232 0.50832981 0.0015610058 586 112
-0.23968259 -0.086452559 0.50903451 0.0015217471 626 124
-0.2364946 -0.086217187 0.50882143 0.0014715056 655 133
-0.23345569 -0.086031638 0.50893241 0.0014750746 649 131
-0.23037215 -0.085825399 0.50894356 0.0014288964 692 144
-0.22753379 -0.085706949 0.50949144 0.001404703 708 148
-0.22477993 -0.085618034 0.51022553 0.0013803167 719 152
-0.22105515 -0.085153088 0.50871778 0.0013300725 776 168
-0.21715249 -0.08460819 0.50671864 0.0013210225 782 170
-0.21396589 -0.084332868 0.50631791 0.0013099263 784 171
-0.21118669 -0.084213562 0.50683945 0.0013153924 786 171
-0.20872955 -0.084221378 0.5081116 0.0013525208 749 160
-0.20593125 -0.084090061 0.50852615 0.0012689066 827 183
-0.20271887 -0.083784424 0.5078609 0.0013071721 798 175
-0.1994614 -0.083452389 0.50700468 0.0013112045 789 172
-0.19658244 -0.083272427 0.5070411 0.001348498 788 172
-0.19378504 -0.083122902 0.50723255 0.0013143677 800 175
-0.19133285 -0.083119534 0.50828642 0.0013536962 758 163
-0.18829882 -0.082860038 0.50774223 0.0013230926 780 170
-0.18539351 -0.082651123 0.50747287 0.0012883382 813 179
-0.18254475 -0.082462199 0.50729162 0.0014234866 727 154
-0.17976908 -0.082301654 0.50725037 0.0013927219 712 150
-0.17661504 -0.08196114 0.50606382 0.0013339574 784 171
-0.17397 -0.081850678 0.50626212 0.0013209517 809 178
-0.17136836 -0.081757821 0.50653684 0.001282948 817 181
-0.16873646 -0.081647679 0.50667202 0.001357373 778 169
-0.16616827 -0.081565633 0.50694972 0.0013124889 786 171
-0.16359043 -0.081476375 0.50715137 0.001345239 778 169
-0.16099419 -0.081375167 0.50724745 0.0013025758 802 176
-0.15853184 -0.08133959 0.5077228 0.0013504758 758 163
