# .PCD v0.7 - Point Cloud Data file format
VERSION 0.7
FIELDS x y z noise intensity gray
SIZE 4 4 4 4 2 1
TYPE F F F F U U
COUNT 1 1 1 1 1 1
WIDTH 846
HEIGHT 1
VIEWPOINT 0 0 0 1 0 0 0
POINTS 846
DATA ascii
-0.033316582 -0.069606088 0.44430849 0.0012495479 885 200
-0.031310044 -0.069695987 0.44488624 0.0012316946 884 200
-0.029325116 -0.069849968 0.44587159 0.001218799 897 203
-0.027366769 -0.070095234 0.44743854 0.0012896388 844 189
-0.02573728 -0.071291372 0.45507443 0.0012435365 875 197
-0.02391387 -0.07211487 0.46033067 0.0012955785 837 187
-0.02199132 -0.072770581 0.46451533 0.0012469782 863 194
-0.019747054 -0.072388336 0.46207404 0.0011843815 944 216
-0.017620251 -0.072396323 0.46212336 0.0011730117 961 221
-0.015421128 -0.07206855 0.46002933 0.0011445233 991 229
-0.013288951 -0.071999013 0.45958373 0.0011647285 988 228
-0.011167054 -0.07196939 0.45939294 0.0012083153 972 224
-0.0090469448 -0.071940124 0.45920452 0.0012024115 981 226
-0.006931168 -0.071937956 0.45918933 0.0011802556 950 218
-0.0048109521 -0.07186757 0.4587391 0.0011710858 974 224
-0.0026929211 -0.07174509 0.4579567 0.0011679254 980 226
-0.00058191898 -0.071601197 0.45703778 0.0012686081 918 209
0.0015216357 -0.071505047 0.45642418 0.0012990193 886 200
0.003629704 -0.071609505 0.45709145 0.0012516089 864 194
0.0057475278 -0.07175906 0.45804688 0.0012935785 821 182
0.0078650676 -0.071825691 0.45847338 0.0013828954 784 172
0.0099559231 -0.071672015 0.45749381 0.0015456049 677 143
0.012027274 -0.071456149 0.45611757 0.0015774461 645 134
0.014023094 -0.070922494 0.45271295 0.0015061405 637 132
0.01569351 -0.069094382 0.44104534 0.0014848989 654 136
0.017679311 -0.068914749 0.43990037 0.0014775043 685 145
0.01957714 -0.068464413 0.43702725 0.0015119896 696 148
0.021528296 -0.068267174 0.43576926 0.0014594282 730 157
0.023474095 -0.068088047 0.43462649 0.0013594389 751 163
0.025518684 -0.068201102 0.43534809 0.0013888596 728 157
0.027510356 -0.068166554 0.43512675 0.0013920499 741 160
0.029554056 -0.068256862 0.43570143 0.0014506287 714 153
0.031850874 -0.068883099 0.43969575 0.0014477173 682 144
0.033867478 -0.068864673 0.43957368 0.0014214327 697 148
0.035833012 -0.068750329 0.43883774 0.0013857158 731 158
0.03787135 -0.068780422 0.43902177 0.0013776938 774 169
0.040026605 -0.069009043 0.44047084 0.0012847594 824 183
0.041956589 -0.068845965 0.43941727 0.0013146029 844 189
0.044014405 -0.068897992 0.43973398 0.0012517717 860 193
0.046230897 -0.069182903 0.44153401 0.0012741362 833 186
0.048791826 -0.069937497 0.44632798 0.0013847492 728 157
0.052019034 -0.071547456 0.45657623 0.0014364646 751 163
0.053966314 -0.071340263 0.45522377 0.0012222579 899 204
0.056092143 -0.071375757 0.45541564 0.0012091103 927 211
0.058220562 -0.071411878 0.4556067 0.001192698 929 212
0.060498931 -0.071623005 0.45690891 0.0012153055 907 206
0.062583119 -0.071597777 0.45669773 0.0012117933 902 205
0.0646182 -0.071519844 0.45614448 0.001281345 909 206
0.06665659 -0.07145036 0.45563883 0.001243205 867 195
0.068774961 -0.071468234 0.45568365 0.0012436872 876 197
0.070799671 -0.071390614 0.45511258 0.0012424474 871 196
0.07269299 -0.071188785 0.45374233 0.0012275145 889 201
0.074778028 -0.071180753 0.45359948 0.0012013239 923 210
0.076994851 -0.071295187 0.45422855 0.0012253902 912 207
0.078858793 -0.071085475 0.45278367 0.0011693359 974 224
0.080873847 -0.071019277 0.45224395 0.0011799637 967 222
0.082903944 -0.070969284 0.45179787 0.0011836477 943 216
0.084900253 -0.070893541 0.45117781 0.0012288142 903 205
0.086941145 -0.070857763 0.45080152 0.0012400657 882 199
0.089165732 -0.070969872 0.45135471 0.0013082083 862 194
0.091296762 -0.071004085 0.4514004 0.0012900304 876 197
0.09319292 -0.070858195 0.45028895 0.0012162291 922 210
0.095276572 -0.070858121 0.45009184 0.0012392426 927 211
0.097572111 -0.071012259 0.45086053 0.0012460656 899 204
0.099414513 -0.070837058 0.4495244 0.0012050174 925 211
0.10136251 -0.070742749 0.44868812 0.001226636 911 207
0.10369048 -0.070912085 0.44950882 0.0012030768 949 217
0.10564234 -0.070822604 0.44867307 0.0011640742 975 225
0.10753164 -0.070695452 0.4475835 0.0011572663 983 227
0.1096045 -0.070691511 0.447258 0.0011624284 1004 233
0.11178329 -0.070754774 0.44734013 0.001149112 1047 244
0.11385944 -0.070751935 0.4469865 0.0011473631 1064 249
0.11590487 -0.070730463 0.44649684 0.0011477153 996 230
0.11782648 -0.07063552 0.44552517 0.0011957166 931 213
0.11894356 -0.070069902 0.441569 0.0012247912 929 212
0.12074789 -0.069921523 0.44022635 0.0011966031 932 213
0.12260527 -0.069808312 0.43908629 0.0012174585 948 217
0.12431747 -0.069617532 0.43743935 0.0011634602 979 226
0.12591164 -0.069367915 0.43540418 0.00115318 992 229
0.12784758 -0.069311537 0.43456221 0.0011180245 1036 241
0.12922573 -0.068959273 0.43184569 0.0011029987 1063 249
0.1308704 -0.068757929 0.43005562 0.0011292148 1047 244
0.13388757 -0.069272824 0.43271965 0.0011403215 1006 233
0.1339431 -0.06826292 0.42583933 0.0011439526 1073 251
0.1358663 -0.068220638 0.42498013 0.0011106975 1086 255
0.1377997 -0.068184622 0.4241364 0.0010403881 1189 255
0.13961156 -0.068090357 0.42290702 0.0010342429 1189 255
0.14155443 -0.068061747 0.42206165 0.0011083549 1084 255
0.14777066 -0.07006 0.43373993 0.001385837 802 177
0.15470552 -0.072339326 0.44708791 0.0015391306 617 126
0.15759863 -0.072692558 0.448477 0.0015248355 619 127
0.16000788 -0.072816133 0.44841698 0.0013819095 724 156
0.16246687 -0.07295879 0.44844437 0.0013956481 764 167
0.16518269 -0.073211551 0.44911724 0.0013572045 765 167
0.1674982 -0.073282659 0.44864562 0.0013380565 778 171
0.16961482 -0.073266074 0.44761074 0.001413925 734 158
0.17194031 -0.073338978 0.44709718 0.0013741871 736 159
0.17408912 -0.073335648 0.44609436 0.0013879794 748 162
0.17718673 -0.073727205 0.44746605 0.0014050967 710 152
0.17983422 -0.073924251 0.44762862 0.0013988008 713 153
0.18231547 -0.074049085 0.44733095 0.0014030131 717 154
0.18479717 -0.074171141 0.44699705 0.001434461 685 145
0.18734843 -0.07431794 0.44679528 0.0014733265 688 146
0.18999746 -0.074499711 0.44678915 0.0014973526 671 141
0.1931264 -0.074863352 0.44785979 0.0014603776 668 140
0.19547454 -0.074919529 0.44708347 0.0015510366 651 136
0.19767612 -0.074918933 0.44597089 0.00147581 655 137
0.20032179 -0.075084798 0.44585559 0.0015745616 651 136
0.20299843 -0.075258516 0.44579658 0.0014562125 663 139
0.20559259 -0.075398244 0.44555283 0.001536557 614 125
0.20845205 -0.075631253 0.44588274 0.0016243185 596 121
0.21120803 -0.075822189 0.44599351 0.0015990107 583 117
0.21391855 -0.075992979 0.44602302 0.0016316097 556 110
0.21607053 -0.075963885 0.4449265 0.0016904066 527 102
0.21896255 -0.076192901 0.44539553 0.0017026521 534 104
0.22161956 -0.076336309 0.44542316 0.0017377491 505 96
0.22444111 -0.07653296 0.44582731 0.0016979589 530 102
0.22682093 -0.076576576 0.44541314 0.0017780592 490 91
0.22855659 -0.07640399 0.44382289 0.0020167958 450 80
0.23119797 -0.076534614 0.44407889 0.001889364 437 77
0.23352887 -0.076560915 0.44381702 0.0019707258 419 72
0.23477517 -0.076234527 0.44160265 0.0021080817 380 61
-0.28105301 -0.07842806 0.4724502 0.0035119799 216 16
-0.2772584 -0.078028873 0.46920064 0.003084556 223 18
-0.27485386 -0.078017429 0.46835956 0.0028178755 248 25
-0.27291891 -0.078140214 0.46839955 0.0028467814 243 24
-0.27102861 -0.078278042 0.46860713 0.0027282508 253 26
-0.27046755 -0.078805596 0.47122616 0.0026919243 263 29
-0.26866022 -0.078976192 0.47179317 0.0026313199 272 32
-0.26566854 -0.078798585 0.4703702 0.0025666964 298 39
-0.26308975 -0.078741327 0.46975958 0.0026813215 266 30
-0.26079121 -0.07876765 0.46974313 0.0031340346 229 20
-0.25834897 -0.07875067 0.46956575 0.002710908 308 41
-0.25593641 -0.078742504 0.46953985 0.0022076573 351 53
-0.25378609 -0.078815617 0.47009835 0.0023093321 360 56
-0.25127774 -0.078777887 0.4700956 0.002202651 345 52
-0.24807115 -0.078518413 0.46886766 0.0020818221 388 63
-0.24489549 -0.078263819 0.46776345 0.0019881369 421 73
-0.24205759 -0.078113236 0.46737295 0.0019207927 429 75
-0.24004884 -0.078229889 0.46867195 0.0018934872 446 79
-0.23695388 -0.077991344 0.46792823 0.0018181093 468 85
-0.23418443 -0.077856228 0.46788254 0.0018082063 472 87
-0.23142259 -0.077720895 0.46790773 0.0018334473 465 85
-0.22858788 -0.077558085 0.46783221 0.0017170276 514 98
-0.22584464 -0.07742323 0.46798283 0.0016681902 534 104
-0.22284789 -0.077197731 0.46763438 0.0015931757 586 118
-0.2201812 -0.077082992 0.46799815 0.0016796179 567 113
-0.21777718 -0.077058755 0.46894768 0.0015699402 583 117
-0.21495137 -0.076883115 0.46900389 0.0016129008 577 115
-0.21139374 -0.076439001 0.46743679 0.0015119255 635 131
-0.20871288 -0.076305605 0.46777806 0.0015303992 641 133
-0.20586604 -0.076107845 0.46773002 0.0014567869 657 137
-0.20291799 -0.075867772 0.46741998 0.0015204727 684 145
-0.19949174 -0.07544136 0.46595109 0.0014658252 666 140
-0.19680023 -0.075286135 0.46614292 0.0014100184 704 150
-0.1939005 -0.075046673 0.46579778 0.0014647788 686 145
-0.19113426 -0.074853815 0.46572226 0.001542669 669 141
-0.18840688 -0.07467173 0.46569195 0.0014033281 713 153
-0.18576437 -0.074519254 0.46582249 0.0014234906 704 150
-0.18306042 -0.074338093 0.4657478 0.0014702479 716 153
-0.18018287 -0.074081033 0.46516842 0.0014428204 685 145
-0.17850946 -0.074318796 0.46767128 0.0014781771 647 135
-0.17578235 -0.074118361 0.4673914 0.0014525717 707 151
-0.17258804 -0.073713183 0.46578571 0.0014969631 697 148
-0.16959864 -0.073386058 0.46463662 0.0013992591 751 163
-0.16705512 -0.073245727 0.46463662 0.0014826615 716 153
-0.16460676 -0.073143929 0.46485016 0.0013931592 721 155
-0.16206712 -0.072998203 0.46475333 0.0013632914 741 160
-0.15947175 -0.07282301 0.46443722 0.0013835799 737 159
-0.15701407 -0.07270667 0.46446511 0.0013828992 781 171
-0.15425748 -0.072446615 0.46354324 0.0013282063 779 171
-0.14977868 -0.071358562 0.45728254 0.0013877912 724 156
-0.14644033 -0.070789933 0.45430759 0.0013136743 794 175
-0.1433472 -0.070324704 0.45196038 0.0012616693 848 190
-0.14117903 -0.07030604 0.45245314 0.0013223054 770 168
-0.13841426 -0.069985181 0.45097294 0.001404301 713 153
-0.13579185 -0.069727413 0.44987014 0.0013451359 764 167
-0.13299686 -0.069371492 0.44810516 0.0012016597 925 211
-0.1307065 -0.069271594 0.4479672 0.0011724784 959 220
-0.1296872 -0.069853045 0.45221609 0.0012023833 930 212
-0.127514 -0.069821954 0.45248088 0.0011868575 936 214
-0.12708129 -0.070758924 0.45900318 0.0012364106 895 203
-0.1252448 -0.070933014 0.46056214 0.0012732957 834 186
-0.12416012 -0.071546413 0.46495739 0.0013233813 846 189
-0.1226427 -0.071927816 0.46782991 0.001261174 851 191
-0.12048109 -0.071938358 0.46827248 0.0012854855 896 203
-0.118092 -0.071810991 0.46779725 0.0011665049 970 223
-0.11466648 -0.071036741 0.46308506 0.0011687849 950 218
-0.10721512 -0.06769114 0.44157404 0.0014352725 724 156
-0.1029451 -0.066262782 0.43253252 0.0013536115 754 164
-0.10109473 -0.066366024 0.43346742 0.0013977572 717 154
-0.099215411 -0.066454083 0.43428868 0.0014554204 731 158
-0.097210407 -0.066459857 0.43455794 0.0014025589 772 169
-0.096295148 -0.067226656 0.43979168 0.0013920317 741 160
-0.094018459 -0.067055605 0.43887833 0.0013689876 764 167
-0.091980599 -0.067051098 0.43904132 0.001360992 780 171
-0.08958593 -0.066780403 0.43744791 0.0013354369 779 171
-0.087491639 -0.06672629 0.43726036 0.0013578687 808 179
-0.085920312 -0.06707789 0.4397206 0.0013139021 820 182
-0.084102787 -0.067249663 0.44099194 0.0012948823 813 180
-0.08224386 -0.067396037 0.44208679 0.0013153111 796 175
-0.080643773 -0.067767382 0.44464803 0.0013539485 766 167
-0.078661539 -0.067828611 0.44516551 0.0013438204 761 166
-0.076703794 -0.067914799 0.4458378 0.0013275067 782 172
-0.074558236 -0.067834869 0.44541055 0.0013778508 728 157
-0.072716385 -0.068034567 0.44681114 0.0014435002 741 160
-0.071124323 -0.068486437 0.44986066 0.0014118511 706 151
-0.069259048 -0.068694472 0.45130175 0.0014001823 719 154
-0.067380883 -0.068902224 0.45273414 0.0013961245 720 155
-0.065434068 -0.069050819 0.45377141 0.001450872 743 161
-0.063276969 -0.068979993 0.45336044 0.0013537433 788 173
-0.061197035 -0.068991318 0.45348328 0.0013579269 818 181
-0.059112135 -0.068997644 0.45356768 0.0013054841 826 184
-0.056845557 -0.068784609 0.45220485 0.0012695703 845 189
-0.054688171 -0.068692505 0.45163199 0.0012994392 809 179
-0.052616652 -0.068705224 0.4517439 0.0013174423 793 175
-0.050449725 -0.068589285 0.45100582 0.0013136431 792 174
-0.048275344 -0.068452835 0.45012879 0.0013394211 802 177
-0.045999702 -0.068154074 0.44818112 0.0013788727 796 175
-0.043789878 -0.067929357 0.44671705 0.001297157 833 186
-0.041555405 -0.067642331 0.4448404 0.0012661123 846 189
-0.039518751 -0.067664243 0.44499302 0.0013441109 845 189
-0.037407447 -0.067553744 0.44427261 0.0012535093 856 192
-0.035384823 -0.067599863 0.4445802 0.0012453551 879 198
-0.033403877 -0.067736156 0.4454793 0.0012264331 891 202
-0.031462904 -0.067976676 0.44706237 0.0012485917 901 204
-0.029684758 -0.068627313 0.45134154 0.0012639029 864 194
-0.027686991 -0.068829991 0.45267358 0.0013053864 844 189
-0.026124317 -0.070235439 0.46191505 0.0012582161 856 192
-0.024006777 -0.07026609 0.46211433 0.0012494307 902 205
-0.021839323 -0.070142418 0.46129817 0.0012423467 954 219
-0.019708205 -0.07012137 0.4611567 0.001193488 965 222
-0.017582357 -0.070116222 0.46111965 0.0012530502 943 216
-0.015413253 -0.069913477 0.4597832 0.0012150054 956 219
-0.013267891 -0.069770977 0.45884311 0.0012320532 957 220
-0.011148071 -0.069734208 0.45859864 0.0012038854 945 216
-0.0090381168 -0.069756411 0.45874226 0.0012098803 946 217
-0.0069230944 -0.069741115 0.45863968 0.0012032974 920 209
-0.0048037632 -0.06964989 0.45803824 0.0012050091 940 215
-0.0026856067 -0.069446124 0.4566972 0.0011758849 955 219
-0.00058056373 -0.069333732 0.45595777 0.0012518249 921 210
0.0015206888 -0.069359079 0.45612457 0.0012192393 893 202
0.0036269843 -0.069451585 0.45673347 0.0012528402 859 193
0.0057501765 -0.069680914 0.45824286 0.0013219212 780 171
0.0078593874 -0.069663145 0.45812777 0.001421832 695 148
0.0099479901 -0.069508895 0.45711547 0.0015141931 631 130
0.011978202 -0.069071852 0.45424381 0.0016118126 623 128
0.013778322 -0.06763532 0.44479942 0.0015051902 636 132
0.015654044 -0.066893838 0.439926 0.0015346662 675 142
0.01757488 -0.066493049 0.43729317 0.0014471592 686 145
0.019566009 -0.066413268 0.43677148 0.0014283673 692 147
0.021489233 -0.066139393 0.43497306 0.00138086 758 165
0.023394831 -0.065862596 0.43315518 0.0013508124 771 169
0.02539365 -0.065871149 0.43321335 0.0013023628 798 176
0.027461937 -0.066045508 0.4343614 0.0013657437 743 161
0.029589748 -0.066329613 0.43623033 0.0013989012 753 164
0.031717286 -0.066577025 0.43785691 0.0014402128 691 147
0.03380153 -0.066709377 0.43872556 0.001434596 695 148
0.035891198 -0.066836916 0.43956092 0.0013708328 736 159
0.037864115 -0.066745028 0.43895149 0.0013653156 764 167
0.039953031 -0.066856563 0.43967783 0.0013140602 795 175
0.042098258 -0.067047007 0.44092086 0.0012929785 820 182
0.044118974 -0.067030765 0.44080201 0.0013068364 806 178
0.046543587 -0.067602582 0.44454738 0.0013778773 772 169
0.049683902 -0.069121905 0.45451972 0.0014219717 711 152
0.051825479 -0.069185056 0.45491275 0.0012483153 868 195
0.053846523 -0.06908863 0.45425266 0.0011645964 963 221
0.055961534 -0.069115475 0.45439884 0.0012005173 919 209
0.05816764 -0.06924884 0.45524049 0.0012353841 929 212
0.060421828 -0.069428168 0.45637923 0.0012026228 924 211
0.06250862 -0.069409549 0.45621124 0.0012065494 904 205
0.06453523 -0.069327503 0.45562059 0.0012346562 902 205
0.06664674 -0.069338933 0.45563829 0.0012427467 871 196
0.068751179 -0.069342554 0.45559791 0.0012641754 879 198
0.070776351 -0.069268383 0.45503944 0.0012639128 851 191
0.07285016 -0.069244705 0.4548054 0.0012595389 847 189
0.074997112 -0.069289938 0.45501599 0.0012705239 848 190
0.076945148 -0.069153912 0.45402813 0.0012916824 863 194
0.078926153 -0.06905397 0.45326874 0.0011995776 930 212
0.080888018 -0.068942867 0.45242706 0.0011674191 964 222
0.082953624 -0.06892354 0.45217821 0.0012135153 938 214
0.08493688 -0.06883844 0.4514879 0.0012247587 888 201
0.087020732 -0.068836987 0.45133573 0.0012433489 873 197
0.089255914 -0.068952493 0.45193902 0.0012241317 890 201
0.091167003 -0.068818085 0.4508926 0.0012294296 906 206
0.093241915 -0.068810597 0.45066589 0.0012265106 890 201
0.095367596 -0.068840072 0.45066857 0.0012640405 909 206
0.09745802 -0.06884338 0.45048657 0.0012112614 904 205
0.099578343 -0.068867229 0.45042524 0.0012287116 883 199
0.10138093 -0.068674862 0.44893596 0.0012205271 918 209
0.10345095 -0.068667755 0.44864351 0.0011733653 964 222
0.10555772 -0.068684831 0.44849384 0.0011933318 958 220
0.10755566 -0.068631813 0.44787055 0.0011671245 972 224
0.10963847 -0.068633929 0.44759083 0.0011190702 1034 241
0.11173382 -0.068643667 0.44734368 0.0011859358 1016 236
0.11393945 -0.068719573 0.44750962 0.0011308611 1018 236
0.11542486 -0.068366155 0.44486305 0.001162544 967 222
0.11717807 -0.068181023 0.44329548 0.001219564 944 216
0.1189534 -0.06801495 0.4418346 0.0011768021 951 218
0.12073936 -0.067860514 0.44043136 0.0011892705 938 214
0.12245742 -0.067673728 0.43879983 0.0011875994 985 227
0.12420525 -0.067509264 0.43729457 0.0011716501 1007 233
0.1259508 -0.06734892 0.43579683 0.0011359708 1018 236
0.12715989 -0.066911399 0.43248791 0.0011329531 1033 241
0.12870839 -0.066663414 0.43038678 0.0011441937 1032 240
0.13130011 -0.06695506 0.43174651 0.0011870874 1003 232
0.13239788 -0.066487595 0.42818949 0.0011173551 1044 244
0.13400304 -0.066285133 0.42632127 0.0010945448 1092 255
0.13571076 -0.06613864 0.42479196 0.0010796443 1132 255
0.13771975 -0.066141091 0.42419627 0.0010676129 1129 255
0.13955414 -0.066060811 0.42304611 0.0011269919 1120 255
0.14397046 -0.067187741 0.4295913 0.0011976028 932 213
0.15075575 -0.069373369 0.44284612 0.0013943496 715 153
0.15476124 -0.070237309 0.44760519 0.0015535288 670 141
0.15753295 -0.070525438 0.44865519 0.0014419656 683 144
0.15971327 -0.070544675 0.44796386 0.0014327795 754 164
0.16215059 -0.070675403 0.44795156 0.0013779487 779 171
0.16482127 -0.070903108 0.44852266 0.0013567631 762 166
0.16725305 -0.071023516 0.44838414 0.001338642 771 169
0.16953316 -0.071077265 0.44779643 0.0013873028 719 154
0.17140277 -0.070959732 0.44610512 0.0014309566 759 165
0.17398985 -0.071138456 0.44625136 0.0014125104 737 159
0.17747171 -0.071674168 0.4486042 0.0014781391 716 153
0.17993945 -0.071792312 0.4483127 0.001447334 696 148
0.18233253 -0.071878225 0.44779766 0.0013877876 723 155
0.18480867 -0.071994439 0.44745123 0.0014416024 688 146
0.18722926 -0.072086565 0.4469378 0.0014533345 713 153
0.18981481 -0.072239347 0.44678554 0.0014585662 672 141
0.19278978 -0.072535165 0.44750378 0.0014559664 662 139
0.19532873 -0.072662108 0.44717059 0.00146496 658 138
0.19746496 -0.072638087 0.44590834 0.0016335348 632 130
0.20007533 -0.072787076 0.44571313 0.00153397 634 131
0.20283741 -0.072987422 0.44583976 0.0015656116 635 131
0.20524986 -0.073058985 0.44519445 0.0015295566 620 127
0.20740908 -0.073039852 0.44402134 0.0016296285 590 119
0.21138111 -0.073652759 0.44671449 0.0016156369 565 112
0.21320188 -0.073511116 0.44486427 0.0016194112 568 113
0.21545483 -0.073519886 0.44397298 0.001679255 562 111
0.21790707 -0.073595785 0.44353998 0.0017085957 539 105
0.2212031 -0.073952235 0.44485375 0.0017917325 522 100
0.22415307 -0.074186996 0.44549686 0.0016380822 549 108
0.22645813 -0.074205779 0.44491428 0.0018638319 485 90
0.22884201 -0.074249759 0.44456169 0.001840263 462 84
0.23119852 -0.074284106 0.44423461 0.0018767416 447 80
0.23340693 -0.074270658 0.44370952 0.0019931472 423 73
0.23683503 -0.074641868 0.44557133 0.0021423083 384 62
-0.28317603 -0.076626293 0.4757764 0.0031347722 212 15
-0.27755901 -0.075746775 0.4694874 0.0030933274 225 19
-0.27491608 -0.075670749 0.46826297 0.003157675 230 20
-0.27289873 -0.075767078 0.46818233 0.0030348538 253 26
-0.27168146 -0.076089174 0.46957433 0.0026923714 263 29
-0.27034268 -0.076382637 0.47086978 0.0027766279 293 37
-0.26808581 -0.076419599 0.47067016 0.0026247881 297 38
-0.26598716 -0.076502755 0.47084585 0.0024653007 296 38
-0.26337075 -0.076437138 0.47020006 0.0026169044 278 33
-0.26110449 -0.076472871 0.47027445 0.0028573724 241 23
-0.2588416 -0.076510273 0.47045752 0.0026711831 273 32
-0.25598779 -0.076372065 0.4696607 0.0022035067 352 54
-0.25340867 -0.07631398 0.46945676 0.0022985172 361 56
-0.25067407 -0.076207526 0.46905491 0.0019715615 420 72
-0.24782838 -0.076064937 0.46852875 0.0020531388 420 72
-0.24535395 -0.076034628 0.46879038 0.0020389 399 66
-0.24139886 -0.075540394 0.46628189 0.0018989878 438 77
-0.23880729 -0.075467296 0.46645862 0.0018823182 455 82
-0.23646677 -0.075472862 0.467206 0.0018105628 479 88
-0.23388439 -0.075400569 0.46755013 0.0017552802 514 98
-0.2305544 -0.075083353 0.46644443 0.0018904605 500 94
-0.22811154 -0.075051472 0.46717346 0.0018837666 511 97
-0.22520025 -0.074863225 0.46698511 0.0016963063 525 101
-0.22221819 -0.074647233 0.46666956 0.0016070534 569 113
-0.21955596 -0.074535251 0.4670431 0.0016748656 575 115
-0.21668491 -0.074349217 0.4669843 0.0015639981 601 122
-0.21373929 -0.074133284 0.46676007 0.0015240813 617 126
-0.21107584 -0.074011549 0.46714517 0.0015343758 606 123
-0.20808318 -0.073770411 0.46678567 0.0015187613 623 128
-0.20551042 -0.073674411 0.46734756 0.0015069956 638 132
-0.20210131 -0.073273003 0.46596712 0.0014834898 681 144
-0.19920367 -0.07304997 0.46570882 0.0014869303 701 149
-0.19656086 -0.072916292 0.46600765 0.0014231751 727 157
-0.19376773 -0.072723053 0.46590987 0.0014435642 681 144
-0.19077843 -0.072450742 0.46528384 0.0014905127 674 142
-0.18787853 -0.072206244 0.46481124 0.0014316695 695 148
-0.1854036 -0.072121106 0.46533966 0.001447405 690 146
-0.18286781 -0.072009921 0.46567503 0.0014016606 706 151
-0.18016908 -0.071830988 0.46554437 0.0014092027 700 149
-0.17770229 -0.071741201 0.4659625 0.0014610623 692 147
-0.17535721 -0.071698859 0.46666077 0.0014768956 674 142
-0.17219658 -0.071317673 0.46512073 0.0013901405 728 157
-0.16949533 -0.071119234 0.46473721 0.0013744768 733 158
-0.16665755 -0.070857473 0.46390608 0.0013724105 736 159
-0.16439937 -0.070838414 0.46463218 0.0014110609 714 153
-0.1612718 -0.0704391 0.46283084 0.0014190839 726 156
-0.15905602 -0.070432507 0.46357694 0.0013738665 735 159
-0.15675953 -0.070389479 0.46405452 0.0013962087 717 154
-0.15428205 -0.070262797 0.4639509 0.001422338 731 158
-0.14910388 -0.068884768 0.45554176 0.0013103293 844 189
-0.14662191 -0.068730235 0.45518163 0.0012717672 889 201
-0.14389332 -0.068453781 0.45398369 0.0013359694 833 186
-0.14188366 -0.068516158 0.45500511 0.001385945 716 153
-0.13937263 -0.068334639 0.4543806 0.0016408543 559 110
-0.13595963 -0.067698337 0.45070049 0.0013956146 724 156
-0.13322352 -0.067384288 0.44913426 0.001278649 822 183
-0.13087119 -0.067257412 0.44878882 0.0012412451 874 197
-0.12884644 -0.067297466 0.44953385 0.0012395217 949 217
-0.12710427 -0.067488901 0.45126945 0.0012517056 917 209
-0.12691008 -0.06852261 0.45862323 0.0012375379 873 197
-0.12513885 -0.068725683 0.46040413 0.0012549621 855 192
-0.1240961 -0.069342904 0.46494344 0.0012752473 827 184
-0.12263978 -0.069746859 0.46803826 0.0012883712 820 182
-0.12064695 -0.069854788 0.46912932 0.0012674248 838 187
-0.11799792 -0.069579758 0.46762848 0.0012551784 905 205
-0.11452619 -0.068800181 0.46271288 0.0012452669 910 207
-0.10515919 -0.06438151 0.43328154 0.0013595069 772 169
-0.10164111 -0.063441217 0.42721954 0.0013322905 865 194
-0.099703155 -0.063469388 0.42766014 0.0012603846 862 194
-0.09891703 -0.064246833 0.43313748 0.0013396563 807 178
-0.096467622 -0.063953795 0.43138528 0.0012981748 825 183
-0.095422648 -0.064599134 0.4359498 0.0013976182 760 166
-0.093665555 -0.064779863 0.43736809 0.0013846931 762 166
-0.091608368 -0.064756431 0.43739539 0.0013007222 812 180
-0.089580998 -0.064753495 0.43754864 0.0012881809 826 184
-0.087342627 -0.064594388 0.43663415 0.0013276698 850 190
-0.085521795 -0.064743847 0.43779397 0.0013336178 817 181
-0.083600849 -0.064822912 0.43846732 0.0013238789 811 180
-0.081437476 -0.064713277 0.43785369 0.0013211948 830 185
-0.079824895 -0.065046869 0.44022933 0.0013480425 789 174
-0.077725612 -0.064990938 0.43995973 0.0012916209 815 181
-0.076160908 -0.065390982 0.44276822 0.0013615384 789 174
-0.074441709 -0.065676779 0.44479549 0.0014420386 726 156
-0.072580464 -0.065849908 0.44605204 0.0013771356 737 159
-0.07095217 -0.066250667 0.44884324 0.0015049679 708 151
-0.069159254 -0.066517167 0.45071816 0.0014250781 715 153
-0.067262858 -0.066697568 0.45200312 0.0013880002 728 157
-0.065261349 -0.066781946 0.45263091 0.0014725499 720 155
-0.063209347 -0.06681852 0.45292848 0.0013567301 761 166
-0.060984906 -0.066669084 0.45195931 0.0012795355 835 186
-0.058907751 -0.06667579 0.45204306 0.001225331 895 203
-0.05671154 -0.066543289 0.45117787 0.0012554022 884 200
-0.05463006 -0.066540442 0.45118713 0.0013129166 852 191
-0.052536197 -0.066521697 0.45108423 0.0013635486 822 183
-0.050352436 -0.066382892 0.45016316 0.0013577385 792 174
-0.048161786 -0.066222675 0.44909319 0.0013439343 771 169
-0.045678779 -0.065628044 0.4450739 0.0012972689 818 181
-0.043538827 -0.065493554 0.44417208 0.001262458 854 191
-0.04142103 -0.065380767 0.44341487 0.0012528416 857 192
-0.039410785 -0.065434873 0.44378707 0.0012787427 873 197
-0.037457958 -0.065595433 0.4448792 0.001256392 884 200
-0.035460591 -0.065692075 0.44553623 0.0012811407 892 202
-0.03371698 -0.066299535 0.44965628 0.0012407731 874 197
-0.031809062 -0.066642314 0.45197979 0.0012391653 886 200
-0.029969567 -0.067186512 0.45566821 0.001251588 855 192
-0.028232563 -0.068059757 0.46158743 0.001325215 847 189
-0.026147524 -0.068167917 0.46231714 0.0012629877 883 199
-0.02398801 -0.06808389 0.46174288 0.0012094285 932 213
-0.021801166 -0.067898385 0.46048021 0.001182034 949 217
-0.01960537 -0.067642003 0.45873681 0.0012450127 949 217
-0.017480956 -0.067599699 0.45844528 0.0012273351 932 213
-0.015363514 -0.067576438 0.45828316 0.0011814444 949 217
-0.013248592 -0.067558616 0.45815811 0.0011970217 933 213
-0.011134034 -0.067536235 0.45800269 0.001204934 920 209
-0.0090122754 -0.06744951 0.45741132 0.0012570744 911 207
-0.0069005629 -0.067407988 0.45712715 0.0012473729 923 210
-0.0047743842 -0.067126557 0.45521671 0.0012031333 921 210
-0.0026726199 -0.067016363 0.45446816 0.0011852527 944 216
-0.00057928823 -0.067085326 0.45493519 0.0011981266 947 217
0.001519435 -0.067202143 0.45572767 0.0012318429 885 200
0.0036261433 -0.067331687 0.45660707 0.0013508898 798 176
0.0057378071 -0.067424335 0.45723689 0.0014251218 697 148
0.007844639 -0.067425698 0.45724836 0.0014890603 650 135
0.0097995698 -0.066397272 0.45027688 0.0015092411 638 132
0.011775941 -0.06584809 0.44655588 0.0016101009 612 125
0.01376225 -0.06550958 0.44426405 0.0015090334 635 131
0.015539508 -0.064392455 0.43669212 0.0014593631 675 142
0.017542358 -0.064359091 0.43647018 0.0014508663 691 147
0.01939063 -0.063823804 0.43284443 0.0014046291 740 160
0.021333111 -0.063669518 0.43180245 0.0013042778 815 181
0.023365811 -0.063787848 0.43260911 0.0013337096 781 171
0.02536685 -0.063807942 0.43274933 0.0013272805 798 176
0.027487529 -0.064104117 0.4347614 0.0013826841 742 161
0.029624648 -0.0643958 0.43674237 0.001477087 721 155
0.031701267 -0.064527228 0.43763551 0.0014266055 702 150
0.03396751 -0.065005846 0.44088235 0.0015062982 693 147
0.035878975 -0.064789794 0.43941629 0.0014077978 739 160
0.037904099 -0.064791106 0.43942299 0.0013016392 823 183
0.04010031 -0.065069899 0.44130966 0.0013994054 788 173
0.042160396 -0.06511157 0.44158596 0.0013270258 785 172
0.0442935 -0.065256968 0.44256335 0.0013429618 772 169
0.047615319 -0.067063823 0.45480531 0.0014929643 680 144
0.049867239 -0.067274958 0.45622233 0.0013619183 760 166
0.051868752 -0.067144871 0.45532173 0.0012455535 913 208
0.053905632 -0.067068897 0.45478436 0.0011993379 971 223
0.055983465 -0.067047656 0.45461407 0.0012293576 957 220
0.058128297 -0.067105301 0.45497406 0.001175836 955 219
0.060367879 -0.067264482 0.45601758 0.0012430687 928 212
0.062422428 -0.067213751 0.4556326 0.0012005179 926 211
0.06452217 -0.067213386 0.45558342 0.0011867188 938 214
0.066642605 -0.067233905 0.45566979 0.0013225782 851 191
0.068929158 -0.067415655 0.45684212 0.0012952217 813 180
0.070825137 -0.067215957 0.45542279 0.0012930728 862 194
0.072744705 -0.067049511 0.45422167 0.0013408198 835 186
0.074836209 -0.067046396 0.45411953 0.0012580196 874 197
0.076901011 -0.0670202 0.45385286 0.0011970752 920 209
0.079073459 -0.067086719 0.45420533 0.0011977081 935 214
0.080971763 -0.066923216 0.45299146 0.0012087476 948 217
0.082860149 -0.066759959 0.45177022 0.0012185727 938 214
0.084989771 -0.066794321 0.45187631 0.0012295556 880 199
0.08703915 -0.066765465 0.45154437 0.0012284959 892 202
0.089021578 -0.0666878 0.45087147 0.0012797855 898 203
0.091351137 -0.066867799 0.45192873 0.001223471 898 203
0.093415037 -0.066849642 0.45163423 0.0012251561 892 202
0.095345601 -0.066738933 0.45070228 0.0012362831 881 199
0.097443298 -0.066747449 0.45056266 0.0012586504 880 199
0.099283792 -0.066583127 0.44924301 0.0012506924 918 209
0.10145881 -0.066645287 0.44943777 0.0012246913 922 210
0.10353041 -0.06663838 0.44915181 0.0012223216 930 212
0.10547205 -0.066549741 0.4483 0.0011854896 961 221
0.10762027 -0.066592358 0.44831672 0.001206037 968 223
0.1097575 -0.06662669 0.44826096 0.0011544377 1011 234
0.11194422 -0.066689223 0.44837746 0.0011731063 956 219
0.11355842 -0.066414624 0.44621077 0.0011533772 994 230
0.11547819 -0.066325404 0.44527328 0.0012086614 953 219
0.11730435 -0.066186503 0.44398487 0.0011827507 947 217
0.11907656 -0.066022493 0.44251037 0.0011780267 956 219
0.12068889 -0.065776944 0.44047207 0.001222631 958 220
0.12250062 -0.065646462 0.43918636 0.0011835444 971 223
0.12421463 -0.065468803 0.43756622 0.0011384692 1009 234
0.12561774 -0.065135658 0.43488926 0.00117449 1017 236
0.12713245 -0.064870089 0.43264589 0.0011385287 1010 234
0.12969074 -0.065136999 0.43393156 0.0011587667 969 223
0.13066885 -0.064614289 0.42993614 0.00116627 969 223
0.13241349 -0.064480737 0.42851245 0.0011558745 1022 237
0.13376734 -0.064163752 0.42584988 0.0011160306 1046 244
0.13566199 -0.064111695 0.42492497 0.0010665529 1154 255
0.13758767 -0.064075604 0.42408237 0.0010763598 1105 255
0.14141496 -0.064913452 0.42899132 0.0011855165 927 211
0.1485744 -0.067235515 0.44365171 0.0013236963 815 181
0.15114088 -0.067443334 0.44430885 0.0012586247 874 197
0.15497488 -0.068203248 0.44856581 0.0013986488 719 154
0.15716885 -0.068230577 0.44796848 0.0014484338 752 163
0.15948714 -0.068310425 0.44768742 0.0013345799 764 167
0.1622785 -0.068588115 0.44867116 0.0014224516 728 157
0.16477971 -0.068737529 0.44878331 0.0013380139 764 167
0.1671482 -0.068828441 0.44848353 0.0013836905 731 158
0.16920455 -0.068790153 0.44731459 0.0014065601 716 153
0.171417 -0.068815477 0.44653386 0.0013668368 734 158
0.17459726 -0.069223903 0.44820806 0.0014058928 732 158
0.17727567 -0.069425792 0.4485127 0.0014123578 706 151
0.17988028 -0.069594227 0.44857365 0.0014138909 706 151
0.18223208 -0.069662027 0.44796205 0.0013887804 720 155
0.18447338 -0.069686458 0.44705212 0.0014351832 683 144
0.18703751 -0.06983088 0.44689387 0.0014965743 689 146
0.18975338 -0.070027955 0.44705495 0.0014455157 672 141
0.19138628 -0.069825418 0.44465628 0.0014634806 676 143
0.19458659 -0.070192851 0.44587994 0.00145119 675 142
0.19716278 -0.070329487 0.44562936 0.0015795022 633 131
0.19996159 -0.070541628 0.44585681 0.0015636989 632 130
0.20254482 -0.070673928 0.44558483 0.0016051648 623 128
0.20457114 -0.070611149 0.44409871 0.0015204183 625 129
0.20685971 -0.070639253 0.4432081 0.0015431916 617 126
0.21013628 -0.071000598 0.44443265 0.0016159456 563 111
0.21280031 -0.071149588 0.44435796 0.001655874 549 108
0.21508461 -0.071169853 0.44352183 0.0016530132 544 106
0.2179603 -0.071383394 0.44393894 0.0017809724 541 105
0.22124282 -0.071724467 0.44520167 0.0017363608 506 96
0.22386584 -0.071847066 0.44516894 0.0016883992 524 101
0.22645751 -0.071957275 0.44512942 0.0018105975 474 87
0.22942357 -0.072183087 0.44588023 0.0018688649 450 80
0.23182854 -0.072229698 0.44560504 0.0018684494 451 81
0.23353778 -0.072060741 0.44408828 0.0020871691 427 74
0.23542134 -0.071948282 0.44301176 0.0022019085 385 63
-0.28057486 -0.073550239 0.47117779 0.0031150782 213 15
-0.27796885 -0.073488429 0.4699702 0.0030396704 219 17
-0.27582404 -0.073548533 0.46961769 0.0029419886 235 21
-0.27295807 -0.073415704 0.46811283 0.0028128733 246 24
-0.27165738 -0.073705249 0.46938235 0.0026904617 262 29
-0.26999262 -0.073900253 0.47013223 0.0026359879 292 37
-0.26795825 -0.073996656 0.47034246 0.0024682865 305 41
-0.26561123 -0.074007683 0.47010213 0.0028470734 288 36
-0.26368141 -0.074136205 0.47070301 0.0026419642 284 35
-0.26141268 -0.074170925 0.47080585 0.0027194046 257 27
-0.25840196 -0.073993824 0.46966362 0.0026033018 282 34
-0.25543019 -0.073824674 0.46867234 0.0023099522 363 57
-0.25271749 -0.073727913 0.46824089 0.0021440082 373 59
-0.25064567 -0.07381805 0.4690969 0.0020846245 384 62
-0.24890552 -0.074008554 0.4706912 0.002007402 423 73
-0.2450206 -0.073558852 0.46830904 0.0018520446 455 82
-0.24196911 -0.073353007 0.46756837 0.0018911088 466 85
-0.23901142 -0.073171817 0.46707085 0.0017925564 485 90
-0.23652907 -0.07313399 0.4675703 0.0017336798 501 94
-0.23392391 -0.073057033 0.46789658 0.0018455943 482 89
-0.23105542 -0.072895445 0.46774963 0.0017823663 509 97
-0.22751714 -0.072517037 0.46626902 0.0016599539 540 105
-0.22464915 -0.072346643 0.46617535 0.0016992792 524 101
-0.22178999 -0.072175547 0.46612141 0.0017481698 544 106
-0.21912636 -0.072065115 0.46649638 0.0016153397 588 118
-0.21644367 -0.071945988 0.46684524 0.0016006078 584 117
-0.21362895 -0.071779922 0.46691138 0.001536203 611 125
-0.21112208 -0.071714766 0.46764955 0.0015941709 627 129
-0.2079713 -0.071427032 0.4669432 0.0015033416 630 130
-0.20487891 -0.071153142 0.46632466 0.0014414655 680 144
-0.20237176 -0.071078576 0.46700791 0.0014376501 679 143
-0.19962873 -0.070918523 0.4671216 0.0015023726 670 141
-0.19682541 -0.070733093 0.46705404 0.0014605476 664 139
-0.19319741 -0.070243463 0.46495479 0.0014645348 668 140
-0.19053289 -0.070096686 0.46509928 0.0014406664 688 146
-0.18760338 -0.06984771 0.46454099 0.0014263832 693 147
-0.18510824 -0.069756389 0.4650051 0.0014331054 689 146
-0.18263939 -0.06967283 0.46549559 0.0013992799 700 149
-0.18004854 -0.069540076 0.4656297 0.0013831882 720 155
-0.17722914 -0.069314599 0.46511194 0.0014505141 727 157
-0.17448492 -0.06911312 0.46472257 0.0014155798 701 149
-0.17198902 -0.069006085 0.46493635 0.0014089716 698 149
-0.1695786 -0.068930969 0.46533477 0.0013672212 745 161
-0.16703367 -0.068798468 0.46531454 0.0013905464 714 153
-0.16352245 -0.068259016 0.46250522 0.0014221419 696 148
-0.1615036 -0.068336323 0.46384057 0.001511858 686 145
-0.15903419 -0.068222485 0.46384954 0.0014160658 705 150
-0.15646419 -0.068061687 0.46350795 0.0013831124 721 155
-0.15324241 -0.067608766 0.46114233 0.0014017386 706 151
-0.14874642 -0.066572472 0.4547548 0.0012814165 883 199
-0.1457058 -0.066166751 0.45263329 0.0011684583 1009 234
-0.1440241 -0.066375218 0.45468509 0.0012334603 947 217
-0.1416211 -0.066252537 0.45444357 0.0013727966 730 157
-0.13957547 -0.06629587 0.4553147 0.0016401954 551 108
-0.13633303 -0.06576322 0.45220125 0.001596065 586 118
-0.13352567 -0.065426923 0.45040688 0.0013421113 785 172
-0.13100471 -0.065222427 0.44949222 0.0012540341 852 191
-0.12896274 -0.065253615 0.45017782 0.0012475852 885 200
-0.12724675 -0.0654535 0.45200673 0.0012766573 900 204
-0.12667435 -0.066258326 0.45799813 0.0012628018 854 191
-0.12471078 -0.066350602 0.45904875 0.0012913111 840 188
-0.12405431 -0.067153662 0.46500158 0.0012624735 846 189
-0.12232022 -0.067391567 0.46702674 0.001261802 847 189
-0.12032963 -0.067494184 0.46809632 0.001218477 906 206
-0.11784297 -0.06731724 0.46720752 0.001194466 922 210
-0.11380401 -0.06623023 0.4599779 0.0012041157 917 209
-0.10503341 -0.062295306 0.43292865 0.0013433608 796 175
-0.10127885 -0.061239947 0.42585307 0.0011769722 961 221
-0.099293277 -0.061233528 0.42605194 0.0011522963 988 228
-0.0976201 -0.061423406 0.42760265 0.0012073838 907 206
-0.096720837 -0.062118191 0.43265715 0.0013163656 821 182
-0.095421158 -0.062579758 0.43607739 0.0013273484 788 173
-0.093555443 -0.062682047 0.43698242 0.0013427391 774 169
-0.091418982 -0.062603436 0.43661356 0.0013245739 816 181
-0.089322761 -0.06254945 0.43640369 0.0012916201 821 182
-0.087362982 -0.062590726 0.43684652 0.0013462126 820 182
-0.085401595 -0.062632769 0.43728361 0.0013817446 803 177
-0.083369412 -0.062623687 0.43735293 0.0012939434 820 182
-0.081300482 -0.062585846 0.43721095 0.0012834751 828 184
-0.079378724 -0.062662274 0.43785733 0.0012903929 828 184
-0.077638529 -0.062889762 0.43955034 0.0013452494 775 170
-0.075784042 -0.063034378 0.4406558 0.0013078073 808 179
-0.073983245 -0.063232876 0.44212982 0.0014347483 745 161
-0.072552264 -0.063767657 0.44594797 0.0013810475 732 158
-0.070767097 -0.06401325 0.44773698 0.0014763667 714 153
-0.069061317 -0.064347588 0.45013985 0.0013987913 716 153
-0.06709037 -0.064447917 0.45089927 0.0014633045 722 155
-0.065052092 -0.064487912 0.4512302 0.0014238 724 156
-0.062961355 -0.064476818 0.4511975 0.0014122827 749 163
-0.060826521 -0.064418271 0.45082712 0.0013179251 821 182
-0.058734652 -0.064402699 0.45075208 0.0012399692 876 197
-0.056657568 -0.064402796 0.4507817 0.0012333511 879 198
-0.054577094 -0.064398892 0.45077881 0.0013154781 837 187
-0.052493896 -0.064391337 0.45074624 0.0012965446 801 177
-0.050336588 -0.064288519 0.45004281 0.0013233429 783 172
-0.047989361 -0.063923873 0.44750315 0.0013102543 797 176
-0.045675013 -0.06357225 0.44505125 0.0012760379 832 185
-0.043520521 -0.063420542 0.4439961 0.0013227855 862 194
-0.041469757 -0.063412473 0.4439441 0.0012919568 879 198
-0.039447866 -0.063450009 0.44420916 0.0012495567 870 196
-0.037457485 -0.0635451 0.44487527 0.0012423749 875 197
-0.035618484 -0.063922875 0.44751886 0.0012457868 873 197
-0.033723731 -0.064240873 0.44974253 0.0013139389 850 190
-0.032260764 -0.065476865 0.45839161 0.0012794047 826 184
-0.030311359 -0.065829568 0.46085611 0.0012773697 846 189
-0.028215544 -0.065893494 0.46129808 0.0012620051 933 213
-0.02605449 -0.065803051 0.46065903 0.0012184589 986 228
-0.023921449 -0.065773591 0.46044657 0.0011686323 962 221
-0.021815985 -0.06582161 0.4607763 0.0012025392 921 210
-0.019578731 -0.0654395 0.45809504 0.0012092296 915 208
-0.017445493 -0.065354705 0.45749545 0.0012011769 924 211
-0.015339771 -0.065363847 0.45755374 0.001246196 918 209
-0.013224129 -0.065326899 0.4572899 0.0012018016 933 213
-0.011087197 -0.065150842 0.4560529 0.001210822 907 206
-0.0089674434 -0.065017007 0.45511204 0.0011999615 929 212
-0.006872274 -0.065034114 0.4552286 0.0012286407 930 212
-0.0047726799 -0.06500598 0.45502925 0.0012040872 941 215
-0.0026733349 -0.064939819 0.4545646 0.0012168346 936 214
-0.00057874777 -0.064928621 0.45448554 0.0012527959 908 206
0.0015204031 -0.065143906 0.45599267 0.001272281 832 185
0.0036269389 -0.065242238 0.456682 0.0013944098 733 158
0.0057185879 -0.065098882 0.45568055 0.0015392494 679 143
0.007704901 -0.064155452 0.44907939 0.0015148936 665 139
0.0097312536 -0.063874267 0.44711468 0.0015222112 626 129
0.01165112 -0.063114509 0.44180056 0.0016226014 619 127
0.013616425 -0.062790282 0.43953565 0.0015327676 664 139
0.015481611 -0.062148094 0.43504551 0.0014556082 705 150
0.017406359 -0.061864842 0.43306825 0.0013994965 751 163
0.019359587 -0.061730646 0.43213463 0.0013289965 783 172
0.021342378 -0.061706956 0.43197486 0.0013512039 784 172
0.023310278 -0.061647937 0.43156758 0.001301875 815 181
0.025353197 -0.061780997 0.43250492 0.0013173326 790 174
0.027553514 -0.062250268 0.43579552 0.0013573209 756 164
0.029654033 -0.062445637 0.43716818 0.0014083377 713 153
0.031707309 -0.062523 0.43771395 0.0013679819 745 161
0.034042649 -0.063114055 0.4418551 0.0014453186 684 145
0.036039967 -0.063047074 0.44138819 0.0014414382 684 145
0.037782021 -0.062564552 0.43801057 0.0013559156 758 165
0.040101483 -0.06303864 0.4413285 0.0013287175 778 171
0.042344112 -0.063352019 0.4435192 0.0013567347 754 164
0.045587692 -0.06506516 0.45550695 0.0014026586 714 153
0.047738042 -0.065135859 0.45599359 0.0013892129 722 155
0.04989085 -0.065203816 0.45645794 0.001266902 888 201
0.051999327 -0.065210685 0.45649141 0.0012334541 906 206
0.053987041 -0.065071456 0.45549843 0.0012255827 953 219
0.056050692 -0.065030754 0.4551912 0.0011915056 932 213
0.058254335 -0.065149546 0.45599601 0.0012276238 952 218
0.060360413 -0.065154761 0.45600092 0.0012391006 939 215
0.062445045 -0.065137245 0.45584169 0.0012329619 925 211
0.064389221 -0.064979136 0.45469314 0.0012604081 909 206
0.066790275 -0.065277517 0.45673284 0.0012517109 854 191
0.068723053 -0.065113977 0.45553419 0.0013137207 853 191
0.070420258 -0.064743564 0.45288187 0.0012441649 859 193
0.072584316 -0.064811341 0.45328772 0.0013008342 885 200
0.074769072 -0.064893275 0.45378494 0.0012684334 875 197
0.076904885 -0.064929433 0.45395371 0.0012234405 895 203
0.079015806 -0.064943217 0.45395747 0.0012022309 910 207
0.080775678 -0.064675212 0.45198286 0.0012889175 903 205
0.082767643 -0.064601839 0.4513596 0.0012133459 906 206
0.084885597 -0.06462802 0.45142186 0.0012320803 877 198
0.087075338 -0.064706273 0.4518373 0.0012624948 905 205
0.089059532 -0.064631693 0.45117471 0.0012213325 888 201
0.091095835 -0.06459748 0.45078254 0.0012256025 898 203
0.093339808 -0.064708769 0.45139357 0.0012082083 913 208
0.095285721 -0.064613082 0.45054829 0.0012209248 891 202
0.097221203 -0.064514555 0.44967079 0.0012554427 895 203
0.099374086 -0.064561397 0.4497931 0.0012356339 928 212
0.10146727 -0.064568341 0.44962317 0.0012106845 903 205
0.10335787 -0.064448684 0.44855738 0.0012722465 930 212
0.10556871 -0.064529479 0.44887179 0.001208392 930 212
0.10769224 -0.064554825 0.44878426 0.0012348552 953 219
0.10998315 -0.064677633 0.4493573 0.0012272269 957 220
0.11168564 -0.064456284 0.44752282 0.0011917526 991 229
0.11356092 -0.064340927 0.44640836 0.0011783373 989 228
0.11537759 -0.064197086 0.44507957 0.0012261349 936 214
0.11722893 -0.064077295 0.44390026 0.0011696339 962 221
0.11904651 -0.063943483 0.44260627 0.0011778272 960 220
0.12074616 -0.063751981 0.44089517 0.0012152957 993 230
0.12255614 -0.063624181 0.43960643 0.001176022 995 230
0.12439296 -0.063514277 0.4384222 0.0011788761 981 226
0.12578052 -0.063182265 0.43568674 0.001154149 981 226
0.12770848 -0.063127972 0.43484718 0.0011799801 1013 235
0.1297324 -0.063122079 0.43431929 0.0011814397 972 224
0.13078558 -0.062651336 0.43057406 0.0012044096 991 229
0.13244365 -0.062480267 0.42887044 0.0011108944 1054 246
0.13372888 -0.062141083 0.42599371 0.0010941147 1091 255
0.13565044 -0.062103242 0.42516232 0.0010942313 1100 255
0.13798338 -0.062252097 0.42558345 0.0011688861 974 224
0.14579464 -0.064832814 0.44257799 0.0013108229 821 182
0.14958057 -0.065575846 0.44696781 0.0011642447 968 223
0.15225855 -0.065819211 0.44791472 0.00128918 855 192
0.15461469 -0.065918677 0.44785142 0.00140251 769 168
0.15705371 -0.066050291 0.44797644 0.0014064524 730 157
0.15946037 -0.06616497 0.44795609 0.0013773262 734 158
0.16191503 -0.066296265 0.44801769 0.0013524756 744 161
0.16487014 -0.066626377 0.44938937 0.0014012888 720 155
0.16699384 -0.066616327 0.44843534 0.0013644153 741 160
0.16910502 -0.066601612 0.44742328 0.0014185372 711 152
0.17143396 -0.066671938 0.44695565 0.0013705877 742 161
0.17411001 -0.066873856 0.44734091 0.0014017434 714 153
0.17708948 -0.067185946 0.44843131 0.0013973101 718 154
0.17974778 -0.067370109 0.4486376 0.0013917261 719 154
0.18211208 -0.067440994 0.44806454 0.0014114558 700 149
0.18420814 -0.067412049 0.44680843 0.0014274267 694 147
0.18668418 -0.067521222 0.44645002 0.0014498994 671 141
0.18889163 -0.067531839 0.44542456 0.0014469506 686 145
0.19192782 -0.06783513 0.44631422 0.0014780264 662 139
0.1944101 -0.067938007 0.4458726 0.0014801676 652 136
0.19706112 -0.068096913 0.44579268 0.0014533626 670 141
0.19988608 -0.068311751 0.44607592 0.0014826213 646 134
0.20231493 -0.068388015 0.44545847 0.0015098223 629 130
0.20450372 -0.06838236 0.44432107 0.0015371608 628 129
0.20706359 -0.06849958 0.44400162 0.0016084915 604 123
0.20986901 -0.068694711 0.44421056 0.0015927971 580 116
0.21243243 -0.068807371 0.44391677 0.0016249663 567 113
0.21492387 -0.068894625 0.44349885 0.0017174658 540 105
0.21786407 -0.069122493 0.44403169 0.0016514867 548 107
0.22082689 -0.069352828 0.44463176 0.0018171613 511 97
0.22333623 -0.069437556 0.4443588 0.0017434816 532 103
0.22649918 -0.069721796 0.4454295 0.0018702038 457 82
0.22881828 -0.069743253 0.44489512 0.0017984222 480 89
0.23110944 -0.069755845 0.44438618 0.0019433929 475 87
0.23373458 -0.069868043 0.44459748 0.0019966501 414 71
0.23514736 -0.069619149 0.44260189 0.0021169027 377 60
-0.27836299 -0.070616916 0.4672482 0.0031343368 229 20
-0.27880114 -0.071331158 0.47117758 0.0030218316 223 18
-0.27644089 -0.071335562 0.47048694 0.0030134269 243 24
-0.27347198 -0.071181603 0.46883357 0.0027128346 270 31
-0.27175614 -0.071353979 0.46941328 0.0026904475 269 31
-0.27035955 -0.071613953 0.47065347 0.0025698172 282 34
-0.26803866 -0.071631551 0.47038984 0.0026260272 270 31
-0.26555613 -0.071605876 0.46993601 0.002550896 289 36
-0.26335189 -0.071655452 0.47007248 0.0025586116 283 35
-0.26117882 -0.071714498 0.47036955 0.0026302275 292 37
-0.25771159 -0.071415998 0.46842176 0.0027445317 260 28
-0.25482038 -0.071273051 0.46759507 0.0022967225 355 54
-0.25221136 -0.071207091 0.46737424 0.0022029686 358 55
-0.2508541 -0.071496628 0.46958801 0.0020418032 384 62
-0.24849461 -0.071503334 0.47004485 0.001929127 434 76
-0.24549797 -0.071325079 0.46938124 0.0018688341 452 81
-0.24191064 -0.070970021 0.46764305 0.0019276206 461 83
-0.23942101 -0.070933171 0.4680866 0.0019708588 464 84
-0.23690709 -0.070888326 0.4685595 0.0018902929 502 95
-0.23339352 -0.070540436 0.46710166 0.001677121 536 104
-0.23104836 -0.070542209 0.46802491 0.0017130686 511 97
-0.22813219 -0.07036788 0.46784005 0.0018891387 501 94
-0.2240597 -0.069829568 0.46528 0.0017338257 512 97
-0.22155847 -0.069774777 0.46597984 0.0017348069 574 115
-0.21900775 -0.069703065 0.46660399 0.0016883241 567 113
-0.2157224 -0.069393516 0.46566138 0.0015537563 606 123
-0.2138207 -0.069527164 0.46771413 0.0014711699 655 137
-0.21115601 -0.069412924 0.46811691 0.0015219583 628 129
-0.20752321 -0.068974383 0.46633416 0.0015405949 653 136
-0.20484915 -0.068848245 0.46665862 0.001492215 661 138
-0.20225607 -0.068746783 0.46714574 0.0015080498 637 132
-0.19962035 -0.068628334 0.46750832 0.0014364131 703 150
-0.19687599 -0.068469338 0.46758026 0.0014605173 669 141
-0.19325364 -0.067997701 0.46549311 0.0014617062 667 140
-0.19028187 -0.067746498 0.46488634 0.0014993243 675 142
-0.18753396 -0.067569926 0.46476537 0.0013815765 726 156
-0.18483804 -0.06740801 0.46471819 0.0014574786 682 144
-0.18265238 -0.067430489 0.46591651 0.0013892305 729 157
-0.17991158 -0.067246042 0.46565744 0.001482326 710 152
-0.17741762 -0.067150354 0.46598259 0.0014099301 708 151
-0.1741226 -0.066745162 0.46412539 0.0014143742 708 151
-0.17173502 -0.06668181 0.46461082 0.0013766936 724 156
-0.1691695 -0.066546828 0.46456596 0.0013588294 746 162
-0.16675332 -0.066467777 0.46488017 0.0014981385 690 146
-0.16413175 -0.066303611 0.46456712 0.0015387082 667 140
-0.16145468 -0.066112258 0.46403033 0.0014687731 711 152
-0.15911263 -0.066054679 0.46440086 0.0014392775 718 154
-0.15629797 -0.065796532 0.46332932 0.0015003331 702 150
-0.15318489 -0.065403625 0.46127349 0.0014174385 702 150
-0.15042391 -0.065151893 0.46017876 0.001362038 764 167
-0.14696439 -0.064585783 0.45682827 0.0013394766 826 184
-0.14374299 -0.064109065 0.45407325 0.0012609528 852 191
